ply
format ascii 1.0
element vertex 895
property float x
property float y
property float z
property float nx
property float ny
property float nz
property uchar diffuse_red
property uchar diffuse_green
property uchar diffuse_blue
end_header
19.7135 36.7202 60.9904 0.247 -0.178 -0.952 90 86 83
19.8617 36.6919 61.0230 0.212 -0.110 -0.971 79 76 71
26.9706 34.6675 61.0774 0.064 -0.487 -0.871 29 36 18
27.1105 34.6405 61.1076 0.105 -0.506 -0.856 31 38 20
27.2433 34.6217 61.1516 0.106 -0.483 -0.869 30 37 19
27.5204 34.5704 61.2165 0.090 -0.455 -0.886 33 42 23
27.6608 34.5426 61.2450 0.090 -0.455 -0.886 34 43 24
27.7789 34.5404 61.3172 0.051 -0.508 -0.860 32 44 24
28.7646 34.4766 61.8167 0.387 -0.320 -0.865 31 44 24
29.6279 34.2788 61.9321 0.352 -0.424 -0.835 51 59 46
29.6665 34.3742 62.1738 0.523 -0.044 -0.851 51 59 46
29.7851 34.3722 62.2467 0.523 -0.044 -0.851 49 55 45
29.9337 34.3331 62.2551 0.523 -0.092 -0.848 37 45 32
30.0575 34.3246 62.3167 0.554 -0.092 -0.828 47 55 42
30.1557 34.3479 62.4338 0.655 -0.007 -0.756 41 49 36
30.9216 34.2689 62.7550 0.712 -0.556 -0.429 46 54 39
31.0184 34.2952 62.8779 0.720 -0.636 -0.280 53 61 46
31.1324 34.2998 62.9628 0.719 -0.638 -0.277 84 92 77
31.2217 34.3363 63.1040 0.719 -0.638 -0.276 126 130 116
31.2983 34.3898 63.2753 0.692 -0.667 -0.276 125 128 117
31.5634 34.5073 63.7151 0.434 0.109 -0.894 84 86 75
33.9389 33.8475 63.7710 0.252 -0.498 -0.830 73 79 67
33.6593 34.7558 65.6480 -0.450 -0.125 -0.884 34 40 27
33.7540 34.7939 65.7962 -0.028 0.190 -0.981 29 36 19
35.1898 33.9211 64.7552 0.149 0.010 -0.989 33 40 22
39.5110 34.1688 68.1404 0.280 -0.706 -0.651 54 49 43
39.8580 33.9804 67.9401 0.799 -0.016 -0.601 40 41 28
39.9874 33.9675 67.9952 0.805 -0.109 -0.584 40 46 29
40.1923 34.0434 68.3014 0.792 -0.263 -0.552 53 62 41
41.3943 34.1058 69.2281 0.558 0.372 -0.742 52 61 42
42.0039 34.1292 69.6795 0.594 0.324 -0.737 72 72 60
42.7371 34.1622 70.2335 0.438 0.042 -0.898 83 86 75
42.8605 34.1661 70.3228 0.463 -0.107 -0.880 85 91 79
42.9888 34.1593 70.3912 0.463 -0.107 -0.880 85 91 77
43.1271 34.1297 70.4147 0.074 -0.029 -0.997 86 92 78
43.2682 34.0939 70.4255 0.587 -0.063 -0.807 86 92 78
43.3637 34.1620 70.6425 0.604 -0.130 -0.786 67 73 59
44.0571 34.0073 70.7448 0.075 -0.099 -0.992 67 71 54
45.9171 34.4449 72.9522 0.971 -0.240 -0.021 47 65 27
47.0892 34.4063 73.6307 0.026 -0.104 -0.994 41 61 32
47.2282 34.3759 73.6526 0.304 -0.171 -0.937 62 83 52
47.3629 34.3586 73.7013 0.300 -0.185 -0.936 56 77 46
47.4979 34.3404 73.7482 0.300 -0.185 -0.936 54 73 41
48.1748 34.2399 73.9626 -0.259 -0.750 -0.609 34 54 17
48.6526 34.3796 74.5917 0.553 -0.445 -0.704 59 80 41
48.7901 34.3537 74.6228 0.369 -0.355 -0.859 40 61 22
48.9216 34.3488 74.6977 0.342 -0.346 -0.874 45 66 27
49.0530 34.3447 74.7741 0.519 -0.386 -0.763 71 92 53
50.3349 34.4514 75.8538 0.468 -0.145 -0.872 95 101 93
50.4700 34.4365 75.9083 0.495 -0.134 -0.859 96 100 93
50.6041 34.4261 75.9724 0.464 0.024 -0.886 97 101 93
50.7360 34.4254 76.0568 0.486 0.058 -0.872 92 98 88
52.1315 34.7468 77.6975 0.546 0.016 -0.838 86 92 85
52.2660 34.7448 77.7809 0.557 0.107 -0.824 74 81 74
52.3970 34.7623 77.9062 0.656 0.080 -0.751 66 72 68
52.5283 34.7798 78.0317 0.634 0.074 -0.770 85 92 85
52.6631 34.7781 78.1158 0.626 0.068 -0.777 92 99 92
52.7951 34.7929 78.2357 0.651 0.075 -0.755 101 109 102
53.1726 34.9656 78.8741 0.559 -0.379 -0.737 119 129 129
53.3113 34.9455 78.9191 0.363 -0.201 -0.910 125 135 136
53.4441 34.9653 79.0506 0.349 -0.318 -0.882 124 135 135
53.5815 34.9548 79.1165 0.241 -0.316 -0.918 124 135 135
53.7380 34.8092 78.8886 0.404 0.013 -0.915 123 135 135
53.8731 34.8119 78.9831 0.399 0.016 -0.917 119 130 132
54.6515 35.1293 80.2116 0.393 -0.232 -0.890 108 116 118
54.9282 35.1118 80.3527 0.092 -0.247 -0.965 90 99 96
56.0476 34.8995 80.6026 0.143 -0.094 -0.985 103 108 103
56.5688 35.3714 82.0132 0.694 0.036 -0.719 97 103 99
56.6972 35.5640 82.5340 -0.085 -0.036 -0.996 99 105 103
56.9946 35.2449 82.0048 0.125 -0.112 -0.986 103 109 107
61.2703 35.9396 86.3739 0.869 -0.413 -0.273 137 153 150
61.4250 36.0767 86.7857 0.754 -0.181 -0.632 137 153 150
62.4529 37.7148 91.1722 0.867 0.417 -0.273 105 118 114
62.9692 39.8232 96.2908 0.929 0.296 -0.223 92 89 89
-15.6806 48.1502 63.3341 -0.061 0.163 -0.985 71 85 88
-12.0083 46.6071 62.2470 -0.263 -0.143 -0.954 51 71 69
-11.2160 46.2528 61.9641 0.288 -0.468 -0.836 90 109 105
-11.0947 46.2619 62.0638 0.270 -0.408 -0.872 72 91 87
-10.4540 46.0082 61.9092 -0.246 0.101 -0.964 54 73 66
-10.1090 46.1409 62.4339 -0.034 0.126 -0.991 52 74 59
-9.0790 45.5229 61.7108 -0.251 -0.390 -0.886 49 72 56
-6.2385 44.2799 60.7584 0.452 -0.735 -0.506 59 72 64
-5.9863 44.3783 61.1449 0.254 0.309 -0.916 61 74 68
-5.0361 44.1683 61.2909 -0.197 0.064 -0.978 49 58 57
-4.5787 44.0281 61.2729 -0.230 0.039 -0.972 60 74 71
-3.9464 43.7613 61.0832 -0.061 0.055 -0.997 83 104 96
-3.7116 43.6857 61.0658 -0.027 0.057 -0.998 91 113 103
-3.4749 43.6086 61.0462 -0.115 0.000 -0.993 53 75 66
-2.5020 42.9985 60.3039 -0.059 -0.319 -0.946 67 87 78
-0.3454 42.4475 60.4671 0.505 -0.295 -0.811 51 57 57
0.4180 42.2580 60.5374 -0.367 0.129 -0.921 55 60 56
4.5518 40.5442 59.3662 0.519 -0.065 -0.853 47 51 50
3.6494 41.3381 60.5693 -0.298 0.022 -0.954 48 52 51
3.8746 41.2609 60.5420 -0.290 0.019 -0.957 55 59 58
4.2052 41.1015 60.3978 -0.298 0.030 -0.954 61 65 64
4.7227 40.7957 60.0452 0.228 -0.245 -0.942 68 72 71
4.9063 40.7494 60.0604 0.019 -0.231 -0.973 67 71 70
5.1105 40.6868 60.0524 0.016 -0.101 -0.995 68 72 71
6.4544 40.2123 59.8581 0.180 -0.169 -0.969 80 82 77
6.7791 40.1499 59.9292 0.180 -0.169 -0.969 55 57 52
6.9470 40.1141 59.9580 0.148 -0.140 -0.979 52 54 49
7.1305 40.0658 59.9686 0.119 -0.138 -0.983 66 66 64
7.2959 40.0318 59.9999 0.124 -0.146 -0.981 75 75 73
7.4649 39.9949 60.0268 0.124 -0.146 -0.981 60 60 58
7.6184 39.9703 60.0713 0.141 -0.097 -0.985 54 54 52
7.7922 39.9293 60.0921 0.055 -0.396 -0.917 54 54 52
11.7627 38.6582 59.8135 0.387 -0.037 -0.921 78 78 78
11.9144 38.6318 59.8530 0.393 -0.215 -0.894 71 71 71
12.0751 38.5977 59.8808 0.509 -0.286 -0.812 59 59 59
12.5553 38.6006 60.2007 0.415 -0.173 -0.893 50 48 49
12.6806 38.5970 60.2742 0.448 -0.107 -0.887 53 51 52
15.5910 37.6191 59.9659 -0.086 -0.155 -0.984 81 78 69
16.3782 37.4458 60.0882 0.508 -0.598 -0.620 93 90 85
17.2331 37.3172 60.3556 0.182 -0.182 -0.966 153 149 146
17.8909 37.1477 60.4023 0.348 0.085 -0.934 96 93 88
23.9125 35.4987 60.6088 0.335 0.118 -0.935 76 76 66
24.0468 35.4802 60.6546 0.335 0.118 -0.935 62 62 50
24.1926 35.4495 60.6803 -0.066 0.079 -0.995 57 55 42
25.0179 35.1896 60.6322 0.473 -0.615 -0.631 101 99 86
25.1417 35.1815 60.6948 0.492 -0.616 -0.615 111 112 98
25.3115 35.1235 60.6746 0.223 -0.634 -0.741 75 77 63
25.4214 35.1305 60.7621 0.073 -0.208 -0.976 96 100 85
25.5770 35.0877 60.7668 0.171 -0.129 -0.977 90 94 79
25.7192 35.0593 60.7955 0.197 -0.095 -0.976 64 68 53
27.5277 34.7254 61.2218 0.280 -0.460 -0.843 34 43 24
27.6568 34.7106 61.2727 0.280 -0.460 -0.843 34 43 24
28.3593 34.5691 61.4117 0.500 -0.595 -0.630 32 41 22
28.6926 34.5879 61.6715 0.574 -0.464 -0.674 50 62 42
28.8070 34.5905 61.7521 0.445 -0.278 -0.851 49 62 42
29.4146 34.4197 61.7628 -0.093 -0.432 -0.897 21 29 14
29.4773 34.4852 61.9517 0.280 -0.545 -0.790 23 31 18
29.6621 34.4018 61.8840 0.352 -0.424 -0.835 23 31 18
29.6952 34.5044 62.1372 0.393 -0.452 -0.801 23 31 18
29.8294 34.4831 62.1766 0.388 -0.474 -0.790 23 31 18
30.2266 34.4254 62.3055 0.331 -0.422 -0.844 26 34 21
30.3661 34.3972 62.3328 0.094 -0.356 -0.930 30 38 23
30.5056 34.3687 62.3596 -0.012 -0.331 -0.944 38 46 31
31.5792 34.6560 63.7085 0.454 -0.176 -0.874 110 111 103
33.7940 34.9116 65.7302 -0.238 -0.077 -0.968 29 36 19
34.1822 34.6987 65.5030 0.816 -0.393 -0.423 21 28 10
37.2335 34.2807 66.5501 0.924 0.141 -0.356 28 40 20
37.6692 33.7590 65.6569 0.331 -0.185 -0.925 22 34 14
38.6974 32.8265 64.2228 -0.034 -0.812 -0.583 26 37 20
39.2887 34.3122 67.9621 0.080 -0.629 -0.773 59 56 47
41.3966 34.2939 69.2958 0.449 0.293 -0.844 52 61 42
41.5193 34.2969 69.3827 0.474 0.280 -0.835 58 67 48
41.6269 34.3314 69.5308 0.557 0.089 -0.826 65 72 54
41.7592 34.3151 69.5802 0.557 0.114 -0.823 64 67 52
41.8830 34.3165 69.6642 0.557 0.114 -0.823 68 66 53
42.4747 34.3868 70.2090 0.254 -0.068 -0.965 75 75 63
43.2406 34.3575 70.6425 0.371 0.004 -0.929 84 90 76
46.0429 34.3128 72.3698 0.034 0.172 -0.985 49 70 31
46.1901 34.2573 72.3405 0.042 0.171 -0.984 40 61 22
46.3377 34.2001 72.3076 0.194 -0.810 -0.553 39 59 22
46.7998 34.7248 73.7936 -0.510 0.064 -0.858 39 60 27
47.1146 34.5551 73.6158 0.026 -0.104 -0.994 45 66 34
47.2613 34.5009 73.5893 0.019 -0.084 -0.996 72 93 60
47.3950 34.4868 73.6446 0.010 -0.128 -0.992 66 88 54
47.5289 34.4716 73.6977 0.259 -0.216 -0.941 53 75 39
47.9459 34.3761 73.7541 -0.218 -0.409 -0.886 38 60 22
48.2056 34.3715 73.9132 0.177 0.391 -0.903 34 56 18
48.9450 34.5078 74.7033 0.175 -0.251 -0.952 48 69 30
52.0143 34.9562 77.7176 0.584 0.299 -0.754 84 92 81
52.1528 34.9333 77.7563 0.592 0.324 -0.738 87 96 87
52.4135 34.9779 78.0271 0.521 0.144 -0.842 108 118 110
53.6098 35.1079 79.1011 0.272 -0.318 -0.908 124 135 137
54.0380 34.9577 79.0414 0.374 -0.118 -0.920 116 127 131
54.4097 35.2515 79.9471 0.834 0.015 -0.551 87 97 99
54.5450 35.2673 80.0709 0.577 -0.224 -0.785 88 98 100
54.6841 35.2509 80.1248 0.367 -0.280 -0.887 86 94 97
54.8191 35.2720 80.2603 0.101 -0.447 -0.889 70 79 78
54.9596 35.2430 80.2865 0.199 -0.211 -0.957 69 75 73
56.0756 35.0676 80.6187 0.140 -0.120 -0.983 102 107 101
57.7175 35.5901 82.8691 0.090 -0.761 -0.643 117 132 129
57.8576 35.6164 83.0201 -0.466 -0.487 -0.739 119 131 129
58.0019 35.4728 82.7902 -0.316 -0.500 -0.807 117 129 127
58.4152 36.2074 84.7178 0.425 0.324 -0.845 123 134 130
61.4567 36.2336 86.7612 0.757 -0.185 -0.627 137 153 150
-12.0300 46.8092 62.2537 -0.271 -0.138 -0.952 49 68 66
-11.1282 46.3790 61.8747 0.282 -0.420 -0.862 70 89 87
-9.9369 46.3017 62.4772 -0.256 0.129 -0.958 46 69 53
-7.0477 45.1233 61.7116 -0.269 0.209 -0.940 62 75 64
-6.0743 44.6214 61.2181 0.245 0.324 -0.914 65 81 70
-5.8397 44.5480 61.2062 0.558 0.293 -0.776 77 90 81
-5.6621 44.5150 61.2476 0.291 -0.650 -0.702 45 55 52
-5.4894 44.4854 61.2936 0.286 -0.607 -0.742 100 110 110
-5.2552 44.4118 61.2808 -0.033 -0.243 -0.969 29 37 39
-5.0654 44.3697 61.3098 -0.197 0.064 -0.978 104 110 113
-4.0132 43.9888 61.1395 -0.081 -0.108 -0.991 70 86 80
-3.7341 43.8811 61.0794 -0.109 -0.129 -0.986 91 106 101
-2.4420 43.1315 60.2369 0.008 -0.318 -0.948 48 63 58
-1.9199 43.0307 60.3508 0.221 -0.398 -0.891 38 48 47
0.7167 42.3042 60.4360 -0.175 -0.222 -0.959 55 60 56
0.9878 42.1956 60.3686 -0.186 -0.231 -0.955 51 56 52
1.2816 42.0695 60.2767 0.181 0.226 -0.957 59 64 60
4.5847 40.7844 59.5413 0.468 0.161 -0.869 52 56 55
4.3219 41.0855 60.0464 0.096 -0.171 -0.981 54 58 57
4.5164 41.0309 60.0506 0.085 -0.143 -0.986 59 63 62
4.7449 40.9496 60.0167 0.246 -0.221 -0.944 60 64 63
4.9343 40.8986 60.0255 0.019 -0.231 -0.973 60 64 63
5.1253 40.8463 60.0323 0.049 -0.187 -0.981 67 71 70
7.9813 40.0451 60.0928 0.286 -0.341 -0.896 56 56 54
8.1270 40.0267 60.1463 0.286 -0.341 -0.896 68 68 66
10.1628 39.3563 59.9664 0.225 -0.024 -0.974 78 79 74
10.4275 39.2366 59.8697 0.426 0.024 -0.904 62 63 58
10.5621 39.2256 59.9328 0.426 0.024 -0.904 98 99 94
10.6871 39.2228 60.0080 0.201 -0.108 -0.974 98 98 96
10.8337 39.2018 60.0563 0.187 -0.099 -0.977 86 86 84
11.0142 39.1521 60.0621 0.193 -0.074 -0.978 73 73 73
11.1485 39.1413 60.1254 0.375 -0.089 -0.923 60 60 60
11.7164 38.9680 60.1060 0.009 0.091 -0.996 65 65 65
11.9024 38.9126 60.1026 0.009 0.091 -0.996 61 61 61
12.2665 38.8079 60.1047 0.216 0.035 -0.976 68 66 67
12.4148 38.7844 60.1486 0.455 -0.002 -0.891 50 48 49
14.0980 38.2623 60.0719 0.591 -0.396 -0.703 81 80 75
14.6363 38.1042 60.0673 -0.103 -0.341 -0.934 71 68 58
16.4159 37.4670 59.7950 0.072 -0.643 -0.763 84 80 77
16.8025 37.5497 60.2326 0.160 -0.310 -0.937 109 105 102
18.6711 37.2515 60.7799 0.153 -0.214 -0.965 95 92 85
18.8314 37.2122 60.7961 0.674 -0.226 -0.703 101 98 91
19.8290 37.0550 61.0927 0.178 0.114 -0.977 93 88 84
24.1978 35.6069 60.6853 -0.026 0.125 -0.992 121 119 107
24.3640 35.5543 60.6752 -0.047 0.108 -0.993 107 105 92
25.5946 35.2312 60.7509 0.171 -0.129 -0.977 45 49 32
25.7343 35.2055 60.7843 0.197 -0.095 -0.976 45 49 32
27.2254 35.1034 61.5263 0.138 -0.868 -0.477 37 46 25
27.4978 34.9236 61.2997 -0.036 0.078 -0.996 33 42 23
27.6468 34.8859 61.3120 -0.034 0.066 -0.997 34 43 24
27.8064 34.8357 61.3032 -0.034 0.066 -0.997 34 43 26
28.8307 34.7268 61.7257 0.439 -0.248 -0.864 24 36 16
29.4737 34.6548 61.9830 0.443 -0.432 -0.785 41 49 34
29.6033 34.6392 62.0323 0.279 -0.331 -0.901 41 49 34
29.7340 34.6221 62.0791 0.279 -0.331 -0.901 40 48 35
29.8647 34.6051 62.1259 0.279 -0.331 -0.901 43 51 38
29.9997 34.5826 62.1632 0.351 -0.454 -0.819 51 59 46
30.1342 34.5606 62.2015 0.331 -0.422 -0.844 50 58 45
30.2607 34.5487 62.2572 0.331 -0.422 -0.844 51 59 44
30.4053 34.5138 62.2730 0.095 -0.377 -0.921 47 56 41
30.5490 34.4800 62.2907 -0.000 -0.320 -0.947 45 53 38
30.6689 34.4762 62.3602 0.010 -0.286 -0.958 45 54 38
32.7034 34.2679 63.2175 0.285 0.133 -0.949 88 92 78
34.2203 34.8181 65.4415 0.756 -0.527 -0.388 23 30 12
34.3173 34.8530 65.5833 0.756 -0.527 -0.388 55 62 44
34.4164 34.8855 65.7208 0.724 -0.561 -0.402 80 87 69
39.3294 34.4236 67.8833 0.248 -0.721 -0.646 73 73 61
39.8586 34.3525 68.0684 0.629 -0.383 -0.677 40 42 28
40.2317 34.3442 68.2928 0.803 -0.130 -0.582 46 55 34
40.4306 34.4361 68.6288 0.867 -0.012 -0.498 41 50 29
41.4742 34.5838 69.6405 0.242 -0.543 -0.804 56 68 48
41.6067 34.5679 69.6911 0.242 -0.543 -0.804 63 71 53
41.7451 34.5394 69.7172 0.559 -0.473 -0.681 65 68 54
41.8667 34.5464 69.8121 0.559 -0.473 -0.681 67 66 53
41.9927 34.5441 69.8890 0.502 -0.499 -0.706 71 73 60
42.1423 34.4915 69.8682 0.631 -0.305 -0.713 78 78 66
42.2454 34.5386 70.0413 0.464 -0.456 -0.760 85 85 73
42.3483 34.5874 70.2177 -0.019 -0.500 -0.866 82 82 70
42.4890 34.5538 70.2340 -0.019 -0.500 -0.866 75 75 63
42.6401 34.4969 70.2048 -0.273 -0.516 -0.812 68 70 57
42.8305 34.3519 70.0029 0.760 0.020 -0.650 102 106 92
42.9577 34.3466 70.0739 0.757 0.027 -0.653 71 75 61
44.6547 34.1825 70.8105 0.139 -0.166 -0.976 88 99 74
44.7986 34.1360 70.7998 -0.098 0.186 -0.978 60 74 47
46.3618 34.3494 72.2975 0.221 -0.757 -0.615 41 61 24
46.3554 34.7357 73.1612 0.033 -0.862 -0.505 35 57 19
46.8233 34.8805 73.7913 -0.510 0.064 -0.858 36 58 22
47.1380 34.7104 73.6142 0.015 -0.106 -0.994 48 70 34
47.2796 34.6721 73.6204 0.015 -0.106 -0.994 90 112 75
47.4210 34.6339 73.6266 0.015 -0.106 -0.994 62 84 47
47.5562 34.6147 73.6716 0.262 -0.214 -0.941 36 58 20
47.9790 34.4998 73.6889 -0.218 -0.409 -0.886 40 62 23
48.1570 34.7709 74.4139 -0.117 0.346 -0.931 41 63 25
49.8470 34.8129 75.6090 0.859 -0.132 -0.494 85 99 75
50.5261 34.7257 75.8555 0.576 0.342 -0.742 85 96 85
50.6500 34.7603 76.0139 0.627 0.264 -0.733 90 101 87
50.7706 34.8111 76.2065 0.592 -0.168 -0.788 85 96 82
52.3058 35.1351 77.9345 0.380 0.073 -0.922 121 131 123
52.4414 35.1296 78.0104 0.506 -0.136 -0.852 142 152 144
52.5766 35.1263 78.0912 0.506 -0.136 -0.852 134 144 136
53.1004 35.2270 78.6585 0.641 -0.403 -0.653 119 131 131
53.2335 35.2423 78.7797 0.641 -0.403 -0.653 110 124 124
53.3772 35.1890 78.7535 0.643 0.018 -0.766 112 124 124
53.5090 35.2147 78.8971 0.618 0.024 -0.786 124 136 136
53.7964 35.1011 78.8291 0.491 -0.071 -0.868 123 135 135
53.9305 35.1120 78.9409 0.324 -0.029 -0.946 110 120 122
54.5791 35.3760 79.9565 0.581 -0.238 -0.778 70 79 84
54.8508 35.4008 80.1892 0.088 -0.446 -0.890 56 65 65
54.9912 35.3726 80.2173 0.088 -0.446 -0.890 58 64 61
55.2688 35.3459 80.3381 0.248 -0.647 -0.721 63 67 66
56.4929 35.6151 81.7403 0.268 0.509 -0.818 91 96 92
61.4696 38.3279 91.0768 0.983 -0.148 -0.109 137 153 150
61.8558 37.3635 89.1616 0.184 0.471 -0.862 149 165 162
62.0320 37.6860 90.0010 -0.161 -0.306 -0.938 150 166 163
65.8864 30.7648 76.9624 -0.292 -0.366 -0.884 84 87 76
-16.1621 48.8575 63.7151 -0.401 -0.070 -0.914 59 73 76
-12.0079 46.9816 62.2222 -0.280 -0.143 -0.949 38 57 55
-10.9151 46.5113 61.8813 0.247 0.253 -0.936 64 83 81
-10.8722 46.5745 62.0505 0.242 0.348 -0.906 64 83 80
-10.8446 46.8359 62.6530 -0.097 -0.037 -0.995 34 56 40
-10.3801 46.6082 62.4458 -0.051 0.203 -0.978 34 57 41
-10.0793 46.4934 62.3847 -0.055 0.217 -0.975 35 58 42
-9.5963 46.3452 62.3674 -0.257 0.160 -0.953 45 66 49
-6.9871 45.2632 61.6450 -0.335 -0.112 -0.936 54 68 53
-6.1516 44.8575 61.2811 0.245 0.324 -0.914 63 80 65
-5.8956 44.7688 61.2494 0.558 0.293 -0.776 86 99 89
-5.6105 44.6590 61.1893 0.294 -0.642 -0.708 38 49 44
-5.4173 44.6146 61.2157 0.286 -0.607 -0.742 91 99 100
-5.2224 44.5689 61.2402 -0.033 -0.243 -0.969 26 31 34
-5.0012 44.5042 61.2393 -0.208 -0.267 -0.941 89 94 97
-4.7548 44.4211 61.2138 -0.223 -0.270 -0.937 55 62 64
-3.9742 44.1401 61.0930 0.054 0.064 -0.997 43 54 53
-3.7001 44.0357 61.0378 -0.097 -0.186 -0.978 55 66 62
-3.4386 43.9400 60.9940 -0.221 -0.143 -0.965 41 53 51
-2.4005 43.2777 60.1882 0.008 -0.318 -0.948 46 57 56
-0.8653 42.8063 60.1325 -0.332 -0.530 -0.780 64 73 72
-0.3895 42.5478 59.8639 -0.132 -0.310 -0.942 53 59 59
0.7397 42.4618 60.4060 -0.178 -0.231 -0.957 61 66 62
0.9691 42.3844 60.3821 -0.178 -0.231 -0.957 59 64 60
1.1977 42.3073 60.3583 -0.178 -0.231 -0.957 59 64 60
1.4803 42.1889 60.2773 -0.012 -0.438 -0.899 62 67 63
1.6743 42.1375 60.2886 -0.004 -0.441 -0.897 61 67 63
3.0134 41.7875 60.3769 -0.305 -0.643 -0.702 60 64 63
3.2063 41.7355 60.3863 -0.334 -0.672 -0.661 60 64 63
4.1675 41.2804 59.9936 0.083 -0.124 -0.989 60 64 63
4.3281 41.2524 60.0354 0.093 -0.167 -0.982 58 62 61
4.5325 41.1900 60.0288 0.085 -0.143 -0.986 52 56 55
4.7279 41.1344 60.0316 0.095 -0.149 -0.984 52 56 55
4.9045 41.0934 60.0549 0.095 -0.149 -0.984 52 56 55
5.1066 41.0323 60.0495 0.086 -0.126 -0.988 58 62 61
7.1739 40.3703 59.9138 0.090 0.150 -0.985 113 115 112
8.1484 40.1788 60.1194 0.261 0.145 -0.954 68 68 66
10.0973 39.5795 60.0467 0.246 -0.122 -0.961 87 88 83
10.2497 39.5540 60.0890 0.246 -0.122 -0.961 76 77 72
10.4020 39.5286 60.1312 0.246 -0.122 -0.961 105 106 101
10.6056 39.4597 60.1095 0.171 -0.165 -0.971 72 72 70
10.8207 39.3808 60.0729 0.013 -0.283 -0.959 65 65 63
10.9660 39.3608 60.1228 -0.007 -0.279 -0.960 66 66 66
11.1077 39.3440 60.1773 0.097 -0.245 -0.965 68 68 68
11.7119 38.9315 59.6480 0.620 -0.329 -0.712 87 87 87
13.5830 38.3527 59.5706 0.258 -0.250 -0.933 76 75 71
14.3571 38.1980 59.7279 0.307 -0.405 -0.861 78 77 72
16.5140 37.7607 60.1530 0.085 -0.364 -0.928 75 71 68
18.6949 37.3942 60.7520 0.153 -0.214 -0.965 99 96 89
18.8450 37.3647 60.7835 0.617 -0.318 -0.720 130 127 120
20.0044 37.1657 61.0925 -0.225 -0.018 -0.974 111 106 100
25.0117 35.5221 60.6738 -0.053 0.126 -0.991 76 74 62
25.6131 35.3737 60.7333 0.204 -0.105 -0.973 71 74 57
25.7534 35.3474 60.7656 0.204 -0.105 -0.973 80 83 66
27.5102 35.0732 61.2951 0.313 0.134 -0.940 24 31 13
27.6409 35.0569 61.3436 0.261 0.151 -0.953 32 39 23
28.8956 34.8133 61.6149 0.548 -0.663 -0.510 28 37 18
29.8813 34.7503 62.1152 0.297 -0.300 -0.906 39 50 34
30.0114 34.7339 62.1632 0.297 -0.300 -0.906 40 51 35
30.1395 34.7201 62.2156 0.386 -0.426 -0.818 40 51 34
30.2629 34.7121 62.2779 0.386 -0.426 -0.818 41 52 35
30.4024 34.6838 62.3054 0.269 -0.414 -0.870 42 55 38
30.5368 34.6618 62.3437 0.268 -0.332 -0.905 47 60 43
30.6267 34.6966 62.4799 0.518 -0.287 -0.806 48 61 44
30.7327 34.7113 62.5816 0.470 -0.118 -0.875 46 59 43
30.8546 34.7055 62.6480 0.470 -0.118 -0.875 48 61 44
32.7199 34.4142 63.2098 0.254 0.122 -0.959 116 120 106
34.5641 35.0222 65.7688 0.714 -0.560 -0.419 47 51 36
34.6655 35.0520 65.9015 0.714 -0.560 -0.419 25 29 14
36.2526 34.4665 65.6244 0.353 0.401 -0.845 31 40 21
39.3751 34.5255 67.7871 0.248 -0.721 -0.646 93 95 82
39.8782 34.5028 68.0637 0.101 -0.161 -0.982 45 49 34
40.0179 34.4710 68.0833 0.101 -0.161 -0.982 65 73 53
40.1527 34.4481 68.1198 0.112 -0.165 -0.980 54 66 42
40.2466 34.5041 68.3061 0.571 -0.451 -0.686 37 49 25
40.3839 34.4766 68.3340 -0.026 -0.669 -0.743 39 51 27
40.4918 34.5064 68.4708 0.686 -0.490 -0.538 37 49 25
41.2522 34.7216 69.4466 0.379 -0.720 -0.582 45 57 37
41.7815 34.6582 69.6490 0.274 -0.583 -0.765 46 50 33
41.9248 34.6190 69.6545 -0.320 -0.534 -0.783 72 74 58
42.0429 34.6332 69.7632 0.507 -0.517 -0.689 71 73 59
42.1721 34.6239 69.8265 0.641 -0.387 -0.663 74 76 62
42.3925 34.6890 70.1153 -0.120 -0.432 -0.894 69 70 56
42.5310 34.6598 70.1402 -0.116 -0.499 -0.859 65 66 52
45.8900 35.1791 73.4860 0.707 -0.706 -0.044 66 88 49
46.0291 35.1523 73.5165 0.186 -0.938 -0.293 45 67 28
46.4098 34.4300 72.1489 0.192 -0.767 -0.612 39 61 22
47.1691 34.8419 73.5640 0.286 -0.206 -0.936 47 69 31
47.3045 34.8229 73.6096 0.286 -0.206 -0.936 77 99 61
47.5797 34.7701 73.6705 0.237 -0.179 -0.955 34 59 19
48.2710 35.0658 74.7812 -0.241 0.267 -0.933 40 65 25
48.5743 34.9197 74.6519 -0.000 0.051 -0.999 49 72 30
49.1265 34.8107 74.7673 0.450 -0.401 -0.798 67 90 47
49.2534 34.8245 74.8807 0.469 -0.413 -0.780 73 93 55
49.3913 34.7970 74.9088 0.511 -0.356 -0.782 79 95 65
49.5437 34.7129 74.8200 0.054 -0.534 -0.844 84 98 72
50.5395 34.9340 75.9619 0.576 0.342 -0.742 87 99 85
50.6660 34.9585 76.0990 0.627 0.264 -0.733 87 99 85
50.7859 35.0139 76.3009 0.663 -0.245 -0.708 84 96 82
52.3391 35.2568 77.8542 0.655 -0.190 -0.731 116 126 118
52.4713 35.2698 77.9693 0.655 -0.190 -0.731 131 141 133
52.6054 35.2734 78.0646 0.537 -0.149 -0.830 133 143 135
53.2644 35.3777 78.7265 0.641 -0.403 -0.653 109 121 121
53.8253 35.2490 78.8035 0.498 -0.047 -0.866 85 95 96
53.9586 35.2665 78.9291 0.345 -0.023 -0.938 58 68 69
54.0919 35.2852 79.0577 0.384 -0.103 -0.917 51 59 62
54.6083 35.5261 79.9323 0.581 -0.238 -0.778 41 50 55
54.7462 35.5200 80.0083 0.333 -0.195 -0.923 43 51 54
54.8852 35.5035 80.0619 0.333 -0.195 -0.923 58 67 67
55.0227 35.5022 80.1484 0.593 -0.213 -0.777 60 66 64
55.1590 35.5128 80.2608 0.550 -0.484 -0.681 59 65 63
55.4399 35.4510 80.3053 0.181 -0.430 -0.884 98 104 102
58.6264 35.6619 82.8492 0.963 -0.200 -0.178 127 138 134
59.6307 36.5456 85.4786 0.678 -0.718 -0.158 116 133 127
61.1585 37.8453 89.3787 0.987 -0.106 -0.121 134 149 146
61.5908 37.5559 89.0126 -0.246 0.644 -0.724 135 151 151
61.7666 37.9062 89.9103 0.082 -0.671 -0.737 135 151 150
61.8938 37.5945 89.2960 0.184 0.471 -0.862 145 159 159
62.0572 37.7537 89.7583 -0.225 -0.285 -0.932 153 168 165
62.2078 37.7486 89.8449 -0.277 -0.609 -0.743 138 151 146
62.3537 37.6895 89.8076 -0.274 -0.608 -0.745 155 162 156
62.4985 37.6232 89.7536 -0.275 -0.599 -0.752 132 138 131
63.8743 38.9567 93.6303 0.952 -0.166 -0.256 132 130 115
64.1791 38.8860 93.6703 -0.207 0.577 -0.790 99 100 86
65.5157 34.9896 85.8268 0.974 -0.220 -0.054 112 114 100
67.6504 32.6546 81.9935 -0.240 0.426 -0.872 107 115 104
67.9263 32.6700 82.2075 0.580 -0.045 -0.813 90 96 84
-12.8123 47.5329 62.4970 -0.396 -0.057 -0.916 65 79 80
-11.4048 47.2231 62.7213 -0.090 0.041 -0.995 33 52 47
-11.1549 47.1445 62.7087 -0.000 0.082 -0.997 42 62 52
-10.9546 47.1002 62.7401 -0.006 0.124 -0.992 30 51 35
-10.5560 46.9176 62.5927 0.125 0.385 -0.914 36 59 43
-10.2116 46.7723 62.4928 -0.050 0.271 -0.961 40 63 47
-9.7220 46.6195 62.4708 -0.227 0.185 -0.956 29 50 35
-7.2785 45.2777 61.0708 -0.194 0.034 -0.980 36 54 38
-6.9991 45.4547 61.6463 -0.341 -0.119 -0.933 49 66 51
-5.9572 44.9942 61.2980 0.562 0.284 -0.777 69 82 73
-5.5968 44.8302 61.1670 0.090 -0.634 -0.768 50 61 56
-5.4058 44.7873 61.1955 0.082 -0.601 -0.795 55 65 65
-5.2256 44.7521 61.2342 -0.208 -0.376 -0.903 32 40 42
-3.4451 44.1238 60.9920 -0.064 0.111 -0.992 45 55 54
-2.3706 43.4324 60.1507 -0.018 -0.348 -0.937 44 54 53
-0.8616 42.9790 60.1215 -0.116 -0.514 -0.850 55 64 61
0.8038 42.3018 59.6957 0.047 0.230 -0.972 63 68 64
1.2809 42.2268 59.8386 0.552 0.075 -0.831 67 72 68
0.9636 42.5634 60.3817 -0.236 -0.341 -0.910 68 73 69
1.1480 42.5198 60.4043 -0.174 -0.280 -0.944 60 65 61
1.4741 42.3679 60.2780 -0.052 -0.325 -0.944 53 58 54
1.8265 42.2920 60.3380 -0.093 -0.347 -0.933 60 66 62
3.5185 41.7638 60.2611 -0.335 -0.698 -0.633 68 73 69
4.1812 41.5397 60.1926 -0.004 -0.714 -0.701 71 75 74
4.3659 41.4929 60.2084 0.007 -0.728 -0.686 54 58 57
5.3065 41.1439 60.0424 0.046 -0.123 -0.991 60 64 63
5.8561 40.9040 59.8655 -0.150 -0.119 -0.981 62 64 60
6.4579 40.7195 59.8454 0.020 -0.009 -1.000 97 102 96
8.2111 40.2970 60.0437 0.212 0.128 -0.969 76 76 74
9.9268 39.7886 60.0261 0.195 -0.169 -0.966 74 75 70
10.0787 39.7637 60.0694 0.204 -0.154 -0.967 73 74 69
10.8077 39.5601 60.0895 -0.169 -0.096 -0.981 59 59 57
11.5332 39.3563 60.1071 0.124 0.017 -0.992 95 95 95
11.6896 39.3264 60.1423 0.026 -0.091 -0.996 109 109 109
11.7537 39.3764 60.2950 0.451 -0.540 -0.711 106 106 106
11.9546 39.3079 60.2731 -0.067 -0.414 -0.908 62 60 61
12.1730 39.2239 60.2280 -0.084 -0.434 -0.897 62 60 61
12.5193 39.1341 60.2530 0.465 -0.246 -0.851 55 53 54
13.6086 38.4957 59.5393 0.258 -0.250 -0.933 96 95 92
14.1534 38.5454 60.0037 0.555 0.097 -0.826 66 65 60
14.1728 38.6360 60.2179 -0.271 -0.552 -0.789 67 67 59
14.6666 38.4089 60.0332 -0.014 -0.429 -0.903 93 89 79
14.9943 38.3300 60.0705 0.113 -0.260 -0.959 97 95 83
17.3552 37.6982 60.1973 0.014 -0.434 -0.901 85 80 77
17.4960 37.6779 60.2436 0.041 -0.395 -0.918 101 96 93
18.5801 37.5554 60.6748 0.138 -0.214 -0.967 128 128 120
18.7322 37.5238 60.7035 0.138 -0.214 -0.967 84 84 76
18.8691 37.5070 60.7549 0.660 -0.382 -0.647 87 84 77
24.1399 35.9963 60.8150 0.158 0.315 -0.936 102 100 88
24.3013 35.9487 60.8141 0.147 0.280 -0.949 93 91 79
27.5215 35.2243 61.2928 0.287 0.154 -0.945 29 33 20
27.6577 35.2015 61.3305 0.287 0.154 -0.945 29 33 20
30.8543 34.8734 62.6761 0.299 -0.237 -0.924 55 74 54
30.9850 34.8565 62.7234 0.285 -0.321 -0.903 41 60 40
31.1191 34.8351 62.7628 0.268 -0.265 -0.926 42 61 41
31.2319 34.8415 62.8503 0.266 -0.259 -0.928 43 61 41
31.3735 34.8102 62.8727 0.271 -0.274 -0.923 37 53 35
31.8950 35.0623 63.7725 -0.116 -0.676 -0.728 39 51 35
34.0452 35.2492 65.5847 -0.296 0.052 -0.954 24 28 13
34.6617 35.0519 65.5460 -0.057 -0.592 -0.804 54 58 43
34.7087 35.1638 65.8256 0.714 -0.560 -0.419 18 22 8
35.0471 35.0178 65.7203 -0.264 -0.879 -0.396 19 27 11
37.4465 32.5598 61.8073 0.755 0.252 -0.606 26 35 18
36.0181 35.0174 66.3501 -0.333 0.335 -0.881 31 40 21
39.6447 34.6671 67.9254 0.651 -0.604 -0.459 38 42 28
39.8956 34.6574 68.0669 0.083 -0.148 -0.986 63 69 51
40.0325 34.6310 68.0969 -0.118 -0.178 -0.977 82 94 70
40.1800 34.5838 68.0877 -0.118 -0.178 -0.977 61 73 49
40.2763 34.6354 68.2651 0.351 -0.546 -0.761 29 41 17
40.4037 34.6273 68.3297 0.351 -0.546 -0.761 41 54 28
41.5520 34.8115 69.4855 0.245 -0.543 -0.803 60 73 53
41.8124 34.7886 69.6036 0.257 -0.350 -0.901 40 47 29
42.0660 34.7802 69.7496 0.532 -0.519 -0.669 68 71 54
42.4225 34.8215 70.0731 -0.078 -0.208 -0.975 58 59 43
42.5479 34.8215 70.1544 0.075 -0.012 -0.997 66 69 52
44.9715 34.7571 71.5851 0.347 0.047 -0.937 42 59 25
45.8576 35.1272 72.9842 0.700 -0.714 -0.020 60 82 43
45.9462 35.2415 73.2961 0.698 -0.716 -0.010 58 80 41
46.7323 35.2168 73.7517 0.073 -0.078 -0.994 36 58 20
47.1794 35.0385 73.6452 0.476 0.157 -0.865 43 65 27
47.3089 35.0387 73.7296 0.507 0.159 -0.847 57 79 41
48.3651 34.5354 73.2954 -0.277 -0.421 -0.864 39 64 24
48.6181 34.5495 73.4910 0.377 -0.767 -0.519 49 72 30
48.6662 34.8358 74.1595 0.552 -0.735 -0.394 50 73 31
48.7995 34.8232 74.2181 0.579 -0.733 -0.356 49 72 30
49.1668 34.9075 74.6442 0.476 -0.361 -0.802 66 88 47
49.2997 34.8982 74.7098 0.621 -0.142 -0.771 66 86 50
49.4280 34.9065 74.8117 0.621 -0.142 -0.771 77 94 64
50.4237 35.1307 75.9572 0.572 0.335 -0.749 120 132 118
50.5530 35.1430 76.0687 0.576 0.342 -0.742 88 100 86
50.7055 35.0528 75.9669 0.081 -0.228 -0.970 84 96 82
50.8363 35.0585 76.0646 0.250 -0.356 -0.901 82 94 80
52.3665 35.4108 77.8425 0.664 -0.258 -0.702 90 99 94
52.4985 35.4259 77.9617 0.664 -0.258 -0.702 99 109 101
52.6313 35.4376 78.0740 0.545 -0.184 -0.818 115 125 116
52.7686 35.4228 78.1303 0.240 -0.093 -0.966 119 129 120
53.0467 35.3713 78.1963 0.146 -0.395 -0.907 120 131 127
53.1788 35.3901 78.3239 0.407 -0.298 -0.864 101 111 112
53.3128 35.3971 78.4265 0.600 -0.382 -0.703 77 89 89
53.4437 35.4268 78.5776 0.623 -0.456 -0.635 63 75 75
53.7170 35.4098 78.7172 0.560 -0.493 -0.667 54 64 65
53.8506 35.4241 78.8357 0.446 -0.074 -0.892 47 57 58
53.9856 35.4293 78.9351 0.345 -0.023 -0.938 40 50 51
54.6362 35.6885 79.9345 0.565 -0.229 -0.793 42 51 56
54.7745 35.6789 80.0030 0.330 -0.317 -0.889 43 51 54
54.9131 35.6675 80.0676 0.350 -0.383 -0.855 51 60 60
55.0500 35.6719 80.1661 0.369 -0.370 -0.853 60 66 64
56.8347 35.8673 81.7601 0.358 -0.155 -0.921 106 112 110
56.9743 35.8655 81.8467 0.364 -0.147 -0.920 107 113 111
57.2572 35.7839 81.8489 0.450 -0.199 -0.871 106 112 110
59.8025 36.5322 85.1674 0.833 -0.533 0.149 117 134 128
61.4815 37.8365 89.1610 -0.178 0.491 -0.853 134 150 150
61.7902 37.9430 89.5983 0.049 -0.553 -0.832 138 152 153
65.2643 34.3607 83.8809 0.962 -0.269 -0.035 98 100 86
65.5500 35.1575 85.8399 0.967 -0.252 -0.044 96 98 84
66.6336 37.7259 92.2605 0.895 -0.101 -0.435 101 103 90
-12.1175 47.5266 62.5020 -0.125 0.380 -0.916 30 46 45
-11.1840 47.0698 62.0954 0.104 0.053 -0.993 34 51 51
-10.0398 46.9343 62.5371 -0.093 0.224 -0.970 33 54 40
-7.7791 45.6267 61.1059 -0.202 -0.577 -0.792 40 58 42
-5.5665 44.9895 61.1288 0.215 -0.437 -0.874 44 55 50
-5.1854 44.9041 61.1866 -0.210 -0.365 -0.907 47 57 58
-5.0619 44.9098 61.2793 -0.308 -0.192 -0.932 25 33 35
-3.4615 44.3152 60.9997 -0.170 -0.101 -0.980 47 57 58
-0.6557 43.0010 59.9074 -0.158 0.061 -0.986 47 56 53
-0.3712 42.8834 59.8312 -0.072 0.121 -0.990 55 61 59
0.1104 42.7124 59.7646 0.414 0.134 -0.900 59 61 60
0.4552 42.6433 59.8351 0.129 0.205 -0.970 45 49 48
0.6469 42.5940 59.8502 0.129 0.205 -0.970 62 67 63
0.8128 42.7565 60.3178 -0.056 -0.418 -0.907 64 69 65
1.3719 42.6206 60.3793 -0.026 0.153 -0.988 53 58 54
6.0271 40.9379 59.6696 0.087 -0.265 -0.960 51 53 49
6.2444 40.8627 59.6439 0.170 -0.433 -0.885 55 60 54
6.4007 40.8363 59.6868 0.170 -0.433 -0.885 53 58 52
6.4899 40.8640 59.8061 0.046 -0.137 -0.990 52 57 51
8.0100 40.5310 60.0539 0.479 -0.123 -0.869 57 58 54
9.0476 40.1808 59.9507 0.335 0.103 -0.937 78 78 76
9.2251 40.1350 59.9645 0.386 0.196 -0.901 116 116 114
9.8477 39.7157 59.4392 0.541 0.079 -0.837 78 78 76
10.1337 39.8859 60.0016 0.258 -0.379 -0.889 67 68 63
10.2799 39.8657 60.0516 0.273 -0.369 -0.888 104 105 100
10.4392 39.8342 60.0853 0.028 -0.250 -0.968 111 112 107
10.6403 39.7671 60.0669 -0.001 -0.220 -0.975 87 87 85
11.0737 39.6051 59.9891 0.043 -0.155 -0.987 60 60 58
11.9798 39.4542 60.2422 0.205 -0.204 -0.957 63 61 62
18.6402 37.6629 60.5922 0.254 -0.396 -0.882 57 57 49
18.8073 37.6166 60.5980 0.212 -0.443 -0.871 75 75 67
18.9204 37.6229 60.6852 0.458 -0.394 -0.797 78 75 68
21.3912 36.9394 60.7731 -0.034 0.274 -0.961 83 80 73
24.0825 36.2224 60.9296 0.220 0.347 -0.912 71 68 59
24.2488 36.1698 60.9208 0.212 0.315 -0.925 55 52 43
25.7051 35.8598 61.1784 0.218 0.419 -0.881 70 71 55
27.0652 35.5118 61.2892 0.393 0.125 -0.911 82 90 66
28.6193 35.1950 61.5949 0.606 0.091 -0.790 41 49 28
28.7312 35.2011 61.6811 0.652 0.029 -0.758 41 49 28
28.8580 35.1892 61.7369 0.677 0.003 -0.736 43 51 30
28.9937 35.1664 61.7743 0.531 0.048 -0.846 41 49 28
29.7662 35.0800 62.0840 0.277 0.092 -0.957 53 68 45
29.8811 35.0831 62.1652 0.017 0.104 -0.994 54 69 46
30.1765 35.0061 62.1861 0.263 0.102 -0.959 48 63 40
30.8698 34.8686 62.3310 0.249 0.017 -0.968 30 53 32
31.0150 34.9852 62.6836 0.413 -0.153 -0.898 38 62 40
31.1333 34.9845 62.7587 0.349 -0.296 -0.889 38 62 40
31.2437 34.9943 62.8520 0.143 -0.238 -0.961 37 60 38
31.3851 34.9632 62.8749 0.167 -0.270 -0.948 35 55 35
31.5416 34.9120 62.8628 0.259 -0.327 -0.909 30 48 30
33.3176 34.9115 64.0134 0.143 -0.880 -0.452 31 35 20
33.4641 34.8723 64.0214 -0.009 0.124 -0.992 57 61 46
33.5457 34.9258 64.1931 -0.221 0.176 -0.959 75 79 64
34.5636 35.1939 65.4469 -0.223 -0.555 -0.801 126 128 114
34.7073 35.1594 65.4636 -0.057 -0.592 -0.804 78 80 66
35.0691 35.1611 65.7020 -0.171 -0.920 -0.353 19 26 12
36.0170 35.1986 66.3999 -0.384 0.304 -0.872 40 49 29
37.1787 34.8906 66.4708 0.899 0.151 -0.412 25 36 19
37.2601 34.9582 66.6732 0.899 0.151 -0.412 25 36 19
39.1744 34.8153 67.5979 -0.717 -0.275 -0.640 82 89 73
39.5314 34.8363 67.8759 0.622 -0.118 -0.774 43 50 34
39.9194 34.8002 68.0475 0.083 -0.148 -0.986 74 83 63
40.0587 34.7689 68.0686 -0.118 -0.178 -0.977 82 95 70
40.2062 34.7216 68.0594 -0.118 -0.178 -0.977 59 73 47
40.3614 34.6589 68.0210 -0.124 -0.179 -0.976 29 42 16
40.4998 34.6284 68.0432 -0.273 -0.132 -0.953 41 55 29
41.5778 34.9526 69.4604 0.283 -0.534 -0.797 52 67 46
41.8450 34.9151 69.5506 -0.094 0.035 -0.995 55 63 45
41.9913 34.8689 69.5433 0.037 -0.005 -0.999 89 92 75
42.0962 34.9120 69.7067 0.402 -0.579 -0.709 64 67 50
42.2213 34.9117 69.7871 0.709 -0.320 -0.629 79 82 65
42.3404 34.9248 69.8934 0.600 -0.194 -0.776 74 77 58
44.9772 34.9537 71.6673 0.397 0.095 -0.913 38 55 21
46.6968 35.1598 73.2389 0.141 -0.313 -0.939 36 58 20
46.7650 35.3447 73.6927 0.058 -0.086 -0.995 36 58 20
47.0748 35.1896 73.5501 0.697 0.090 -0.711 44 66 30
47.1888 35.2382 73.7317 0.702 0.146 -0.697 44 66 29
47.3163 35.2456 73.8306 0.713 0.129 -0.689 44 66 28
48.2544 34.7095 73.2513 -0.142 -0.314 -0.939 42 67 27
49.1674 35.1534 74.8267 0.048 -0.458 -0.888 59 81 42
49.3102 35.1076 74.8178 0.260 -0.264 -0.929 69 89 53
49.4343 35.1333 74.9553 0.316 -0.596 -0.738 68 84 56
50.8433 35.3004 76.2391 0.489 0.228 -0.842 80 92 78
51.0957 35.3611 76.5373 0.465 0.261 -0.846 81 91 79
52.6611 35.5790 78.0350 0.533 -0.210 -0.819 98 105 97
52.7934 35.5944 78.1550 0.281 -0.224 -0.933 86 96 87
53.0721 35.5402 78.2157 0.259 -0.288 -0.922 64 74 71
53.2066 35.5440 78.3112 0.384 -0.354 -0.853 58 68 69
53.3412 35.5481 78.4076 0.616 -0.388 -0.686 52 63 63
53.7472 35.5486 78.6719 0.541 -0.484 -0.688 35 47 47
53.8826 35.5497 78.7621 0.484 -0.159 -0.861 28 40 40
54.8046 35.8220 79.9632 0.330 -0.317 -0.889 46 55 56
54.9678 35.5768 79.5258 0.263 -0.574 -0.775 67 75 74
55.0815 35.8017 80.0979 0.353 -0.372 -0.859 83 90 87
55.4958 35.7841 80.3274 0.613 -0.298 -0.732 123 129 125
55.7635 35.8774 80.7078 0.837 -0.244 -0.489 125 131 127
56.8587 36.1308 81.9794 0.585 0.202 -0.785 109 115 113
57.7030 36.0355 82.3157 0.867 -0.494 0.064 115 126 122
61.8194 38.0571 89.4639 0.046 -0.555 -0.830 138 152 155
68.4656 33.2110 83.0366 0.785 -0.617 -0.047 102 106 91
-11.0330 47.1522 61.9500 -0.033 -0.214 -0.976 49 63 59
-10.8551 47.1227 62.0000 -0.120 -0.145 -0.982 42 56 53
-6.8215 45.8850 61.8820 -0.531 -0.094 -0.842 45 61 50
-5.1982 45.0945 61.1896 -0.188 -0.251 -0.950 49 57 59
-5.0256 45.0646 61.2354 -0.308 -0.192 -0.932 44 52 54
-4.7445 44.9555 61.1770 -0.270 -0.245 -0.931 77 85 87
-0.6858 43.1988 59.9305 -0.101 0.157 -0.982 46 52 52
-0.4133 43.0898 59.8665 -0.074 0.158 -0.985 62 68 68
0.4282 42.8380 59.8560 0.186 0.375 -0.908 44 48 47
1.0882 42.9157 60.4547 -0.028 0.141 -0.990 62 67 63
1.5287 42.6750 60.2091 0.100 -0.064 -0.993 54 59 55
2.2853 42.2867 59.8426 0.570 0.105 -0.815 61 70 65
6.7333 41.0381 59.9686 0.278 0.203 -0.939 56 61 54
6.9021 41.0016 59.9974 0.101 0.106 -0.989 54 60 49
8.8996 40.3712 59.9003 0.313 0.091 -0.945 69 69 67
9.0812 40.3220 59.9095 0.402 0.170 -0.900 72 72 70
10.1928 40.0045 59.9288 0.138 -0.454 -0.880 57 59 56
10.3169 40.0030 60.0059 0.273 -0.369 -0.888 83 84 79
10.4893 39.9603 60.0234 0.169 -0.411 -0.896 79 80 75
10.6734 39.9074 60.0259 0.080 -0.268 -0.960 61 61 59
11.0505 39.7934 60.0187 0.035 -0.253 -0.967 59 59 59
11.1629 39.8018 60.1101 0.062 -0.171 -0.983 61 61 61
11.3339 39.7596 60.1277 0.095 0.035 -0.995 77 77 77
11.5725 39.6585 60.0592 -0.030 -0.323 -0.946 88 88 88
12.6420 39.3618 60.0974 0.549 -0.342 -0.763 68 67 65
12.7599 39.3651 60.1809 0.549 -0.342 -0.763 76 74 75
13.4109 38.8959 59.5675 0.516 -0.009 -0.856 84 82 82
14.0399 38.7639 59.6838 0.031 0.170 -0.985 70 69 64
14.2819 38.8714 60.0775 0.305 0.274 -0.912 70 69 64
15.4616 38.5653 60.1662 0.416 -0.324 -0.850 80 77 68
15.6295 38.5215 60.1783 0.362 -0.404 -0.840 65 62 55
15.8979 38.3844 60.0498 0.019 -0.048 -0.999 80 77 71
18.9554 37.7546 60.6402 0.458 -0.394 -0.797 64 64 56
19.0847 37.7450 60.7030 0.465 -0.407 -0.787 54 51 44
19.2996 37.7694 60.8959 0.127 -0.781 -0.612 80 75 69
22.2927 37.0331 61.2099 0.197 -0.027 -0.980 130 127 122
22.4268 37.0174 61.2621 0.418 0.137 -0.898 147 144 137
22.5569 37.0059 61.3208 0.418 0.137 -0.898 119 116 109
22.6756 37.0064 61.3989 0.446 0.115 -0.888 114 111 102
22.8753 36.9208 61.3395 0.258 0.059 -0.964 115 112 103
22.9935 36.9219 61.4182 0.248 0.025 -0.968 114 111 102
23.1362 36.8966 61.4549 -0.143 -0.045 -0.989 92 89 80
27.0635 35.6786 61.3114 0.393 0.125 -0.911 102 111 84
28.6759 35.2915 61.5018 0.466 -0.055 -0.883 50 58 37
28.7981 35.2850 61.5666 0.466 -0.055 -0.883 45 53 32
28.8692 35.3411 61.7363 0.531 0.087 -0.843 40 49 28
28.9993 35.3252 61.7855 0.533 0.105 -0.840 42 50 29
29.7149 35.3111 62.2177 0.473 0.049 -0.880 31 49 25
30.6553 35.4694 63.1757 0.862 -0.099 -0.497 60 84 62
30.9626 35.2221 62.8292 0.230 0.191 -0.954 68 92 70
31.2468 35.1588 62.8735 0.313 0.090 -0.945 68 92 70
31.3817 35.1363 62.9114 0.311 0.082 -0.947 68 88 68
31.5378 35.0856 62.9006 0.433 -0.110 -0.895 67 84 65
31.6739 35.0613 62.9351 0.347 -0.313 -0.884 67 83 64
31.8061 35.0422 62.9785 0.244 -0.245 -0.938 69 83 66
33.4638 35.0447 64.0574 0.144 -0.805 -0.575 39 43 28
34.2006 35.0141 64.4669 0.742 0.346 -0.575 28 32 17
34.5981 35.3180 65.3945 -0.487 -0.291 -0.824 120 122 108
34.7557 35.2623 65.3737 -0.087 -0.532 -0.842 88 90 76
35.9963 34.8318 65.2273 0.174 0.025 -0.984 25 33 18
37.2502 34.9512 66.3026 0.660 -0.495 -0.565 25 36 19
37.2420 35.1703 66.7806 0.916 -0.010 -0.401 25 36 19
37.8796 34.2936 65.2598 0.173 -0.386 -0.906 25 36 19
39.2199 34.9173 67.5031 -0.717 -0.275 -0.640 76 83 67
40.3952 34.7815 67.9647 -0.327 -0.103 -0.939 31 41 16
40.5255 34.7668 68.0166 -0.273 -0.132 -0.953 42 54 30
41.7331 35.0835 69.4969 -0.074 -0.126 -0.989 32 41 22
42.2492 35.0484 69.7537 0.702 -0.354 -0.618 83 86 69
42.3573 35.0860 69.9065 0.485 -0.522 -0.702 78 81 64
42.7433 35.0641 70.1081 0.425 -0.410 -0.807 72 76 59
44.7434 35.4436 72.2401 0.991 -0.128 -0.040 55 72 40
44.8780 35.4272 72.2911 0.977 0.025 -0.214 41 58 24
45.7349 35.1889 72.3203 -0.290 0.045 -0.956 39 61 22
46.7354 35.2686 73.1439 0.159 -0.268 -0.950 41 63 25
47.0205 35.5884 74.0336 0.129 0.564 -0.816 52 74 36
47.6042 35.3877 73.9690 0.024 0.609 -0.793 36 61 20
47.7481 35.3422 73.9617 0.029 0.617 -0.787 36 61 20
48.6456 35.3945 74.6583 -0.344 -0.326 -0.881 54 77 35
50.4683 35.4717 76.0087 0.589 0.137 -0.796 73 85 71
50.5967 35.4901 76.1322 0.474 0.256 -0.842 78 90 76
51.3095 35.2520 76.0688 0.482 0.163 -0.861 84 93 77
52.5571 35.7139 77.8951 0.615 -0.197 -0.763 56 66 58
52.7066 35.6254 77.7968 0.621 -0.183 -0.762 37 47 39
52.8223 35.7418 78.1283 0.281 -0.224 -0.933 46 56 48
52.9673 35.6793 78.0845 0.254 -0.239 -0.937 55 64 59
53.1041 35.6673 78.1465 0.245 -0.232 -0.941 40 49 47
53.2399 35.6623 78.2234 0.365 -0.351 -0.862 43 51 53
53.6398 35.7029 78.5717 0.623 -0.456 -0.635 46 55 56
54.1620 35.8652 79.2678 0.836 -0.408 -0.367 40 49 46
55.1129 35.9313 80.0294 0.234 -0.335 -0.913 95 100 95
55.2534 35.8995 80.0502 0.463 -0.503 -0.730 101 106 101
55.3890 35.9192 80.1814 0.726 -0.149 -0.671 98 103 98
55.6607 35.9602 80.4477 0.829 -0.186 -0.528 123 128 121
55.7939 36.0179 80.6613 0.853 -0.164 -0.495 113 120 113
57.7379 36.0313 81.9495 0.871 -0.487 0.067 114 125 121
60.6444 38.1109 88.4176 0.650 0.598 -0.469 138 153 148
60.8025 38.2849 88.9037 0.693 0.575 -0.435 138 153 148
61.9899 38.0536 89.1625 0.809 0.445 -0.384 127 137 142
62.1473 38.1381 89.4506 0.704 0.559 -0.438 97 106 106
65.2796 36.0207 86.8089 0.260 0.275 -0.926 92 94 81
-10.5927 47.6034 62.8029 -0.383 -0.484 -0.787 48 64 58
-10.2771 47.4771 62.7295 -0.269 -0.416 -0.869 50 66 60
-7.3484 45.7799 60.8970 -0.216 -0.547 -0.809 31 45 34
-7.0315 45.6481 60.8124 -0.276 -0.530 -0.802 32 46 34
-6.7263 45.5240 60.7375 -0.244 -0.302 -0.922 24 39 27
-6.0310 45.3079 60.7126 0.015 -0.439 -0.898 29 45 32
-5.5243 45.1315 60.6528 -0.190 -0.498 -0.846 41 54 44
-5.2416 45.0216 60.5943 -0.245 -0.297 -0.923 41 54 44
-4.9574 44.9102 60.5335 -0.274 -0.261 -0.926 40 53 45
-4.2517 44.6809 60.4863 0.168 -0.755 -0.633 46 55 54
-4.0109 44.5999 60.4641 0.068 -0.699 -0.712 52 61 59
-4.3983 44.9791 61.0461 -0.199 0.068 -0.978 52 61 60
-3.5076 44.6123 60.8166 -0.241 0.123 -0.963 50 60 58
0.2886 43.1187 59.9920 0.167 0.374 -0.912 53 57 56
1.1585 43.0372 60.3754 -0.136 -0.041 -0.990 53 58 54
1.5333 42.8462 60.1985 0.100 -0.064 -0.993 58 63 59
2.1490 42.4682 59.7666 0.595 0.138 -0.792 60 66 62
2.2716 42.4707 59.8514 0.571 0.107 -0.814 76 85 80
6.2101 41.1312 59.4569 0.223 -0.189 -0.956 52 57 53
7.0298 41.0678 59.8476 0.408 -0.474 -0.780 54 62 50
7.1862 41.0411 59.8901 0.387 -0.490 -0.781 62 71 55
7.4658 41.0147 60.0131 0.373 -0.515 -0.772 64 75 58
8.8903 40.5484 59.9103 0.090 -0.022 -0.996 71 71 69
9.0814 40.4912 59.9081 0.471 -0.183 -0.863 81 81 79
9.2144 40.4828 59.9756 0.508 -0.155 -0.847 84 84 82
9.3957 40.4335 59.9847 0.061 -0.114 -0.992 82 82 80
10.2129 40.1560 59.9039 -0.166 -0.214 -0.963 65 67 64
10.4075 40.0943 59.8941 -0.136 -0.231 -0.963 88 90 85
10.6101 40.0254 59.8739 -0.133 -0.393 -0.910 65 67 64
10.7977 39.9691 59.8717 -0.107 -0.410 -0.906 53 55 52
11.1334 39.8902 59.9154 0.125 -0.145 -0.982 57 59 58
11.2538 39.8916 59.9964 0.243 -0.333 -0.911 55 57 56
11.3953 39.8748 60.0509 0.130 -0.064 -0.989 88 90 89
11.6106 39.7936 60.0119 -0.030 -0.323 -0.946 94 96 95
12.6734 39.5020 60.0586 0.500 -0.301 -0.812 76 75 73
13.4129 39.0603 59.5670 0.516 -0.009 -0.856 83 83 82
14.0989 39.0946 60.0858 0.706 0.254 -0.661 48 48 40
14.2514 39.0660 60.1217 0.345 0.380 -0.858 73 73 65
16.8337 38.2354 59.9677 -0.084 0.075 -0.994 80 76 73
19.2966 37.8200 60.6480 0.106 -0.250 -0.962 93 90 83
19.8262 37.7694 60.8792 0.312 -0.024 -0.950 90 85 79
20.0670 37.7683 61.0325 -0.164 0.042 -0.985 77 72 66
20.2663 37.6880 60.9850 -0.101 0.113 -0.988 68 65 58
21.2706 37.3945 60.9900 0.204 0.164 -0.965 88 85 78
22.1444 37.1048 60.9190 0.398 -0.015 -0.917 63 62 57
22.5468 37.1830 61.3507 0.429 0.134 -0.894 102 99 90
22.6935 37.1539 61.3817 0.215 -0.002 -0.977 115 112 103
22.8797 37.0824 61.3452 0.206 0.004 -0.979 114 111 102
23.0272 37.0521 61.3740 -0.119 0.030 -0.992 98 95 86
24.2870 36.5869 61.1670 0.235 0.625 -0.744 133 131 119
27.1714 35.8548 61.4246 0.227 0.267 -0.937 101 110 83
29.1829 35.8506 62.7158 0.167 0.424 -0.890 55 70 47
30.8979 35.1664 62.3225 0.199 0.011 -0.980 73 98 76
30.8732 35.3530 62.7161 0.204 0.131 -0.970 71 95 73
31.0424 35.2856 62.6775 0.417 -0.167 -0.894 65 87 66
31.1584 35.2882 62.7583 0.498 -0.139 -0.856 67 90 68
31.2531 35.3192 62.8876 0.331 0.064 -0.942 66 90 68
31.3874 35.2977 62.9272 0.311 0.082 -0.947 69 91 70
31.6848 35.2157 62.9395 0.309 -0.289 -0.906 76 90 73
31.8209 35.1914 62.9741 -0.062 -0.300 -0.952 74 89 72
31.9703 35.1489 62.9773 -0.084 -0.285 -0.955 72 89 71
32.1208 35.1045 62.9773 -0.084 -0.285 -0.955 69 87 68
33.3349 35.0609 63.6662 0.087 -0.848 -0.522 85 91 77
33.5216 35.1338 63.9472 0.144 -0.805 -0.575 45 49 34
33.9378 35.0478 64.0273 0.426 -0.798 -0.426 29 33 18
34.0163 35.1074 64.2088 0.941 0.161 -0.296 103 107 92
34.0055 35.2994 64.6234 0.554 -0.827 0.094 69 73 58
34.6293 35.4472 65.3512 -0.252 -0.330 -0.910 82 84 70
34.8011 35.3694 65.2916 -0.391 -0.217 -0.895 74 76 62
36.8215 35.4426 66.7583 0.537 0.471 -0.700 61 70 51
39.6883 35.1477 67.9642 0.539 -0.159 -0.827 49 55 41
40.5678 34.8726 67.9288 -0.333 -0.048 -0.942 34 46 22
41.0346 35.1764 68.8976 0.567 -0.358 -0.742 35 48 28
41.2682 35.2077 69.1173 0.693 -0.164 -0.702 32 45 25
41.4054 35.1811 69.1476 0.756 0.075 -0.650 41 54 34
41.5169 35.2087 69.2804 0.756 0.075 -0.650 40 53 33
41.6422 35.2075 69.3587 0.621 -0.071 -0.781 37 50 30
42.0389 35.1594 69.5096 0.000 -0.024 -1.000 65 69 52
42.2907 35.1552 69.6631 0.598 -0.487 -0.636 74 75 59
42.3980 35.1948 69.8194 0.505 -0.507 -0.698 61 62 46
42.5306 35.1782 69.8688 0.512 -0.481 -0.712 53 54 38
42.9580 35.3500 70.5222 0.750 0.014 -0.661 77 82 62
44.7554 35.6261 72.2902 0.992 0.069 -0.108 60 77 45
44.8077 35.8279 72.7672 0.989 0.088 -0.118 46 63 31
45.8006 35.2228 72.0806 0.639 -0.764 0.089 39 61 22
47.2054 35.6474 73.9210 0.907 -0.003 -0.421 56 78 40
47.4543 35.6856 74.1658 -0.028 0.589 -0.808 36 58 19
47.5760 35.7149 74.3086 0.523 -0.318 -0.791 36 61 21
47.8744 35.5911 74.2299 -0.167 -0.642 -0.749 36 61 21
49.3747 35.3609 74.6943 0.240 -0.600 -0.763 69 89 52
50.6177 35.6679 76.1719 0.568 0.022 -0.823 75 87 73
50.7502 35.6687 76.2593 0.572 0.041 -0.819 71 83 69
50.8905 35.6343 76.2745 0.578 0.046 -0.814 80 93 76
51.0068 35.7121 76.5205 0.465 -0.383 -0.798 81 92 78
51.1389 35.7170 76.6166 0.273 -0.278 -0.921 81 92 78
51.4371 35.5599 76.4647 0.471 -0.474 -0.744 85 93 80
52.3107 35.8944 77.7635 0.308 -0.487 -0.817 45 51 46
52.4469 35.8857 77.8326 0.319 -0.495 -0.808 39 45 39
52.5885 35.8458 77.8366 0.331 -0.494 -0.804 40 47 40
52.8602 35.8333 77.9846 0.519 -0.220 -0.826 43 50 43
52.9957 35.8296 78.0642 0.470 -0.163 -0.867 40 45 41
53.1343 35.8060 78.1020 0.450 -0.147 -0.881 44 50 48
53.2665 35.8245 78.2282 0.454 -0.143 -0.879 43 48 48
53.9324 35.9076 78.8411 0.524 -0.403 -0.750 37 42 40
55.1461 36.0431 79.9231 0.318 -0.358 -0.878 95 100 94
55.4185 36.0686 80.1553 0.753 -0.233 -0.616 99 104 97
55.6897 36.1175 80.4379 0.829 -0.186 -0.528 113 118 111
55.8220 36.1867 80.6753 0.848 -0.189 -0.494 95 102 95
56.5268 35.9941 80.7081 0.194 0.286 -0.938 106 116 108
58.3217 36.5791 83.1528 0.853 -0.522 0.015 116 128 124
58.4625 36.6616 83.4249 0.851 -0.525 -0.014 116 128 124
58.7445 37.3387 85.0937 0.705 -0.701 -0.106 121 136 133
58.8894 37.6269 85.8201 -0.104 -0.575 -0.812 121 136 133
61.7313 38.3413 89.2256 -0.168 0.567 -0.807 142 158 157
62.2363 38.9728 90.9384 0.894 0.337 -0.295 92 102 102
62.4257 39.3856 91.9670 0.899 0.327 -0.291 88 93 86
67.7862 32.7677 80.9041 -0.265 -0.174 -0.948 92 94 81
-11.3165 47.9164 62.5956 -0.098 -0.692 -0.716 31 41 40
-11.0752 47.8430 62.5909 0.135 -0.817 -0.561 16 26 25
-10.8484 47.7796 62.5987 -0.079 -0.706 -0.704 8 20 16
-10.6282 47.7206 62.6119 0.168 -0.837 -0.521 5 18 15
-10.4119 47.6643 62.6284 -0.248 -0.438 -0.864 29 41 39
-10.2095 47.6175 62.6571 -0.242 -0.532 -0.811 33 45 44
-6.6713 45.6661 60.6764 -0.276 -0.530 -0.802 36 49 39
-5.9822 45.4537 60.6572 0.097 -0.501 -0.860 21 35 22
-5.4099 45.2291 60.5357 -0.213 -0.496 -0.842 31 45 32
-4.4277 45.1814 61.0656 -0.126 0.131 -0.983 65 76 70
-4.1472 45.0714 61.0062 -0.147 0.054 -0.988 56 67 61
-3.9436 45.0177 61.0204 -0.228 -0.108 -0.968 49 60 54
-3.6049 44.8638 60.9028 -0.188 0.028 -0.982 50 61 55
0.1017 43.3394 59.9641 0.467 0.266 -0.843 70 74 73
0.7057 43.4637 60.6256 0.120 0.553 -0.825 57 62 58
1.5569 43.0028 60.1679 0.112 -0.052 -0.992 58 63 59
2.1215 42.6630 59.7898 0.534 0.224 -0.815 40 46 42
1.8910 42.9405 60.2474 -0.081 -0.495 -0.865 97 103 99
2.0952 42.8803 60.2477 -0.167 -0.459 -0.873 63 72 67
3.3857 42.2645 59.7350 0.493 -0.130 -0.860 69 75 71
5.7875 41.5434 59.7094 0.218 0.109 -0.970 65 67 66
8.8922 40.7165 59.9068 0.090 -0.022 -0.996 72 72 70
9.0677 40.6724 59.9236 0.090 -0.022 -0.996 63 63 61
9.2455 40.6261 59.9372 0.099 -0.009 -0.995 60 60 58
9.4196 40.5828 59.9550 0.099 -0.009 -0.995 64 64 62
10.2248 40.3148 59.8891 -0.159 -0.208 -0.965 74 76 73
10.4171 40.2549 59.8823 -0.143 -0.232 -0.962 86 88 85
10.9492 40.1124 59.9145 0.179 -0.118 -0.977 65 67 66
11.1519 40.0426 59.8928 0.244 -0.074 -0.967 62 64 63
11.2981 40.0216 59.9413 0.185 -0.425 -0.886 62 63 65
11.4529 39.9932 59.9791 0.226 -0.313 -0.922 53 54 56
12.3391 39.7504 60.0205 -0.096 -0.136 -0.986 78 78 76
14.1192 39.2434 60.0617 0.613 -0.000 -0.790 55 55 47
16.7559 38.5886 60.3328 -0.070 -0.605 -0.793 61 57 54
17.3686 38.3479 60.2023 0.590 -0.492 -0.640 70 66 63
17.5252 38.4281 60.4787 0.234 0.071 -0.970 77 73 70
17.7960 38.3989 60.5896 0.428 -0.202 -0.881 80 76 73
17.9807 38.3364 60.5723 0.401 -0.250 -0.881 84 81 76
19.8246 37.9375 60.8909 0.317 -0.033 -0.948 90 85 79
21.2165 37.6168 61.0885 0.517 -0.089 -0.852 87 84 77
22.2301 37.3058 61.0632 0.297 -0.126 -0.947 82 81 76
22.2940 37.3644 61.2325 0.315 -0.035 -0.948 80 80 72
