ply
format ascii 1.0
element vertex 879
property float x
property float y
property float z
property float nx
property float ny
property float nz
property uchar diffuse_red
property uchar diffuse_green
property uchar diffuse_blue
end_header
-20.3934 42.0249 64.5695 -0.380 -0.054 -0.923 69 78 85
-20.2197 41.9773 64.5312 -0.301 -0.067 -0.951 76 86 93
-20.0327 41.9086 64.4578 -0.272 -0.075 -0.959 57 66 73
-19.6429 41.7443 64.2663 -0.512 -0.231 -0.827 64 73 81
-17.2124 40.7838 63.1897 0.136 0.215 -0.967 122 127 130
-17.0417 40.7336 63.1458 0.250 -0.143 -0.958 75 80 83
-16.9055 40.7426 63.2006 0.262 -0.124 -0.957 101 109 112
-16.7507 40.7197 63.2023 0.274 -0.122 -0.954 99 107 110
-16.6168 40.7331 63.2645 0.209 0.040 -0.977 64 72 75
-16.3244 40.7177 63.3187 -0.151 -0.017 -0.988 97 106 111
-15.6249 40.4805 63.0808 -0.319 0.022 -0.947 99 107 109
-15.4418 40.4049 62.9938 -0.417 -0.099 -0.903 84 90 90
-15.2635 40.3374 62.9203 -0.417 -0.109 -0.902 96 102 102
-14.7583 40.1870 62.7868 -0.263 -0.105 -0.959 74 83 82
-12.2662 39.4449 62.1280 -0.159 0.201 -0.967 80 81 82
-10.8275 39.0733 61.8519 -0.433 -0.344 -0.833 55 58 64
-10.4831 38.9319 61.6896 -0.184 -0.204 -0.962 62 65 70
-10.0006 38.7913 61.5677 -0.202 -0.019 -0.979 205 209 212
-8.7011 38.0297 60.5372 0.022 -0.612 -0.790 133 137 138
-8.5562 38.0135 60.5483 0.081 -0.602 -0.795 104 109 103
-8.4297 38.0423 60.6367 0.145 -0.568 -0.810 102 110 95
-8.2757 38.0040 60.6100 -0.032 -0.436 -0.899 103 112 94
-7.9214 38.1591 60.9942 -0.416 -0.174 -0.893 92 103 87
-7.5942 38.0348 60.8585 -0.356 -0.188 -0.915 60 65 58
-7.4497 38.0210 60.8738 -0.026 -0.258 -0.966 61 63 60
-7.3148 38.0322 60.9324 0.204 -0.202 -0.958 59 61 60
-7.1706 38.0195 60.9497 0.199 -0.187 -0.962 51 55 54
-7.0235 37.9993 60.9540 -0.433 -0.163 -0.886 50 52 51
-6.8651 37.9485 60.9056 -0.481 -0.245 -0.842 52 54 53
-6.6934 37.8610 60.7934 -0.507 0.200 -0.839 58 60 59
-5.5598 37.4080 60.2822 -0.096 -0.229 -0.969 70 70 70
-5.4060 37.3633 60.2435 -0.050 -0.150 -0.987 70 70 70
-5.2651 37.3559 60.2696 -0.303 -0.177 -0.936 64 64 64
-5.1087 37.3026 60.2160 -0.320 -0.158 -0.934 58 58 58
-4.9571 37.2632 60.1865 -0.063 0.010 -0.998 58 58 58
-4.5005 37.1361 60.0819 -0.181 -0.316 -0.931 51 51 51
-4.3518 37.1035 60.0641 -0.181 -0.316 -0.931 66 66 66
-4.2063 37.0810 60.0638 -0.152 -0.418 -0.896 73 75 74
-1.9992 36.6288 59.8563 -0.360 0.247 -0.900 66 66 64
-1.0883 36.3070 59.5229 0.155 -0.922 -0.354 60 62 57
-0.9739 36.4070 59.7385 -0.156 -0.299 -0.942 54 54 52
-0.8185 36.3356 59.6513 0.136 -0.441 -0.887 54 54 52
-0.6803 36.3368 59.6925 0.034 -0.142 -0.989 64 64 62
-0.5382 36.3215 59.7044 -0.046 -0.185 -0.982 65 64 62
0.4753 36.1226 59.6253 -0.138 -0.047 -0.989 30 32 29
0.6215 36.0854 59.5982 -0.128 -0.034 -0.991 30 32 29
0.7638 36.0675 59.6054 0.176 -0.395 -0.902 28 33 29
0.9078 36.0404 59.5963 0.227 -0.451 -0.863 23 28 24
8.2908 34.9604 59.6959 0.026 0.064 -0.998 74 69 63
11.5160 34.3270 59.4429 0.425 -0.143 -0.894 78 75 70
11.6574 34.3244 59.4780 0.401 -0.155 -0.903 75 72 67
11.8024 34.3601 59.5842 0.057 -0.280 -0.958 92 89 84
11.9448 34.3648 59.6331 0.161 -0.205 -0.966 92 89 84
12.0862 34.3569 59.6583 0.161 -0.205 -0.966 103 100 95
12.2265 34.3382 59.6637 0.236 -0.044 -0.971 124 121 116
12.3704 34.3540 59.7332 0.233 -0.079 -0.969 120 117 112
12.6565 34.3629 59.8301 0.471 -0.091 -0.877 94 95 85
12.9391 34.3379 59.8638 0.221 -0.161 -0.962 71 73 62
14.3435 34.1482 59.9116 -0.293 -0.007 -0.956 72 72 64
14.4820 34.1179 59.8951 -0.036 0.048 -0.998 81 83 72
14.6208 34.0902 59.8834 -0.052 0.046 -0.998 90 94 83
15.0578 34.1247 60.0697 0.417 -0.161 -0.894 99 111 91
15.9188 34.1012 60.2693 -0.194 -0.111 -0.975 103 110 94
16.0544 34.0570 60.2264 0.027 -0.321 -0.947 81 89 74
16.1924 34.0257 60.2080 -0.023 -0.283 -0.959 81 88 72
16.3339 34.0113 60.2214 -0.042 -0.271 -0.962 80 87 71
16.4752 33.9955 60.2322 -0.147 -0.420 -0.896 79 86 70
16.8910 33.9135 60.1989 -0.261 -0.558 -0.787 109 111 100
17.1873 33.9410 60.3327 -0.013 -0.401 -0.916 100 100 90
18.1350 34.2261 61.1225 0.018 -0.547 -0.837 120 117 112
18.1797 33.8406 60.4282 0.102 -0.663 -0.741 126 123 118
18.8936 33.7847 60.5269 -0.089 -0.368 -0.925 109 104 100
19.0339 33.7647 60.5297 -0.029 -0.379 -0.925 102 97 90
19.1788 33.7603 60.5625 -0.061 -0.357 -0.932 110 103 95
19.3245 33.7580 60.5993 -0.004 -0.466 -0.885 123 116 108
20.4068 33.9260 61.2124 0.243 -0.326 -0.913 121 111 102
20.4759 33.6860 60.7918 0.066 -0.346 -0.936 115 105 96
20.6185 33.6724 60.8069 0.066 -0.346 -0.936 111 101 92
23.8136 33.4932 61.3785 0.030 -0.641 -0.767 29 26 11
23.9559 33.4762 61.3874 0.038 -0.579 -0.814 53 50 35
24.0997 33.4629 61.4035 0.038 -0.579 -0.814 61 58 43
24.2441 33.4509 61.4221 0.123 -0.608 -0.784 61 58 43
24.4063 33.4792 61.5197 0.324 -0.618 -0.717 60 57 42
24.5604 33.4885 61.5802 0.360 -0.621 -0.696 73 69 57
25.0985 34.0154 62.6980 0.137 0.119 -0.983 109 107 94
25.2518 34.0171 62.7443 0.113 0.153 -0.982 133 131 118
25.3867 33.9780 62.7106 0.165 0.250 -0.954 118 116 103
25.5238 33.9444 62.6877 0.219 0.268 -0.938 93 91 78
25.6701 33.9306 62.7035 0.245 0.351 -0.904 96 95 80
28.7810 33.7007 63.1583 0.801 -0.517 -0.303 44 52 31
30.8717 34.5979 65.3926 0.309 -0.736 -0.602 72 72 62
31.0421 34.6150 65.4720 0.307 -0.734 -0.606 121 121 109
31.5351 34.6340 65.6457 0.239 -0.689 -0.684 44 46 34
31.7051 34.6488 65.7208 0.307 -0.704 -0.641 48 51 42
31.8330 34.5957 65.6595 0.430 -0.311 -0.847 93 95 90
37.9166 36.8719 71.5474 0.856 0.140 -0.497 27 40 22
38.9802 37.8244 73.5937 0.922 -0.062 -0.383 39 50 33
38.6898 33.7401 66.0222 0.635 -0.513 -0.577 82 91 70
38.9086 33.8059 66.2045 0.635 -0.513 -0.577 59 68 47
51.1386 36.1774 73.9986 0.368 0.348 -0.862 38 48 40
51.2832 36.1403 73.9713 0.274 0.348 -0.897 40 50 42
51.4411 36.1155 73.9703 0.336 0.337 -0.880 45 54 49
51.6415 36.1293 74.0521 0.336 0.337 -0.880 55 64 57
-29.8789 45.6669 68.2330 -0.702 -0.087 -0.706 114 140 138
-29.7312 45.6685 68.2773 -0.710 0.079 -0.699 117 139 137
-28.6513 44.8511 67.0881 -0.710 0.079 -0.699 28 49 47
-23.0090 43.1095 65.4924 -0.418 0.106 -0.902 30 36 36
-21.1325 42.2388 64.4293 -0.067 0.272 -0.960 40 47 51
-20.8492 42.2437 64.5178 0.107 0.062 -0.992 42 50 53
-20.7374 42.2930 64.6393 -0.196 -0.112 -0.974 50 58 61
-20.5566 42.2349 64.5840 -0.273 -0.189 -0.943 67 75 79
-20.0228 42.0722 64.4369 -0.336 -0.109 -0.936 55 67 76
-17.2263 40.9863 63.2393 0.135 0.225 -0.965 100 108 110
-16.7848 40.9583 63.3121 0.569 0.010 -0.822 79 87 90
-16.6155 40.9103 63.2720 0.209 0.040 -0.977 62 70 73
-16.3229 40.8949 63.3260 -0.344 -0.027 -0.939 85 94 99
-15.6179 40.6478 63.0727 -0.338 -0.034 -0.941 97 105 107
-15.4298 40.5631 62.9709 -0.417 -0.099 -0.903 102 111 110
-15.2597 40.5107 62.9230 -0.335 -0.082 -0.939 106 115 114
-14.9281 40.4204 62.8513 -0.246 -0.051 -0.968 115 124 123
-14.7609 40.3722 62.8102 -0.236 -0.048 -0.970 99 107 109
-14.2906 40.2851 62.7832 -0.058 -0.008 -0.998 99 105 105
-14.1187 40.2266 62.7247 -0.313 -0.214 -0.925 96 102 102
-11.1348 39.3149 61.8978 -0.165 0.123 -0.979 106 106 106
-10.4667 39.0793 61.6552 -0.184 -0.204 -0.962 61 64 69
-9.9924 38.9571 61.5654 -0.193 -0.018 -0.981 74 77 82
-9.8345 38.9163 61.5351 -0.193 -0.018 -0.981 56 59 64
-9.6738 38.8684 61.4927 -0.262 0.047 -0.964 56 61 65
-8.5277 38.1287 60.4639 0.081 -0.602 -0.795 121 126 120
-8.3950 38.1423 60.5260 0.111 -0.619 -0.777 115 124 109
-8.2504 38.1270 60.5388 0.002 -0.584 -0.812 112 124 106
-8.2448 38.4582 61.1450 0.024 -0.025 -0.999 115 123 108
-7.5841 38.1970 60.8536 -0.416 -0.180 -0.891 61 66 59
-7.4332 38.1666 60.8405 -0.054 -0.265 -0.963 46 48 43
-7.3033 38.1912 60.9220 0.225 -0.233 -0.946 68 70 69
-7.1557 38.1697 60.9240 0.182 -0.200 -0.963 71 72 74
-7.0046 38.1387 60.9099 -0.426 -0.154 -0.892 75 77 76
-6.8447 38.0839 60.8547 -0.481 -0.245 -0.842 75 77 76
-5.5401 37.5432 60.2338 -0.004 -0.063 -0.998 69 69 69
-5.4090 37.5650 60.3103 -0.026 0.181 -0.983 62 62 62
-5.2733 37.5740 60.3650 -0.035 0.193 -0.981 57 57 57
-5.1165 37.5202 60.3107 0.059 0.025 -0.998 65 65 65
-4.1792 37.1914 59.9735 -0.284 -0.341 -0.896 75 75 75
-4.0195 37.1224 59.8925 -0.206 -0.189 -0.960 74 76 73
-0.9520 36.5294 59.6710 -0.154 -0.266 -0.952 49 49 47
-0.7959 36.4545 59.5780 0.142 -0.447 -0.883 45 45 43
-0.6634 36.4804 59.6626 0.062 -0.150 -0.987 53 52 50
-0.5235 36.4750 59.6919 -0.023 -0.168 -0.986 53 52 50
-0.3842 36.4726 59.7267 0.038 0.039 -0.999 53 52 50
0.7763 36.2345 59.6178 0.243 -0.494 -0.835 28 33 29
0.9162 36.2297 59.6483 0.289 -0.497 -0.818 23 28 24
1.0594 36.2076 59.6482 0.185 -0.263 -0.947 23 25 22
8.3094 35.1347 59.7250 0.005 0.097 -0.995 74 69 63
8.7331 35.0639 59.7148 -0.275 -0.377 -0.884 56 51 45
8.8740 35.0267 59.6864 -0.286 -0.364 -0.887 84 79 73
10.2823 34.7990 59.6661 -0.034 0.137 -0.990 70 67 60
10.4229 34.7761 59.6637 -0.054 0.123 -0.991 39 36 31
11.9634 34.4986 59.5897 0.215 -0.172 -0.961 94 90 87
12.1040 34.4831 59.6008 0.220 -0.185 -0.958 96 93 88
12.3891 34.4887 59.6911 0.448 -0.064 -0.892 92 89 84
12.8186 34.5029 59.8376 0.244 -0.162 -0.956 70 72 61
12.9615 34.5030 59.8780 0.225 -0.188 -0.956 87 89 78
15.0736 34.2432 59.9966 0.452 -0.165 -0.877 77 89 69
15.5189 34.3123 60.2478 0.345 -0.012 -0.939 97 109 89
15.6633 34.3113 60.2866 0.074 -0.160 -0.984 106 115 96
16.4918 34.1205 60.1708 -0.147 -0.420 -0.896 103 110 92
16.6273 34.0787 60.1326 -0.036 -0.409 -0.912 100 107 91
16.9047 34.0261 60.1145 -0.261 -0.558 -0.787 102 104 93
17.0417 33.9930 60.0925 -0.261 -0.558 -0.787 102 102 92
17.9961 34.3199 60.9575 0.118 -0.633 -0.765 109 106 99
18.3455 33.9802 60.4352 -0.017 -0.452 -0.892 92 87 83
18.4868 33.9636 60.4446 0.048 -0.410 -0.911 86 81 77
18.6298 33.9531 60.4656 0.035 -0.395 -0.918 83 78 75
18.7782 33.9616 60.5227 -0.022 -0.205 -0.979 77 72 69
18.9184 33.9407 60.5239 -0.022 -0.205 -0.979 75 67 63
19.0616 33.9300 60.5447 -0.050 -0.248 -0.968 78 71 64
19.2013 33.9077 60.5432 -0.050 -0.248 -0.968 97 90 80
19.9659 34.0086 60.9422 -0.164 -0.217 -0.962 119 112 102
20.1102 33.9987 60.9646 -0.165 -0.215 -0.963 121 112 103
21.7059 33.9046 61.2408 0.050 -0.495 -0.867 119 115 103
24.2003 34.1419 62.3746 0.207 0.369 -0.906 67 64 49
24.5045 34.1436 62.4631 0.240 0.373 -0.896 71 65 51
24.6525 34.1344 62.4879 0.224 0.372 -0.901 63 60 45
24.9487 34.1161 62.5377 0.203 0.384 -0.901 46 44 31
25.1074 34.1304 62.6083 0.238 0.372 -0.897 41 42 28
26.3280 34.1238 62.9391 0.273 0.344 -0.898 96 97 79
28.7828 33.8074 63.0506 0.818 -0.472 -0.330 43 52 33
30.5277 34.3954 64.6144 0.079 0.438 -0.896 41 44 33
31.0619 34.7573 65.4252 0.542 -0.526 -0.655 97 99 88
31.3834 34.7587 65.5180 0.281 -0.492 -0.824 101 102 94
31.5453 34.7609 65.5675 0.275 -0.477 -0.835 73 76 67
31.7257 34.7928 65.6765 0.195 -0.555 -0.809 35 38 29
31.8793 34.7809 65.6978 0.114 -0.131 -0.985 93 96 88
35.3984 34.4694 66.1172 0.503 -0.157 -0.850 29 38 21
38.6842 33.8515 65.9117 0.628 -0.496 -0.599 82 90 69
38.8996 33.9138 66.0859 0.628 -0.496 -0.599 57 65 44
39.1152 33.9752 66.2587 0.644 -0.396 -0.655 48 57 36
41.6058 34.3516 67.6453 -0.831 -0.440 -0.339 68 79 62
41.3371 33.8619 66.6757 -0.771 -0.561 -0.302 105 117 97
43.5011 33.8468 67.2557 0.486 0.245 -0.839 50 69 41
43.6753 33.8527 67.3154 0.465 0.332 -0.821 42 61 31
51.4424 36.4223 74.1888 0.442 0.237 -0.865 45 55 47
51.8513 36.4562 74.3655 0.280 0.400 -0.873 61 71 65
52.0362 36.4550 74.4151 0.344 0.402 -0.849 84 99 83
-29.8287 45.7861 68.1233 -0.679 -0.095 -0.728 113 141 138
-29.6994 45.8112 68.2052 -0.676 0.100 -0.730 114 139 136
-28.6980 45.0927 67.1791 -0.676 0.100 -0.730 29 51 49
-28.4185 45.1122 67.2928 -0.078 0.022 -0.997 38 45 45
-28.2576 45.0947 67.3059 -0.129 0.054 -0.990 38 45 43
-21.1457 42.4377 64.4655 -0.028 0.320 -0.947 45 53 56
-20.7074 42.4256 64.5662 -0.026 -0.446 -0.894 50 58 61
-20.5249 42.3647 64.5066 -0.173 -0.400 -0.900 65 74 78
-18.0496 41.5989 63.8070 -0.029 -0.449 -0.893 96 106 108
-16.9396 41.1603 63.3201 0.127 0.233 -0.964 82 90 92
-16.7560 41.0876 63.2393 0.190 0.034 -0.981 75 83 86
-16.6101 41.0805 63.2672 0.190 0.034 -0.981 71 81 83
-16.4799 41.1015 63.3420 -0.136 0.102 -0.985 72 82 84
-16.3185 41.0673 63.3249 -0.324 0.023 -0.946 76 87 89
-14.5856 40.4892 62.7588 0.054 -0.012 -0.998 59 68 67
-14.2849 40.4554 62.7815 -0.058 -0.008 -0.998 119 125 125
-14.0937 40.3599 62.6614 -0.341 -0.158 -0.927 122 128 128
-12.8854 39.9241 62.2072 -0.073 -0.192 -0.979 84 88 87
-12.7312 39.8970 62.2010 -0.073 -0.192 -0.979 96 100 99
-12.5772 39.8698 62.1948 -0.073 -0.192 -0.979 95 99 98
-12.4270 39.8507 62.2020 -0.072 -0.188 -0.979 96 100 99
-12.2732 39.8239 62.1964 -0.065 -0.207 -0.976 90 94 93
-12.1137 39.7852 62.1707 -0.180 0.114 -0.977 97 97 95
-10.4504 39.2271 61.6214 -0.182 -0.219 -0.959 58 59 64
-9.9819 39.1180 61.5542 -0.216 -0.021 -0.976 77 80 85
-9.8235 39.0759 61.5220 -0.130 -0.077 -0.989 67 70 75
-9.6677 39.0395 61.4994 -0.262 0.047 -0.964 63 66 71
-9.5201 39.0222 61.5093 -0.203 -0.042 -0.978 64 67 72
-8.5006 38.2471 60.3854 0.062 -0.506 -0.860 117 123 117
-8.2373 38.2801 60.5191 -0.057 -0.335 -0.940 113 124 107
-8.2368 38.6256 61.1474 0.042 -0.032 -0.999 115 123 108
-7.7237 38.3858 60.8550 -0.297 -0.157 -0.942 123 129 118
-7.5647 38.3349 60.8069 -0.237 -0.131 -0.963 70 75 68
-7.4154 38.3088 60.8013 -0.044 -0.220 -0.975 44 46 41
-7.2821 38.3247 60.8675 0.228 -0.219 -0.948 68 70 69
-7.1417 38.3223 60.9025 0.257 -0.116 -0.959 71 72 74
-6.9881 38.2846 60.8768 -0.426 -0.154 -0.892 75 77 76
-5.5342 37.7186 60.2547 0.018 -0.061 -0.998 72 72 72
-5.3003 37.8488 60.5568 -0.069 0.180 -0.981 60 60 60
-5.1071 37.6863 60.3155 0.059 0.025 -0.998 66 66 66
-4.1613 37.3311 59.9344 -0.144 -0.415 -0.899 78 78 78
-4.0135 37.3005 59.9202 -0.151 -0.398 -0.905 66 68 65
-3.8640 37.2641 59.8958 -0.053 -0.415 -0.908 66 68 65
-3.7231 37.2557 59.9200 0.074 -0.586 -0.807 66 68 65
-3.5682 37.2005 59.8630 0.069 -0.489 -0.870 66 68 65
-3.3377 37.3603 60.2181 0.407 0.300 -0.863 64 69 65
-0.7669 36.5455 59.4561 0.564 -0.139 -0.814 47 47 45
-0.5038 36.6065 59.6406 0.001 -0.208 -0.978 42 41 39
-0.3607 36.5868 59.6449 0.001 -0.208 -0.978 38 37 35
-0.2193 36.5747 59.6625 -0.090 -0.137 -0.986 35 34 32
-0.0745 36.5473 59.6531 -0.090 -0.137 -0.986 35 34 32
0.0715 36.5137 59.6330 -0.121 -0.098 -0.988 38 37 35
0.2167 36.4832 59.6182 -0.121 -0.098 -0.988 39 38 36
0.7843 36.4254 59.6719 0.146 0.003 -0.989 31 36 32
0.9314 36.3835 59.6369 0.029 -0.172 -0.985 27 32 28
1.0738 36.3656 59.6443 0.029 -0.172 -0.985 25 30 26
1.2099 36.3827 59.7134 -0.355 -0.137 -0.925 26 28 25
9.7346 34.9214 59.4425 -0.096 -0.334 -0.938 77 74 67
10.3033 34.9802 59.7087 -0.043 0.119 -0.992 69 66 59
11.1405 34.7538 59.5313 -0.256 0.083 -0.963 84 81 76
11.9852 34.6669 59.6097 0.180 -0.251 -0.951 120 117 112
12.1252 34.6439 59.6072 0.164 -0.178 -0.970 87 84 79
13.6822 34.5354 59.8458 0.321 0.062 -0.945 86 87 79
13.9680 34.5292 59.9144 0.378 -0.015 -0.926 74 77 68
14.9561 34.4208 59.9940 0.060 0.306 -0.950 77 89 69
15.6858 34.4654 60.2793 0.015 -0.115 -0.993 93 102 83
15.8244 34.4343 60.2615 -0.288 -0.331 -0.898 103 112 93
16.5084 34.2454 60.1095 -0.147 -0.420 -0.896 113 120 104
16.9213 34.1513 60.0540 -0.275 -0.546 -0.792 100 102 91
19.5549 34.1824 60.8478 0.405 -0.209 -0.890 122 115 105
19.6948 34.1585 60.8435 0.217 -0.361 -0.907 119 112 102
20.2729 34.1230 60.9407 -0.244 -0.173 -0.954 153 144 135
20.5461 34.0555 60.8944 0.347 0.083 -0.934 130 121 112
21.7347 34.0676 61.2492 0.034 -0.118 -0.992 123 119 107
21.8797 34.0575 61.2715 0.011 -0.111 -0.994 108 104 92
22.0119 34.0125 61.2267 0.401 -0.186 -0.897 104 100 88
23.7910 34.3420 62.3237 0.277 0.377 -0.884 100 97 82
23.9478 34.3547 62.3907 0.163 0.372 -0.914 100 97 82
24.0951 34.3441 62.4127 0.163 0.372 -0.914 101 98 83
24.5472 34.3355 62.5235 0.296 0.387 -0.874 105 102 87
25.9312 34.3553 62.9470 0.068 0.400 -0.914 46 49 32
26.0818 34.3491 62.9779 0.093 0.384 -0.919 41 44 25
26.2290 34.3357 62.9947 0.269 0.337 -0.902 38 41 22
26.3837 34.3377 63.0416 0.269 0.337 -0.902 34 35 17
26.6864 34.3273 63.1074 0.262 0.338 -0.904 51 56 36
30.5931 34.6140 64.7223 -0.006 0.444 -0.896 63 66 55
31.0618 34.8665 65.3127 0.490 -0.320 -0.811 57 58 50
31.2208 34.8646 65.3537 0.544 -0.337 -0.769 100 101 93
31.3904 34.8800 65.4293 0.252 -0.328 -0.911 93 96 87
31.5529 34.8834 65.4809 0.252 -0.341 -0.906 89 92 83
31.7246 34.9015 65.5619 0.286 -0.479 -0.830 39 40 32
31.9026 34.9291 65.6619 0.077 -0.196 -0.977 77 79 68
35.5032 36.8894 70.2343 0.845 -0.235 -0.480 50 58 43
38.5490 34.0047 65.8415 0.771 -0.203 -0.604 88 97 76
38.6903 33.9771 65.8309 0.625 -0.514 -0.587 82 90 69
38.7821 33.8895 65.6973 0.278 -0.607 -0.745 40 48 27
41.6004 34.2787 67.1938 -0.820 -0.460 -0.341 81 93 72
43.6546 34.1317 67.5015 0.510 0.267 -0.818 50 69 39
43.8522 34.1614 67.6108 0.503 0.277 -0.819 42 61 29
50.0921 36.1593 72.9904 0.275 -0.906 -0.322 45 60 39
50.2697 36.1544 73.0313 0.444 -0.861 -0.250 46 61 42
50.5332 36.2294 73.2414 0.444 -0.861 -0.250 47 59 45
50.6663 36.1827 73.1937 0.678 -0.676 -0.289 49 61 51
51.0633 36.3799 73.6634 0.678 -0.676 -0.289 51 61 53
51.8746 36.7847 74.6265 0.343 0.432 -0.834 60 70 62
-29.7797 45.9065 68.0162 -0.677 -0.098 -0.730 112 140 140
-29.2994 45.4800 67.3779 -0.144 -0.110 -0.984 115 139 139
-29.1224 45.4421 67.3587 -0.107 -0.080 -0.991 107 133 132
-28.6037 45.3433 67.3246 -0.108 -0.062 -0.992 32 44 46
-28.1608 45.1490 67.0962 -0.414 0.039 -0.910 41 44 45
-22.6244 43.3295 65.3466 -0.428 0.242 -0.871 24 29 32
-21.1284 42.5900 64.4249 -0.182 -0.185 -0.966 46 54 57
-20.8290 42.5707 64.4736 -0.000 -0.433 -0.901 48 56 59
-20.6732 42.5517 64.4827 -0.000 -0.433 -0.901 58 66 69
-20.5240 42.5429 64.5085 -0.350 -0.128 -0.928 57 65 69
-20.3377 42.4757 64.4387 -0.360 -0.115 -0.926 71 81 89
-19.8080 42.3177 64.3003 -0.330 -0.144 -0.933 66 78 90
-19.6127 42.2339 64.2032 -0.326 -0.038 -0.945 84 96 108
-18.0311 41.7476 63.7639 0.202 -0.614 -0.763 88 98 100
-17.5607 41.6760 63.7656 -0.450 -0.344 -0.824 77 85 87
-16.6079 41.2567 63.2721 0.025 0.130 -0.991 72 82 84
-16.4548 41.2372 63.2797 -0.144 -0.028 -0.989 70 81 83
-15.7688 41.0251 63.0870 -0.425 -0.041 -0.904 82 92 94
-15.0776 40.7966 62.8661 -0.269 0.005 -0.963 96 105 104
-14.7381 40.6909 62.7694 -0.157 -0.017 -0.987 32 41 40
-14.5781 40.6559 62.7507 -0.198 -0.058 -0.978 56 65 64
-14.4296 40.6428 62.7685 -0.018 -0.071 -0.997 79 88 87
-14.2630 40.5948 62.7280 -0.220 -0.232 -0.947 130 139 136
-14.0787 40.5122 62.6300 -0.341 -0.158 -0.927 112 121 118
-13.9088 40.4568 62.5769 -0.341 -0.158 -0.927 84 93 90
-13.7362 40.3956 62.5143 -0.329 -0.130 -0.935 90 96 94
-12.8641 40.0629 62.1553 -0.124 -0.501 -0.857 97 101 102
-12.7111 40.0380 62.1528 -0.283 -0.630 -0.723 87 91 92
-12.5679 40.0331 62.1840 -0.191 -0.664 -0.723 89 93 94
-11.7667 39.8306 62.0409 -0.206 -0.142 -0.968 53 53 53
-11.2763 39.6841 61.9124 -0.153 0.010 -0.988 49 49 48
-10.7629 39.4826 61.6908 -0.456 0.078 -0.887 88 89 93
-10.6085 39.4512 61.6771 -0.308 -0.054 -0.950 101 102 106
-10.4474 39.4046 61.6376 -0.220 -0.177 -0.959 85 86 91
-10.1245 39.3086 61.5539 -0.296 -0.123 -0.947 84 85 90
-9.6615 39.2108 61.5061 -0.262 0.047 -0.964 70 74 77
-9.5046 39.1717 61.4790 -0.198 -0.020 -0.980 71 75 78
-8.4776 38.3757 60.3243 0.066 -0.497 -0.865 113 120 115
-8.3626 38.4330 60.4602 -0.005 -0.122 -0.992 115 122 112
-8.2222 38.4283 60.4908 -0.193 -0.094 -0.977 114 125 109
-7.7054 38.5271 60.8139 -0.302 -0.119 -0.946 127 135 124
-7.5446 38.4712 60.7575 0.267 -0.147 -0.952 79 84 77
-7.4042 38.4684 60.7917 0.283 -0.236 -0.929 42 47 41
-7.2654 38.4702 60.8336 0.283 -0.236 -0.929 67 69 66
-7.1258 38.4700 60.8721 0.259 -0.129 -0.957 72 74 73
-6.9618 38.4043 60.7991 -0.425 -0.169 -0.889 73 75 74
-6.8212 38.4014 60.8330 -0.242 -0.007 -0.970 75 77 76
-6.6692 38.3674 60.8138 -0.471 0.097 -0.877 68 70 69
-5.6565 37.8639 60.1848 0.254 0.013 -0.967 78 78 78
-5.5175 37.8627 60.2213 0.254 0.013 -0.967 73 73 73
-5.0961 37.8481 60.3126 0.045 0.026 -0.999 66 66 66
-4.9620 37.8633 60.3774 -0.472 0.123 -0.873 63 63 63
-4.1311 37.4312 59.8270 -0.256 -0.007 -0.967 77 77 77
-3.9990 37.4516 59.9008 -0.045 -0.202 -0.978 65 65 63
-3.8464 37.4048 59.8586 -0.033 -0.188 -0.982 71 71 69
-3.3321 37.5438 60.2537 0.323 0.235 -0.917 66 68 65
-3.1946 37.5503 60.3038 0.323 0.235 -0.917 65 67 64
-3.0665 37.5907 60.4128 0.508 0.089 -0.857 66 66 64
-0.5083 36.8458 59.7779 -0.279 -0.074 -0.957 41 40 38
-0.2032 36.7229 59.6404 -0.090 -0.137 -0.986 31 30 28
1.2329 36.4948 59.6282 -0.051 -0.037 -0.998 28 33 29
1.6626 36.4283 59.6276 0.151 0.029 -0.988 24 24 24
1.8000 36.4405 59.6881 0.345 0.006 -0.939 24 24 24
1.9385 36.4473 59.7390 0.345 0.006 -0.939 24 24 24
2.0759 36.4618 59.8036 0.578 0.159 -0.800 22 22 22
8.4876 35.2325 59.3667 -0.008 -0.478 -0.879 59 54 48
8.6283 35.2153 59.3748 -0.008 -0.478 -0.879 65 60 54
8.7690 35.1981 59.3830 -0.008 -0.478 -0.879 46 41 35
8.9094 35.1568 59.3474 -0.082 -0.399 -0.913 45 40 34
9.0500 35.1337 59.3448 -0.082 -0.399 -0.913 61 56 50
10.3232 35.1395 59.7106 -0.034 0.107 -0.994 97 94 87
11.1605 34.9075 59.5241 -0.337 -0.125 -0.933 81 78 73
11.3013 34.8921 59.5355 -0.028 -0.075 -0.997 98 95 90
11.4396 34.8463 59.4912 -0.179 -0.125 -0.976 122 119 114
11.5796 34.8224 59.4870 -0.059 -0.109 -0.992 111 108 103
12.0046 34.8090 59.5812 0.180 -0.224 -0.958 106 103 98
12.1449 34.7888 59.5839 0.164 -0.178 -0.970 102 99 94
13.5637 34.7132 59.8430 0.113 0.085 -0.990 75 77 66
14.2776 34.6886 59.9975 0.048 0.249 -0.967 74 75 67
16.3935 34.4311 60.1217 -0.269 -0.080 -0.960 105 114 97
16.5346 34.4142 60.1305 -0.069 -0.248 -0.966 95 102 86
16.6742 34.3906 60.1267 -0.069 -0.248 -0.966 91 98 82
16.8119 34.3589 60.1077 -0.127 -0.262 -0.957 105 109 95
16.9471 34.3168 60.0692 -0.151 -0.236 -0.960 100 102 89
17.0903 34.3098 60.0966 -0.122 -0.183 -0.976 92 92 82
17.2344 34.3061 60.1300 -0.078 -0.222 -0.972 84 84 74
17.9994 34.4566 60.6160 -0.137 -0.086 -0.987 100 97 90
18.6850 34.2865 60.4994 -0.034 -0.296 -0.954 87 82 78
18.8252 34.2649 60.4992 0.137 -0.212 -0.968 76 71 67
19.4288 34.3248 60.7761 0.444 -0.204 -0.872 130 123 113
19.7314 34.3524 60.9107 0.079 -0.426 -0.901 114 107 97
19.8755 34.3416 60.9312 -0.344 -0.096 -0.934 124 117 107
20.0142 34.3135 60.9191 -0.347 -0.098 -0.933 143 136 126
20.1548 34.2914 60.9182 -0.297 -0.170 -0.940 157 150 140
20.2861 34.2406 60.8630 -0.231 -0.183 -0.956 147 138 129
20.4266 34.2188 60.8626 -0.019 -0.444 -0.896 137 128 119
21.3144 34.2206 61.1137 0.096 -0.335 -0.937 99 93 81
21.4576 34.2059 61.1270 -0.014 -0.388 -0.922 110 106 94
21.5965 34.1794 61.1178 -0.007 -0.381 -0.925 110 106 94
21.9112 34.2281 61.2938 -0.003 0.094 -0.996 93 89 77
23.3242 34.0248 61.3199 -0.165 0.016 -0.986 113 111 98
23.4599 33.9911 61.2967 -0.165 0.016 -0.986 98 96 81
23.5900 33.9441 61.2479 -0.160 0.005 -0.987 98 96 81
23.7256 33.9109 61.2258 -0.160 0.005 -0.987 105 103 88
23.8609 33.8775 61.2030 -0.159 -0.008 -0.987 111 109 94
24.4481 34.5522 62.5885 0.250 0.417 -0.874 114 112 97
25.2544 34.6487 62.9882 0.155 0.627 -0.763 129 127 114
25.8515 34.6110 63.0865 0.221 0.497 -0.839 118 117 102
25.9823 34.5618 63.0339 0.075 0.407 -0.910 78 81 64
26.1263 34.5410 63.0364 0.075 0.407 -0.910 75 78 59
27.7694 34.4314 63.2964 0.235 0.719 -0.654 42 46 29
31.0832 35.0114 65.2714 0.477 -0.094 -0.874 34 37 30
31.2325 34.9934 65.2804 0.544 -0.331 -0.771 60 63 56
31.4028 35.0103 65.3585 0.238 -0.323 -0.916 79 82 73
31.5620 35.0083 65.3993 0.239 -0.330 -0.913 92 93 85
31.7217 35.0070 65.4415 0.239 -0.330 -0.913 55 57 46
31.8870 35.0145 65.5012 0.331 -0.413 -0.849 62 64 53
32.4661 34.9121 65.4774 -0.625 -0.115 -0.772 76 76 66
32.8733 34.7943 65.3778 -0.040 -0.823 -0.567 30 38 27
38.4857 38.0202 72.7849 0.842 0.114 -0.527 25 38 20
38.5425 34.1145 65.7287 0.754 -0.219 -0.620 84 93 72
38.5990 33.9832 65.5067 0.281 -0.637 -0.717 69 78 57
38.7680 33.9902 65.5666 0.281 -0.637 -0.717 40 49 28
41.4843 34.4586 67.1727 -0.813 -0.478 -0.332 120 133 113
44.0836 34.7086 68.3506 0.448 -0.186 -0.874 49 70 37
44.2777 34.7327 68.4484 0.450 -0.191 -0.872 40 61 26
48.9855 35.5879 71.3106 0.554 0.111 -0.825 41 56 37
49.7415 36.1343 72.5108 0.293 -0.908 -0.300 40 55 34
50.8066 36.4481 73.3761 0.548 -0.823 -0.150 59 69 60
51.0459 36.4995 73.5360 0.642 -0.722 -0.257 60 70 62
52.4517 37.1074 75.0291 0.269 0.599 -0.754 97 112 99
-29.3921 45.5912 67.2179 0.158 -0.192 -0.969 112 140 140
-29.2822 45.6397 67.3360 -0.081 -0.075 -0.994 115 140 142
-29.1101 45.6080 67.3268 -0.105 -0.116 -0.988 109 136 137
-28.9443 45.5844 67.3303 -0.057 -0.090 -0.994 98 127 127
-28.7739 45.5548 67.3243 0.130 -0.191 -0.973 74 98 98
-28.6025 45.5239 67.3161 -0.057 -0.090 -0.994 28 39 41
-28.4463 45.5128 67.3396 -0.016 -0.109 -0.994 39 39 44
-28.3340 45.5598 67.4556 0.122 -0.216 -0.969 38 38 42
-28.1821 45.5547 67.4887 0.084 -0.156 -0.984 35 38 42
-22.5268 43.5816 65.5041 -0.366 0.423 -0.829 24 29 32
-21.1141 42.7470 64.3921 -0.182 -0.185 -0.966 45 53 56
-20.8072 42.7161 64.4217 -0.093 -0.418 -0.904 46 54 57
-20.6532 42.6998 64.4352 -0.044 -0.461 -0.886 70 78 81
-20.4902 42.6694 64.4258 -0.402 -0.512 -0.759 46 54 58
-20.1426 42.5735 64.3495 -0.496 -0.439 -0.749 85 95 105
-19.9535 42.5007 64.2708 -0.539 -0.335 -0.772 75 88 97
-19.8032 42.4898 64.2930 -0.270 -0.249 -0.930 66 78 90
-19.6065 42.4037 64.1924 -0.355 -0.024 -0.935 79 91 103
-18.0036 41.8808 63.6955 0.209 -0.623 -0.754 72 82 84
-17.7197 41.8841 63.7803 -0.426 -0.227 -0.876 77 82 85
-16.7970 41.5197 63.3800 -0.427 -0.138 -0.894 89 99 100
-16.4670 41.4395 63.3272 -0.218 -0.122 -0.968 70 81 83
-16.0812 41.2572 63.1058 -0.251 0.124 -0.960 70 81 85
-15.9421 41.2626 63.1543 -0.317 -0.069 -0.946 92 103 105
-15.6043 41.1647 63.0716 -0.342 0.003 -0.940 68 78 79
-15.0743 40.9713 62.8704 -0.240 -0.065 -0.969 105 114 113
-14.9181 40.9442 62.8650 -0.252 -0.076 -0.965 94 103 102
-14.7472 40.8893 62.8135 -0.247 -0.006 -0.969 84 93 92
-14.5795 40.8400 62.7711 -0.247 -0.006 -0.969 116 125 124
-14.3936 40.7552 62.6700 -0.283 -0.023 -0.959 102 111 108
-14.2202 40.6938 62.6075 -0.408 -0.032 -0.912 130 139 136
-14.0645 40.6661 62.6010 -0.405 -0.197 -0.893 101 110 107
-13.7276 40.5606 62.5043 -0.252 -0.085 -0.964 83 92 89
-13.1986 40.3511 62.2738 -0.445 -0.242 -0.862 88 94 94
-13.0279 40.2912 62.2132 -0.359 -0.405 -0.841 118 122 123
-12.8419 40.1997 62.1000 -0.182 -0.502 -0.846 113 117 118
-12.6853 40.1674 62.0854 -0.182 -0.502 -0.846 73 77 78
-12.5288 40.1352 62.0708 -0.182 -0.502 -0.846 75 79 80
-12.0713 40.0623 62.0667 -0.115 -0.536 -0.836 73 75 72
-11.6054 39.9707 62.0310 -0.187 -0.173 -0.967 24 26 25
-11.2819 39.8804 61.9581 -0.159 -0.154 -0.975 54 56 55
-11.1272 39.8501 61.9466 -0.195 -0.189 -0.962 73 74 76
-10.4149 39.5159 61.5421 -0.124 -0.505 -0.854 105 104 109
-10.2601 39.4829 61.5257 -0.115 -0.510 -0.853 88 87 92
-10.0992 39.4357 61.4853 -0.063 -0.538 -0.841 96 97 101
-8.0324 38.8384 60.9832 -0.531 -0.067 -0.844 111 122 108
-7.8493 38.7271 60.8335 -0.322 -0.231 -0.918 118 129 115
-7.6904 38.6769 60.7871 -0.308 -0.202 -0.930 125 135 124
-7.5303 38.6229 60.7342 0.243 -0.265 -0.933 96 103 95
-7.3899 38.6200 60.7682 0.285 -0.246 -0.926 44 49 43
-7.2466 38.6100 60.7899 0.252 -0.253 -0.934 66 68 65
-7.1104 38.6189 60.8438 0.261 -0.267 -0.927 64 64 63
-6.9718 38.6219 60.8879 0.159 -0.134 -0.978 70 72 69
-6.8037 38.5447 60.7955 -0.256 -0.079 -0.963 73 75 72
-5.6666 38.0861 60.2848 0.096 0.253 -0.963 76 76 76
-5.5083 38.0290 60.2259 0.254 0.013 -0.967 72 72 72
-5.2764 38.1675 60.5401 -0.200 -0.026 -0.979 71 71 71
-5.1132 38.0956 60.4558 -0.519 -0.029 -0.855 66 66 66
-4.9530 38.0315 60.3848 -0.564 -0.034 -0.825 53 53 53
-4.1195 37.5912 59.8228 -0.256 -0.007 -0.967 59 59 57
-3.9826 37.5963 59.8701 -0.045 -0.202 -0.978 63 63 61
-3.2005 37.7752 60.4102 -0.043 0.178 -0.983 67 67 65
-0.6282 36.9803 59.6923 -0.232 -0.059 -0.971 46 46 44
-0.3320 36.8982 59.6267 -0.117 -0.166 -0.979 35 34 32
-0.1743 36.8111 59.5135 -0.213 -0.578 -0.788 33 32 30
-0.0263 36.7680 59.4769 -0.225 -0.582 -0.781 34 33 31
0.1221 36.7215 59.4345 -0.197 -0.606 -0.770 33 32 30
1.1103 36.6420 59.5659 0.250 -0.324 -0.912 28 33 29
1.2516 36.6304 59.5843 0.228 -0.317 -0.921 28 33 29
1.6760 36.5954 59.6392 0.190 0.061 -0.980 32 32 32
1.8140 36.6046 59.6942 0.345 0.006 -0.939 31 31 31
1.9511 36.6205 59.7611 0.363 0.016 -0.932 30 30 30
2.2220 36.6783 59.9406 0.522 0.238 -0.819 22 22 22
8.3655 35.3513 59.2567 -0.036 -0.425 -0.904 60 55 49
8.5061 35.3316 59.2603 -0.036 -0.425 -0.904 81 76 70
8.6468 35.3367 59.3087 -0.008 -0.478 -0.879 90 85 79
8.9281 35.3007 59.3219 0.186 -0.316 -0.930 52 47 41
9.0684 35.2602 59.2880 -0.082 -0.399 -0.913 64 59 53
9.2102 35.3020 59.4029 -0.307 -0.143 -0.941 81 76 70
9.3505 35.2667 59.3782 -0.329 -0.072 -0.942 81 78 71
9.6311 35.2068 59.3482 -0.233 0.032 -0.972 87 84 77
9.7709 35.1660 59.3134 -0.233 0.032 -0.972 85 82 75
9.9138 35.2095 59.4317 0.434 -0.145 -0.889 80 77 70
10.3393 35.2231 59.5745 0.142 -0.486 -0.862 96 93 86
10.4808 35.2163 59.6016 0.142 -0.486 -0.862 84 81 76
10.6229 35.2190 59.6460 -0.010 -0.486 -0.874 78 75 70
11.3206 35.0352 59.5088 -0.146 -0.102 -0.984 96 93 88
11.4592 34.9923 59.4700 -0.174 -0.120 -0.977 105 102 97
11.5987 34.9629 59.4556 -0.025 -0.089 -0.996 106 103 98
11.7371 34.9221 59.4207 0.287 -0.396 -0.872 95 92 87
12.0224 34.9341 59.5217 0.325 -0.449 -0.832 102 99 94
12.1649 34.9371 59.5666 0.198 -0.190 -0.962 103 100 95
14.0133 34.8521 59.9275 0.378 -0.015 -0.926 53 54 46
14.7286 34.8255 60.0785 0.075 0.119 -0.990 98 101 90
15.5775 34.7291 60.1408 0.050 -0.624 -0.780 102 114 94
16.5572 34.5663 60.1197 0.101 -0.056 -0.993 68 75 59
16.6961 34.5394 60.1099 0.079 -0.056 -0.995 71 78 62
18.1789 34.6475 60.7173 -0.237 0.100 -0.966 86 81 75
18.8377 34.3775 60.4137 0.336 -0.076 -0.939 76 71 65
18.9864 34.3862 60.4708 0.371 -0.056 -0.927 86 81 75
19.1385 34.4061 60.5489 0.365 -0.050 -0.930 102 95 87
19.8918 34.4689 60.8717 -0.110 0.016 -0.994 121 114 104
20.8872 34.3507 60.9355 0.196 -0.337 -0.921 105 96 87
21.9339 34.3743 61.2690 0.015 0.089 -0.996 89 87 74
23.5656 34.7140 62.3354 -0.114 -0.745 -0.658 95 93 80
23.8640 34.7018 62.3966 -0.326 -0.455 -0.829 95 93 78
23.9963 34.6546 62.3481 -0.327 -0.465 -0.823 102 100 85
25.9022 34.8176 63.1721 0.068 0.525 -0.848 111 111 95
26.1777 34.7478 63.1230 0.172 0.451 -0.876 97 100 81
26.3281 34.7399 63.1507 0.311 0.361 -0.879 97 100 81
26.9467 34.7420 63.3265 0.179 0.452 -0.874 110 113 94
31.7568 35.1744 65.4441 -0.113 -0.696 -0.709 70 72 61
33.1720 34.8709 65.2903 -0.157 -0.770 -0.619 43 46 39
41.4449 34.5356 66.9869 -0.824 -0.459 -0.331 107 121 100
44.0265 34.7728 68.1327 0.589 -0.016 -0.808 47 68 35
48.8612 35.6007 70.9703 0.621 0.298 -0.724 42 57 38
49.3244 35.8714 71.5872 0.573 0.159 -0.804 43 58 37
49.8958 36.2419 72.4142 0.319 -0.891 -0.322 48 63 42
52.7113 37.4827 75.4346 0.319 0.572 -0.755 97 111 100
-29.3786 45.7554 67.1835 0.148 -0.220 -0.964 112 140 142
-29.2238 45.7460 67.2094 0.148 -0.220 -0.964 115 141 142
-29.0690 45.7365 67.2354 0.148 -0.220 -0.964 113 141 141
-28.9141 45.7271 67.2614 0.148 -0.220 -0.964 94 124 124
-28.7620 45.7214 67.2933 0.130 -0.191 -0.973 86 112 111
-28.6139 45.7210 67.3338 0.106 -0.179 -0.978 42 54 58
-28.4713 45.7282 67.3861 0.186 -0.172 -0.967 37 40 44
-28.3201 45.7241 67.4207 0.122 -0.216 -0.969 37 39 43
-28.1547 45.7011 67.4254 0.063 -0.150 -0.987 37 38 42
-27.9979 45.6898 67.4484 0.050 -0.157 -0.986 35 35 40
-21.4504 43.0023 64.4383 -0.599 -0.095 -0.795 31 36 40
-21.3437 43.0595 64.5707 -0.473 0.142 -0.869 41 49 52
-21.0980 42.9011 64.3544 -0.150 -0.180 -0.972 46 54 57
-20.9731 42.9304 64.4417 -0.295 -0.354 -0.888 45 53 56
-20.8095 42.8994 64.4313 -0.292 -0.461 -0.838 48 56 59
-20.6365 42.8532 64.3964 -0.266 -0.484 -0.834 76 84 87
-20.4562 42.7952 64.3423 -0.405 -0.511 -0.759 54 63 66
-20.2727 42.7319 64.2794 -0.419 -0.509 -0.752 53 63 69
-19.7833 42.6376 64.2458 -0.237 -0.264 -0.935 64 77 86
-18.3670 42.1925 63.8392 -0.119 0.142 -0.983 96 107 111
-18.1870 42.1299 63.7768 0.130 0.124 -0.984 86 97 101
-18.0099 42.0719 63.7218 -0.124 0.006 -0.992 63 73 75
-16.9620 41.7401 63.4165 -0.449 -0.215 -0.867 81 89 91
-16.7940 41.6950 63.3822 -0.381 -0.162 -0.910 82 92 93
-16.6522 41.6966 63.4243 -0.169 -0.036 -0.985 83 94 96
-16.4597 41.6072 63.3172 -0.240 -0.116 -0.964 81 92 94
-16.3091 41.5928 63.3330 -0.437 -0.076 -0.896 78 92 93
-16.1305 41.5275 63.2654 -0.450 -0.043 -0.892 72 86 89
-15.7635 41.3772 63.0972 -0.460 -0.047 -0.887 93 104 106
-15.5863 41.3127 63.0305 -0.465 -0.144 -0.874 81 91 92
-15.3956 41.2224 62.9214 -0.410 -0.033 -0.912 79 89 88
-15.2252 41.1693 62.8732 -0.273 -0.083 -0.958 93 102 101
-15.0591 41.1240 62.8379 -0.270 -0.104 -0.957 105 114 113
-14.9023 41.0959 62.8309 -0.100 -0.075 -0.992 102 111 110
-14.7425 41.0618 62.8140 -0.107 -0.072 -0.992 122 131 130
-14.5595 40.9832 62.7236 -0.209 -0.058 -0.976 135 144 143
-14.3998 40.9487 62.7059 -0.260 -0.028 -0.965 135 144 141
-14.2251 40.8849 62.6398 -0.382 -0.032 -0.923 109 118 115
-14.0664 40.8518 62.6244 -0.370 -0.031 -0.929 85 94 91
-13.7108 40.7093 62.4672 -0.270 -0.101 -0.957 77 86 83
-13.5210 40.6132 62.3472 -0.494 0.004 -0.869 85 94 91
-13.3833 40.6204 62.3984 -0.286 -0.055 -0.957 94 100 100
-13.0063 40.4296 62.1603 -0.357 -0.402 -0.843 93 97 98
-12.6718 40.3219 62.0597 -0.108 -0.300 -0.948 67 71 72
-12.5259 40.3116 62.0816 0.004 -0.352 -0.936 55 59 60
-12.2186 40.2589 62.0721 -0.074 -0.292 -0.954 73 77 78
-12.0668 40.2361 62.0733 -0.063 -0.280 -0.958 70 72 71
-11.8886 40.1572 61.9810 0.089 0.091 -0.992 52 54 53
-11.7523 40.1672 62.0368 -0.081 -0.214 -0.973 45 46 48
-11.4298 40.0798 61.9693 -0.464 -0.093 -0.881 53 55 52
-11.2723 40.0439 61.9485 -0.163 -0.161 -0.973 63 65 64
-11.1113 39.9998 61.9140 -0.195 -0.189 -0.962 72 73 75
-9.6305 39.5101 61.4452 -0.063 -0.506 -0.860 85 89 90
-8.3547 38.7852 60.4975 0.225 -0.031 -0.974 105 115 106
-7.5988 38.2690 59.7801 -0.367 -0.264 -0.892 117 128 114
-7.6529 38.7681 60.6612 0.243 -0.265 -0.933 124 134 123
-7.5132 38.7669 60.6979 0.243 -0.265 -0.933 108 116 105
-7.3559 38.7196 60.6565 -0.325 -0.299 -0.897 45 50 44
-7.1971 38.6676 60.6072 -0.326 -0.309 -0.893 67 69 65
-7.0342 38.6042 60.5385 -0.356 -0.278 -0.892 55 55 53
-6.9155 38.6600 60.6716 -0.176 -0.060 -0.983 65 66 62
-6.8012 38.7294 60.8279 -0.079 0.143 -0.987 66 67 62
-5.5617 38.3813 60.5465 -0.271 -0.258 -0.927 68 68 66
-5.2723 38.3509 60.5723 -0.086 -0.209 -0.974 67 67 65
-5.0989 38.2480 60.4356 -0.515 -0.149 -0.844 70 70 68
-0.9020 37.1799 59.6814 0.273 -0.181 -0.945 55 57 52
0.8602 36.7278 59.3582 -0.034 -0.673 -0.739 48 53 49
1.2709 36.7630 59.5353 0.240 -0.307 -0.921 29 34 30
1.6916 36.7495 59.6277 0.235 0.020 -0.972 37 37 37
1.8278 36.7703 59.7029 0.351 -0.034 -0.936 37 37 37
1.9658 36.7813 59.7609 0.361 -0.024 -0.932 37 37 37
2.2346 36.8550 59.9677 0.503 0.067 -0.862 22 22 22
2.3819 36.8095 59.9268 0.331 0.032 -0.943 22 22 22
6.6926 35.7730 59.2611 0.181 -0.538 -0.823 25 23 26
6.8323 35.7881 59.3269 0.174 -0.496 -0.851 25 23 26
8.3840 35.4208 59.0976 0.078 0.057 -0.995 67 62 56
9.2301 35.4941 59.4638 0.226 -0.264 -0.938 82 77 71
9.3714 35.4922 59.4996 0.230 -0.256 -0.939 93 90 83
9.5121 35.4631 59.4864 0.178 -0.366 -0.913 91 88 81
9.7922 35.3759 59.4074 -0.109 -0.411 -0.905 87 84 77
10.6407 35.3380 59.5746 0.009 -0.407 -0.913 83 80 75
11.7474 34.9615 59.2055 -0.185 0.050 -0.982 109 106 101
11.8938 35.0134 59.3392 0.264 -0.116 -0.957 96 93 88
12.8980 35.0812 59.7395 0.164 -0.087 -0.983 79 81 70
13.7542 35.0520 59.9244 0.144 -0.220 -0.965 71 72 64
14.1832 35.0356 60.0139 0.319 -0.099 -0.943 56 58 47
14.3262 35.0291 60.0419 0.335 -0.087 -0.938 85 86 78
14.4731 35.0468 60.1143 0.324 -0.093 -0.941 104 103 98
14.7512 34.9833 60.0774 -0.207 0.084 -0.975 102 104 93
14.8804 34.8950 59.9548 -0.396 0.025 -0.918 93 100 85
15.0200 34.8691 59.9470 -0.504 0.038 -0.863 107 116 99
15.4549 34.8806 60.0881 -0.161 -0.629 -0.761 92 100 83
15.5826 34.7920 59.9645 0.315 -0.365 -0.876 91 99 82
15.7137 34.7236 59.8781 0.418 -0.412 -0.810 92 99 83
16.4326 34.7078 60.0490 0.118 -0.097 -0.988 53 59 45
16.5743 34.6936 60.0629 0.099 -0.071 -0.993 50 54 40
18.0452 34.7593 60.5887 0.224 -0.458 -0.860 98 95 86
18.3526 34.8145 60.7730 -0.499 -0.342 -0.796 119 114 108
18.7292 34.5804 60.4570 -0.062 -0.260 -0.964 84 79 73
18.8722 34.5685 60.4753 0.073 -0.312 -0.947 78 73 67
19.0190 34.5698 60.5183 0.208 -0.320 -0.924 84 80 71
19.1641 34.5648 60.5497 0.216 -0.326 -0.920 94 90 81
19.9178 34.6277 60.8715 -0.110 0.016 -0.994 102 98 89
20.4741 34.5199 60.8322 0.015 -0.150 -0.989 114 107 97
20.6262 34.5339 60.8995 0.180 -0.240 -0.954 119 112 102
20.7707 34.5237 60.9213 0.181 -0.248 -0.952 133 126 116
21.9539 34.5134 61.2308 0.028 -0.322 -0.946 81 79 66
23.5975 34.8833 62.3507 -0.310 -0.405 -0.860 94 95 81
23.8901 34.8563 62.3834 -0.387 -0.341 -0.856 85 86 70
24.0169 34.7957 62.3098 -0.294 -0.488 -0.822 92 93 77
26.2381 34.9741 63.2460 0.127 0.386 -0.914 98 101 82
26.3803 34.9482 63.2389 0.305 0.340 -0.890 97 100 81
31.2686 35.2720 65.1756 0.414 -0.376 -0.829 61 64 57
32.4598 35.1241 65.2404 -0.530 -0.648 -0.547 38 38 26
33.0248 35.0033 65.1800 -0.106 -0.788 -0.606 69 74 67
33.1821 34.9981 65.2143 -0.123 -0.776 -0.619 60 63 56
33.3425 34.9973 65.2575 -0.087 -0.806 -0.586 37 43 33
33.5270 34.7905 64.9372 -0.173 -0.163 -0.971 43 49 37
33.8924 34.6191 64.7308 -0.040 0.091 -0.995 28 36 21
34.2107 34.8512 65.2358 0.031 -0.850 -0.526 29 37 22
34.3735 34.8535 65.2851 0.092 -0.840 -0.535 31 39 24
38.5651 34.3778 65.5932 0.517 -0.029 -0.856 55 67 47
49.2241 36.0790 71.6032 0.634 0.161 -0.756 48 63 44
49.8893 36.1976 72.0006 0.493 -0.861 -0.126 65 78 60
50.3949 36.5033 72.6896 0.424 -0.901 -0.088 79 91 79
-29.4082 45.9755 67.2368 0.065 -0.058 -0.996 113 142 143
-29.3161 46.0478 67.3916 0.372 0.164 -0.914 114 140 141
-29.0961 45.9539 67.2845 -0.105 -0.116 -0.988 116 145 146
-28.9324 45.9332 67.2927 -0.065 -0.106 -0.992 92 123 123
-28.7608 45.9022 67.2847 0.106 -0.179 -0.978 92 119 120
-28.6026 45.8887 67.3043 0.106 -0.179 -0.978 55 71 74
-28.4540 45.8879 67.3439 0.102 -0.203 -0.974 32 40 43
-28.2956 45.8742 67.3633 0.102 -0.203 -0.974 34 42 44
-28.1070 45.8203 67.3189 -0.066 -0.090 -0.994 35 38 42
-27.9610 45.8233 67.3647 -0.222 -0.279 -0.934 33 37 40
-27.8228 45.8369 67.4273 -0.356 -0.537 -0.765 32 36 41
-27.6704 45.8315 67.4598 -0.411 -0.510 -0.755 30 36 39
-27.2759 45.6988 67.3315 -0.367 -0.416 -0.832 24 34 36
-26.4211 45.1329 66.5558 -0.320 0.231 -0.919 24 36 36
-26.2121 45.0468 66.4597 -0.314 0.233 -0.920 24 36 36
-24.3218 44.4427 65.9019 -0.470 -0.694 -0.546 21 29 32
-24.1543 44.4116 65.8927 -0.498 -0.688 -0.528 21 29 31
-22.0407 43.6461 65.1081 -0.454 -0.344 -0.822 25 30 34
-20.8205 43.0966 64.4629 -0.551 -0.370 -0.748 51 59 62
-20.6348 43.0306 64.3961 -0.526 -0.410 -0.746 81 89 92
-20.4359 42.9430 64.2944 -0.520 -0.402 -0.753 62 70 73
-20.2322 42.8469 64.1790 -0.419 -0.509 -0.752 51 60 65
-20.0610 42.8025 64.1468 -0.506 -0.320 -0.801 46 57 63
-19.7436 42.7533 64.1467 -0.234 -0.329 -0.915 59 72 81
-19.6121 42.7733 64.2187 -0.107 0.079 -0.991 57 71 80
-19.4211 42.6957 64.1327 -0.109 0.068 -0.992 82 95 103
-16.7959 41.8793 63.3986 -0.195 -0.050 -0.979 95 105 107
-16.6284 41.8350 63.3657 -0.183 -0.036 -0.982 83 94 96
-16.4560 41.7817 63.3180 -0.179 0.008 -0.984 84 95 97
-16.2769 41.7157 63.2495 -0.147 0.060 -0.987 83 97 98
-16.1152 41.6808 63.2318 -0.261 0.062 -0.963 98 112 115
-15.7585 41.5493 63.0952 -0.431 -0.042 -0.901 79 90 92
-15.5755 41.4740 63.0112 -0.431 -0.042 -0.901 105 115 116
-15.3918 41.3967 62.9237 -0.421 -0.036 -0.906 93 103 102
-15.2245 41.3493 62.8853 -0.346 -0.041 -0.937 100 109 108
-15.0552 41.2981 62.8404 -0.208 -0.042 -0.977 119 128 127
-14.8927 41.2592 62.8159 -0.107 -0.072 -0.992 105 114 113
-14.7335 41.2263 62.8011 -0.107 -0.072 -0.992 118 127 126
-14.3926 41.1166 62.6991 -0.260 -0.028 -0.965 123 132 129
-14.2272 41.0710 62.6633 -0.348 0.035 -0.937 121 130 127
-14.0415 40.9851 62.5611 -0.370 0.036 -0.928 94 103 100
-13.8974 40.9804 62.5924 -0.272 -0.081 -0.959 78 87 84
-13.5100 40.7733 62.3293 -0.490 -0.009 -0.872 88 97 94
-13.3950 40.8264 62.4559 -0.452 -0.392 -0.801 85 91 91
-12.8249 40.5296 62.0828 -0.335 0.131 -0.933 90 94 95
-12.6589 40.4780 62.0364 -0.327 0.124 -0.937 77 81 82
-12.4948 40.4299 61.9958 -0.079 0.120 -0.990 50 54 55
-11.4154 40.2329 61.9419 -0.427 -0.050 -0.903 102 104 101
-11.2584 40.1980 61.9229 -0.247 -0.246 -0.937 84 86 85
-11.0872 40.1313 61.8509 -0.356 -0.072 -0.932 67 68 70
-10.9196 40.0721 61.7913 -0.356 -0.072 -0.932 78 77 82
-9.6216 39.6754 61.4408 -0.002 -0.066 -0.998 47 51 52
-7.6009 38.4606 59.8271 -0.434 -0.384 -0.815 116 128 116
-7.6390 38.9204 60.6388 0.414 -0.158 -0.896 123 135 123
-7.5009 38.9240 60.6833 0.240 -0.269 -0.933 112 122 111
-7.3366 38.8579 60.6107 -0.317 -0.315 -0.894 43 48 41
-7.1760 38.8010 60.5534 -0.326 -0.309 -0.893 66 68 63
-7.0981 38.9674 60.8724 0.358 -0.130 -0.925 57 56 53
-6.9593 38.9709 60.9170 0.374 -0.119 -0.920 58 59 54
-6.8192 38.9710 60.9559 -0.038 0.161 -0.986 53 54 49
-6.6720 38.9516 60.9619 -0.041 0.153 -0.987 53 54 49
-6.3722 38.5031 60.2428 -0.231 -0.197 -0.953 53 54 49
-6.2378 38.5158 60.3027 0.073 -0.524 -0.849 57 57 55
-6.0964 38.5092 60.3299 0.060 -0.513 -0.856 58 58 56
-5.7016 38.5771 60.5604 -0.515 -0.332 -0.790 68 68 66
-5.5434 38.5219 60.5055 -0.337 -0.318 -0.886 68 68 66
-5.3813 38.4545 60.4298 -0.264 -0.122 -0.957 68 68 66
-5.2408 38.4516 60.4634 -0.110 -0.163 -0.981 68 68 66
-0.1512 37.1497 59.5423 -0.541 -0.473 -0.696 44 48 42
0.0152 37.0192 59.3549 -0.284 -0.389 -0.876 43 46 41
0.1654 36.9638 59.2974 -0.250 -0.511 -0.822 47 49 44
0.3090 36.9390 59.2928 -0.277 -0.639 -0.717 47 49 44
0.7426 36.8499 59.2532 -0.240 -0.693 -0.680 48 50 47
6.7077 35.9886 59.3620 0.247 -0.466 -0.849 22 20 21
6.8497 35.9507 59.3335 -0.033 -0.408 -0.912 24 22 23
6.9793 36.2571 59.9171 0.070 -0.524 -0.849 25 22 23
8.1213 35.6573 59.1603 -0.115 -0.179 -0.977 60 56 54
8.2620 35.6271 59.1451 -0.046 -0.223 -0.974 69 66 62
8.4026 35.5848 59.1085 0.078 0.057 -0.995 81 78 73
8.5431 35.5690 59.1190 0.407 0.152 -0.900 97 94 89
8.8241 35.5431 59.1504 0.062 0.047 -0.997 78 75 70
8.9652 35.5645 59.2277 0.142 0.019 -0.990 68 65 60
9.1054 35.5223 59.1909 0.040 0.063 -0.997 66 63 58
9.2482 35.6078 59.3832 -0.147 -0.492 -0.858 78 75 70
9.3892 35.5933 59.3963 -0.151 -0.495 -0.856 102 99 94
9.5296 35.5582 59.3723 0.143 -0.508 -0.849 98 95 90
11.0822 35.4202 59.5548 0.102 -0.288 -0.952 105 100 97
11.2236 35.4088 59.5734 0.102 -0.288 -0.952 99 94 91
11.3653 35.4006 59.5979 0.281 -0.259 -0.924 82 77 74
12.3574 35.3295 59.7450 -0.200 -0.432 -0.879 83 80 75
13.6328 35.2119 59.8873 -0.061 -0.069 -0.996 88 89 81
14.3464 35.1732 60.0154 0.342 -0.098 -0.934 71 72 64
14.4943 35.1967 60.0982 0.317 -0.093 -0.944 86 85 80
14.6807 35.4541 60.6101 -0.039 -0.566 -0.824 98 98 90
14.9079 35.0808 60.0053 -0.480 0.042 -0.876 91 95 81
15.0423 35.0240 59.9409 -0.504 0.038 -0.863 122 126 112
15.4687 34.9888 59.9958 -0.161 -0.629 -0.761 93 97 83
15.5983 34.9107 59.8919 0.246 -0.404 -0.881 93 97 83
15.7324 34.8580 59.8349 0.321 -0.794 -0.516 94 98 84
15.8847 34.8992 59.9506 -0.082 -0.617 -0.783 90 93 79
16.4464 34.8190 59.9624 -0.127 -0.429 -0.895 60 63 50
16.5947 34.8359 60.0337 0.062 -0.088 -0.994 57 59 46
18.0562 34.8637 60.4873 0.185 -0.452 -0.873 98 94 85
18.4961 34.8666 60.6142 -0.459 -0.335 -0.823 120 115 109
18.6193 34.7802 60.4936 -0.237 -0.536 -0.810 115 110 104
18.7559 34.7443 60.4672 -0.096 -0.458 -0.884 108 104 95
18.8962 34.7222 60.4664 0.204 -0.390 -0.898 110 106 97
19.9469 34.7967 60.8901 -0.231 -0.060 -0.971 99 95 86
20.0829 34.7590 60.8602 -0.231 -0.060 -0.971 108 104 95
20.4967 34.6671 60.8102 0.015 -0.150 -0.989 139 135 124
20.6409 34.6565 60.8312 0.239 -0.235 -0.942 132 128 117
20.7837 34.6415 60.8438 0.037 -0.133 -0.990 126 119 109
20.9192 34.6044 60.8150 0.038 -0.121 -0.992 118 111 101
21.0638 34.5948 60.8379 -0.140 -0.123 -0.982 120 116 105
21.3378 34.5312 60.7999 -0.543 -0.325 -0.774 124 120 108
23.1709 35.0433 62.2221 -0.073 -0.809 -0.584 81 81 71
23.3123 35.0178 62.2156 -0.062 -0.808 -0.586 94 94 84
23.4648 35.0204 62.2625 0.098 -0.535 -0.839 94 94 82
23.6189 35.0266 62.3161 0.088 -0.549 -0.831 94 94 82
23.7489 34.9729 62.2559 -0.408 -0.437 -0.801 82 83 69
23.9025 34.9777 62.3070 -0.298 -0.477 -0.827 84 85 69
24.0392 34.9409 62.2790 -0.298 -0.477 -0.827 92 93 77
24.2394 35.0574 62.5426 0.585 -0.192 -0.788 98 99 83
24.3949 35.0646 62.5986 0.588 -0.140 -0.797 104 105 89
24.5936 35.1734 62.8480 0.066 -0.043 -0.997 101 104 87
25.5189 35.5297 63.7408 0.881 -0.165 -0.443 103 100 85
26.2987 35.2013 63.3692 0.066 0.380 -0.923 98 101 82
26.4498 35.1935 63.3969 0.343 0.304 -0.889 98 101 82
31.9412 35.4336 65.3441 -0.196 -0.361 -0.912 58 58 46
32.9776 35.0416 64.9296 -0.046 -0.259 -0.965 60 66 56
33.1351 35.0374 64.9657 -0.068 -0.243 -0.968 67 70 63
33.2794 35.0129 64.9617 -0.068 -0.243 -0.968 36 42 32
33.3995 34.9518 64.8856 -0.151 -0.041 -0.988 54 60 48
33.5502 34.9373 64.9014 -0.170 -0.174 -0.970 55 61 49
33.6942 34.9127 64.8972 -0.194 -0.160 -0.968 28 34 20
33.9479 34.8132 64.7894 -0.417 -0.006 -0.909 39 45 31
34.0733 34.7618 64.7322 -0.417 -0.006 -0.909 30 36 22
39.8384 39.7552 75.2542 0.890 -0.023 -0.456 34 47 29
41.7085 33.4157 64.4356 0.256 -0.119 -0.959 77 95 69
-29.3281 46.0534 67.0663 0.153 0.086 -0.984 113 143 144
-29.0891 46.1271 67.2634 -0.105 -0.116 -0.988 110 139 140
-28.9263 46.1077 67.2738 -0.065 -0.106 -0.992 100 131 130
-28.7419 46.0597 67.2391 0.094 -0.148 -0.984 92 121 121
-28.5914 46.0564 67.2747 0.106 -0.179 -0.978 72 92 94
-28.4378 46.0491 67.3041 0.097 -0.193 -0.976 45 61 62
-28.2760 46.0311 67.3166 -0.060 -0.095 -0.994 28 45 44
-28.1018 45.9963 67.3026 -0.066 -0.090 -0.994 29 44 43
-27.7828 45.9661 67.3368 -0.381 -0.544 -0.747 30 42 43
-27.0162 45.7293 67.1263 -0.424 -0.349 -0.836 25 35 37
-26.5599 45.5075 66.8570 -0.507 -0.380 -0.773 25 35 37
-26.2501 45.2816 66.5401 -0.358 0.069 -0.931 22 32 33
-24.4274 44.7780 66.1457 -0.307 0.172 -0.936 20 30 32
-24.1303 44.5581 65.8359 -0.293 -0.608 -0.738 20 30 32
-23.9437 44.4988 65.7818 -0.325 -0.561 -0.761 20 30 32
-23.6857 44.3336 65.5588 -0.429 -0.138 -0.893 18 30 30
-23.5183 44.3017 65.5479 -0.528 -0.153 -0.835 18 30 30
-23.0711 44.0688 65.2566 -0.583 -0.168 -0.795 18 30 30
-22.5839 43.9914 65.2530 -0.247 -0.266 -0.932 23 31 34
-22.3995 43.9319 65.1978 -0.243 -0.268 -0.932 23 31 34
-22.1958 43.8424 65.0946 0.175 -0.259 -0.950 24 29 33
-20.7847 43.2202 64.3755 -0.551 -0.370 -0.748 54 64 65
-20.5914 43.1416 64.2887 -0.529 -0.390 -0.754 57 67 68
-20.3955 43.0583 64.1944 -0.529 -0.390 -0.754 58 66 68
-20.2044 42.9821 64.1113 -0.390 -0.507 -0.769 55 65 67
-20.1477 43.1227 64.3773 -0.128 0.143 -0.981 57 68 72
-19.5019 42.7730 63.9326 0.106 -0.707 -0.699 62 77 84
-19.2633 42.8531 64.1411 -0.371 -0.036 -0.928 55 68 74
-18.6786 42.5957 63.8437 -0.521 -0.127 -0.844 92 103 107
-17.1087 42.1088 63.4093 -0.460 -0.148 -0.875 84 92 94
-16.6011 41.9673 63.2972 -0.231 -0.271 -0.935 85 95 97
-16.4250 41.9070 63.2383 -0.186 -0.233 -0.954 84 95 97
-16.2418 41.8331 63.1572 -0.142 -0.273 -0.951 84 95 97
-16.0978 41.8306 63.1925 -0.275 -0.126 -0.953 84 98 101
-15.3763 41.5491 62.8900 -0.357 -0.092 -0.930 76 85 84
-15.2075 41.4990 62.8473 -0.238 -0.195 -0.951 105 114 113
-15.0388 41.4486 62.8040 -0.176 -0.187 -0.966 134 143 142
-14.8675 41.3930 62.7522 -0.179 -0.209 -0.961 123 132 131
-14.7154 41.3736 62.7597 -0.189 -0.263 -0.946 129 138 137
-14.5359 41.3013 62.6804 -0.333 -0.219 -0.917 135 144 143
-14.3717 41.2582 62.6489 -0.340 -0.212 -0.916 125 134 131
-14.1894 41.1794 62.5587 -0.454 -0.060 -0.889 127 136 133
-14.0339 41.1524 62.5535 -0.368 0.018 -0.930 109 118 115
-13.2108 40.9233 62.3724 -0.511 0.085 -0.855 76 82 82
-11.5665 40.4392 61.9635 -0.236 0.007 -0.972 63 67 66
-11.2321 40.3250 61.8521 -0.442 -0.117 -0.889 75 77 74
-11.0597 40.2553 61.7757 -0.442 -0.117 -0.889 66 66 68
-10.7131 40.1096 61.6117 -0.308 -0.151 -0.939 56 55 60
-10.2284 39.9662 61.4899 -0.301 -0.169 -0.939 108 107 112
-9.7592 39.8552 61.4216 -0.007 -0.082 -0.997 43 47 48
-7.9287 39.1377 60.6482 -0.110 -0.218 -0.970 110 122 110
-7.6254 39.0738 60.6180 0.414 -0.158 -0.896 123 135 123
-7.4921 39.0903 60.6841 0.372 -0.131 -0.919 116 126 115
-7.3559 39.0994 60.7379 0.372 -0.131 -0.919 42 47 40
-7.2195 39.1085 60.7917 0.372 -0.131 -0.919 67 68 63
-7.0851 39.1236 60.8556 0.358 -0.130 -0.925 58 57 53
