ply
format ascii 1.0
element vertex 861
property float x
property float y
property float z
property float nx
property float ny
property float nz
property uchar diffuse_red
property uchar diffuse_green
property uchar diffuse_blue
end_header
12.7062 12.9297 67.7289 0.038 -0.125 -0.991 39 42 34
13.0368 12.8929 67.7760 0.197 -0.269 -0.943 55 57 54
22.6900 12.0537 69.8220 0.056 -0.320 -0.946 73 86 79
24.4401 11.8413 70.0206 -0.431 -0.357 -0.829 67 73 69
26.3510 12.2266 72.0012 -0.013 0.435 -0.900 69 72 71
-46.8049 29.9553 88.4401 -0.883 0.062 -0.465 42 57 64
-44.6257 27.1493 81.4659 -0.468 -0.695 -0.545 41 56 63
-44.4543 27.0956 81.3916 -0.589 -0.425 -0.687 45 59 68
-45.5603 29.6290 88.0819 0.062 0.582 -0.811 67 80 89
-45.3395 29.5096 87.8438 0.016 0.576 -0.817 63 76 85
-41.7674 26.0415 79.6252 -0.724 -0.098 -0.683 138 154 140
-41.2548 25.8606 79.3457 -0.070 -0.145 -0.987 61 74 67
-41.1199 25.8667 79.4247 -0.045 -0.382 -0.923 51 65 67
-40.3862 25.5224 78.7820 -0.603 -0.311 -0.735 50 63 71
-40.2368 25.5002 78.7874 -0.598 -0.405 -0.692 49 62 70
-39.0511 25.0611 78.0820 -0.736 -0.213 -0.642 28 51 67
-38.8708 24.9734 77.9151 -0.738 -0.214 -0.641 157 194 212
-38.6888 24.8812 77.7364 -0.738 -0.214 -0.641 179 218 242
-38.5099 24.7943 77.5713 -0.734 -0.212 -0.645 154 188 216
-34.6924 23.9924 77.0381 -0.466 -0.338 -0.818 166 202 224
-33.0902 22.9866 74.9134 -0.420 -0.375 -0.826 180 209 223
-25.0643 21.2788 73.7300 0.435 -0.272 -0.859 167 206 209
-24.8599 20.1757 70.6903 0.310 -0.552 -0.774 158 195 195
-24.6143 21.0534 73.2955 -0.790 -0.104 -0.604 119 141 148
-24.4632 20.9251 73.0003 0.457 -0.099 -0.884 84 100 108
-24.3121 20.7617 72.6051 -0.836 -0.062 -0.545 81 91 102
-24.1656 20.7220 72.5593 -0.897 -0.161 -0.411 77 84 94
-22.5687 20.0548 71.3940 -0.544 -0.828 -0.135 85 89 90
-22.4255 19.9947 71.2887 -0.441 -0.889 -0.120 82 86 87
-21.7123 19.7274 70.8553 0.345 -0.774 -0.531 79 83 84
-16.8412 18.1216 68.5202 -0.343 -0.507 -0.791 102 102 110
-13.0114 17.0963 67.3579 -0.252 -0.187 -0.950 102 105 110
-11.7501 16.8644 67.2756 -0.304 -0.549 -0.779 74 78 81
-9.9352 16.5092 67.0961 -0.156 -0.489 -0.858 59 59 59
-5.3224 15.6035 66.6315 -0.247 -0.275 -0.929 107 108 106
-1.6990 14.8701 66.2041 -0.284 -0.492 -0.823 66 67 59
-1.5689 14.8324 66.1566 -0.212 -0.202 -0.956 82 83 75
2.9480 14.1183 66.1922 0.070 -0.489 -0.870 43 48 44
3.0892 14.0906 66.1780 -0.105 -0.445 -0.889 35 40 36
3.2340 14.0657 66.1734 0.116 -0.557 -0.823 35 40 36
5.3521 13.7788 66.3266 -0.130 -0.459 -0.879 65 72 65
12.7464 13.0769 67.7118 0.038 -0.125 -0.991 56 59 51
12.7324 12.9586 67.3694 -0.160 -0.376 -0.913 53 55 51
22.7822 12.2255 69.8793 0.073 -0.375 -0.924 73 86 79
22.9839 12.2157 69.9437 -0.546 -0.379 -0.747 73 86 79
23.2989 12.1590 69.9267 -0.523 -0.456 -0.720 64 75 69
24.9676 12.2798 71.0323 0.428 -0.411 -0.805 76 81 77
25.0133 12.2050 70.8409 -0.226 -0.164 -0.960 69 74 70
25.1889 12.1826 70.8573 -0.746 -0.143 -0.651 70 72 69
25.2438 12.1121 70.6821 -0.126 -0.295 -0.947 71 73 70
-47.4085 30.6375 89.5627 -0.826 0.171 -0.537 42 55 63
-46.8072 30.1585 88.4826 -0.833 0.189 -0.520 51 66 73
-44.6527 27.3789 81.6105 -0.156 -0.833 -0.530 49 64 71
-44.4954 27.3489 81.5969 -0.544 -0.635 -0.548 49 63 72
-44.2540 27.1797 81.2289 -0.446 -0.084 -0.891 55 68 77
-41.7407 26.1795 79.5442 -0.671 -0.126 -0.731 136 152 140
-41.3885 26.0395 79.3087 -0.059 -0.176 -0.983 35 47 36
-41.2391 26.0185 79.3173 -0.071 -0.154 -0.985 63 76 68
-39.0266 25.1998 78.0089 -0.787 -0.245 -0.566 29 53 69
-38.8372 25.0927 77.7922 -0.787 -0.245 -0.566 149 185 204
-38.4719 24.9030 77.4223 -0.778 -0.270 -0.567 152 186 212
-33.5540 23.3358 75.2275 -0.562 -0.645 -0.518 165 196 213
-33.3914 23.2644 75.0996 -0.429 -0.690 -0.582 169 198 212
-25.0371 21.3135 73.3801 0.268 -0.922 -0.278 169 206 209
-24.4442 21.1215 73.1070 -0.867 -0.234 -0.440 84 100 108
-24.2940 20.9938 72.8145 -0.873 -0.227 -0.433 81 91 102
-23.9953 20.6764 72.0536 -0.945 -0.129 -0.299 83 86 92
-23.8483 20.5413 71.7388 -0.528 0.370 -0.764 86 87 90
-22.6931 20.1876 71.2638 -0.707 -0.097 -0.700 88 92 93
-19.4640 18.9414 69.2094 -0.069 -0.773 -0.630 57 59 56
-17.6690 18.3959 68.4834 -0.186 -0.228 -0.956 61 62 63
-17.5286 18.3687 68.4701 -0.178 -0.226 -0.958 81 82 87
-16.8261 18.2337 68.4075 -0.372 -0.366 -0.853 103 103 111
-10.5753 16.8479 67.3297 -0.369 -0.123 -0.921 60 60 60
-9.8938 16.6777 67.1582 -0.125 -0.064 -0.990 59 59 59
-5.2941 15.7448 66.6104 -0.185 -0.239 -0.953 98 100 95
-4.2220 15.4680 66.3149 -0.388 -0.247 -0.888 92 97 90
-1.8246 15.0226 66.1447 -0.252 -0.486 -0.837 68 69 61
4.2345 14.1334 66.3822 -0.169 -0.427 -0.888 34 38 37
5.0550 13.9424 66.2153 -0.253 -0.409 -0.877 64 71 64
5.3496 13.8947 66.2140 -0.078 -0.378 -0.922 59 66 59
12.7867 13.2243 67.6947 0.038 -0.125 -0.991 84 87 79
12.8681 13.1589 67.5470 -0.081 -0.297 -0.951 73 75 71
24.8080 12.4446 70.9462 0.359 -0.484 -0.798 78 83 77
25.4235 12.2268 70.6103 -0.293 -0.053 -0.955 71 73 70
-44.4387 27.4418 81.3934 -0.489 -0.629 -0.605 51 65 74
-44.2453 27.3514 81.2266 -0.557 -0.410 -0.722 54 67 76
-45.7488 30.0957 88.2549 0.278 0.440 -0.854 55 68 77
-45.3947 30.0049 88.1595 0.238 0.458 -0.857 59 72 80
-41.7220 26.3320 79.5007 -0.671 -0.126 -0.731 148 161 150
-41.3748 26.2011 79.2893 -0.071 -0.208 -0.975 52 64 51
-38.8064 25.2175 77.6845 -0.807 -0.258 -0.531 131 168 188
-38.6221 25.1192 77.4913 -0.803 -0.265 -0.533 165 203 226
-33.3596 23.3724 74.9566 -0.440 -0.686 -0.579 165 194 208
-24.4226 21.2500 73.0222 -0.870 -0.229 -0.437 82 99 107
-22.8150 20.4204 71.4168 -0.531 0.010 -0.847 74 78 79
-22.5291 20.2644 71.1076 -0.711 0.081 -0.698 73 77 77
-22.2437 20.1446 70.8997 -0.744 0.061 -0.665 66 70 71
-17.5081 18.5017 68.4195 -0.164 -0.219 -0.962 83 84 89
-16.6673 18.3310 68.3189 -0.326 -0.341 -0.882 85 86 93
-16.4414 18.6198 69.2314 0.034 -0.528 -0.849 98 98 105
-10.4397 16.9059 67.1222 -0.468 -0.202 -0.860 68 68 68
-9.8928 16.7748 67.0004 -0.139 -0.033 -0.990 35 35 35
-8.1566 16.2951 66.4353 -0.155 -0.545 -0.824 55 55 54
-8.0165 16.2694 66.4261 -0.155 -0.545 -0.824 55 55 54
-5.2817 15.8660 66.5253 -0.112 -0.073 -0.991 90 93 85
-4.2000 15.6010 66.2682 -0.388 -0.247 -0.888 98 104 94
-2.0617 15.5865 67.1907 -0.485 -0.050 -0.873 102 104 92
-1.8245 15.1329 66.0237 -0.223 -0.468 -0.855 77 78 70
1.2966 14.5645 65.8334 0.142 -0.319 -0.937 47 49 47
4.2352 14.2506 66.2756 -0.203 -0.385 -0.900 49 54 51
8.0697 13.8666 66.9243 -0.139 -0.492 -0.859 51 60 48
8.2347 13.8523 66.9583 -0.295 -0.531 -0.794 52 61 49
11.7475 13.5422 67.6696 -0.169 -0.004 -0.986 60 64 55
12.8300 13.3736 67.6838 0.069 -0.104 -0.992 84 87 79
13.2242 13.2615 67.5465 0.153 -0.434 -0.888 59 57 58
15.1622 13.3318 68.6168 -0.007 0.486 -0.874 68 70 65
16.3830 12.9027 67.9618 0.125 0.065 -0.990 45 46 39
18.9104 13.2170 69.9823 0.671 -0.492 -0.555 54 61 54
25.0426 12.4879 70.6969 -0.221 -0.221 -0.950 71 79 74
25.2504 12.3854 70.5028 0.188 -0.057 -0.980 70 75 71
34.3649 11.7085 72.7070 -0.042 -0.937 -0.346 32 50 42
-44.3684 27.5117 81.1330 -0.629 -0.078 -0.773 51 64 72
-41.3459 26.3344 79.1976 0.028 -0.506 -0.862 51 64 52
-32.2350 23.0885 74.2092 -0.358 -0.415 -0.836 160 197 216
-24.4006 21.3624 72.8932 -0.867 -0.234 -0.440 74 95 102
-22.3690 20.2491 70.6932 -0.489 -0.155 -0.859 63 65 62
-21.9385 20.1689 70.6619 0.420 -0.219 -0.881 63 65 64
-20.6600 19.7866 70.1663 -0.274 -0.681 -0.679 75 76 74
-20.5224 19.7101 70.0141 -0.250 -0.649 -0.718 71 73 70
-20.3712 19.7576 70.2145 -0.294 -0.636 -0.714 67 69 66
-20.2336 19.6836 70.0693 -0.129 -0.636 -0.760 64 66 63
-19.4208 19.2234 69.1480 -0.505 -0.345 -0.791 59 62 56
-16.7825 18.5096 68.3348 -0.329 -0.304 -0.894 81 85 92
-15.0989 18.1705 68.1408 -0.442 -0.603 -0.664 57 61 65
-13.3296 17.6675 67.5275 -0.215 -0.095 -0.972 75 80 83
-10.6775 17.1328 67.2207 -0.085 0.007 -0.996 61 63 60
-9.8691 16.9120 66.9657 -0.055 -0.291 -0.955 42 44 41
-9.6370 16.7750 66.6868 0.043 -0.400 -0.915 71 70 67
-5.2516 16.0097 66.5113 -0.112 -0.073 -0.991 71 80 60
-4.8388 16.1214 67.0076 -0.277 0.134 -0.951 45 54 33
-4.3611 15.7093 66.0706 -0.070 -0.535 -0.842 109 118 96
-3.7893 15.6160 66.0658 -0.177 -0.542 -0.822 86 99 75
1.3986 14.7680 66.0180 -0.038 -0.233 -0.972 45 50 42
1.9956 14.6865 66.0574 -0.067 -0.548 -0.834 72 75 68
2.1347 14.6572 66.0377 -0.079 -0.559 -0.825 72 75 68
8.7882 13.8447 66.7443 -0.582 -0.374 -0.722 58 74 52
9.2524 13.9020 67.1116 -0.291 0.110 -0.951 59 78 55
9.4053 13.8787 67.1152 -0.236 0.012 -0.972 61 78 57
9.2575 13.6634 66.4478 -0.388 -0.111 -0.915 62 74 55
9.4838 13.6877 66.6168 -0.384 -0.177 -0.906 67 72 56
9.8021 13.6502 66.6546 0.128 -0.810 -0.573 66 70 56
12.8516 13.5106 67.6283 0.173 -0.374 -0.911 65 67 59
13.2421 13.3963 67.4837 0.153 -0.434 -0.888 58 58 60
14.9081 13.2151 67.7229 0.239 -0.236 -0.942 61 63 58
15.5911 13.1481 67.8412 -0.295 -0.192 -0.936 63 65 60
16.4185 13.0479 67.9313 0.294 -0.190 -0.937 35 38 30
23.6934 12.4416 69.4914 -0.192 -0.248 -0.949 65 71 67
27.0420 12.5845 71.3875 0.585 -0.228 -0.779 84 88 72
-41.6871 26.6421 79.4258 -0.762 -0.205 -0.614 149 163 152
-41.3124 26.4589 79.0836 0.028 -0.595 -0.803 51 64 54
-39.6647 25.6626 77.6043 -0.173 -0.728 -0.663 55 68 77
-39.4252 25.7357 77.9135 -0.359 -0.774 -0.521 61 74 83
-23.7875 21.0880 71.9535 -0.104 -0.100 -0.990 93 101 103
-23.6434 21.2428 72.4472 -0.162 0.366 -0.916 93 102 101
-23.3509 21.0297 71.9853 0.052 -0.038 -0.998 95 104 103
-20.5039 19.8247 69.9040 -0.250 -0.649 -0.718 79 81 76
-18.9322 19.5369 69.8029 0.075 0.276 -0.958 84 87 78
-18.7909 19.5002 69.7639 0.028 0.217 -0.976 96 99 90
-17.9363 19.3236 69.6529 0.403 -0.540 -0.739 104 106 103
-15.2093 18.3607 68.1903 -0.243 -0.325 -0.914 66 69 74
-15.0786 18.3023 68.0863 -0.261 -0.354 -0.898 60 63 68
-13.3090 17.7999 67.4772 -0.006 -0.284 -0.959 69 74 78
-12.4919 17.5848 67.2428 -0.207 -0.507 -0.836 55 60 63
-11.7135 17.2958 66.7859 -0.202 -0.232 -0.951 97 98 100
-10.3839 16.9107 66.3072 -0.300 -0.555 -0.776 32 34 31
-10.2390 16.8954 66.3292 -0.285 -0.541 -0.791 37 39 36
-9.8424 17.0547 66.9473 -0.053 -0.351 -0.935 48 50 47
-4.8352 16.0284 66.3211 -0.305 -0.599 -0.741 65 75 51
-4.6962 16.0000 66.3039 -0.163 -0.348 -0.923 79 89 65
-4.4910 15.8542 65.9902 -0.063 -0.546 -0.835 80 90 66
-4.3539 15.8241 65.9677 -0.032 -0.555 -0.831 102 112 87
-3.7596 15.7578 66.0474 -0.187 -0.529 -0.828 85 100 71
-1.4986 15.3455 65.9064 -0.237 -0.401 -0.885 75 77 66
1.5745 14.8851 65.9926 0.047 -0.380 -0.924 51 57 45
1.7095 14.8522 65.9611 0.069 -0.382 -0.921 51 57 45
1.8511 14.8252 65.9492 -0.164 -0.530 -0.832 52 58 46
3.2619 14.9846 67.0177 -0.353 -0.300 -0.886 73 81 66
3.3954 14.9485 66.9768 -0.353 -0.300 -0.886 72 80 66
3.4868 14.7332 66.4199 -0.490 -0.356 -0.796 72 79 64
4.8991 14.4465 66.2509 -0.029 -0.151 -0.988 76 100 80
14.2403 13.5235 67.8352 -0.128 -0.363 -0.923 48 51 48
14.7732 13.3767 67.6643 0.133 -0.148 -0.980 47 54 44
16.8514 13.1861 68.0575 0.120 -0.330 -0.936 63 69 59
17.0103 13.1620 68.0614 0.121 -0.340 -0.933 68 73 63
19.8557 13.0111 68.9054 0.013 -0.089 -0.996 68 83 73
26.8211 12.7274 71.2097 0.575 -0.020 -0.818 85 89 75
-46.9314 28.6547 82.1964 -0.743 -0.258 -0.617 35 49 52
-47.1047 31.1997 89.1448 -0.349 -0.609 -0.713 42 55 61
-46.9106 31.1293 89.0361 -0.235 -0.751 -0.617 49 64 69
-46.7345 31.0881 88.9998 -0.135 -0.713 -0.689 53 68 73
-41.8546 26.8834 79.5444 -0.804 -0.224 -0.551 151 167 157
-34.2339 24.1057 75.2358 -0.302 -0.204 -0.931 164 200 222
-32.4938 23.4458 74.1813 -0.383 -0.372 -0.846 104 128 146
-32.1911 23.3613 74.0815 -0.383 -0.372 -0.846 160 190 211
-32.2963 24.2274 76.4256 0.242 -0.934 -0.263 163 194 214
-26.5036 21.5267 71.5241 -0.006 -0.349 -0.937 170 201 221
-25.9071 21.1855 70.8450 -0.258 -0.496 -0.829 168 200 223
-25.6224 21.1469 70.8640 -0.206 -0.555 -0.806 168 200 224
-24.2101 21.5672 72.6467 -0.803 -0.179 -0.568 75 98 103
-24.0618 21.4703 72.4446 -0.758 0.033 -0.651 82 101 103
-23.9150 21.4240 72.3814 -0.760 -0.019 -0.649 91 104 106
-23.7674 21.2894 72.0749 -0.147 -0.592 -0.792 92 101 103
-23.6231 21.4802 72.6651 -0.069 0.291 -0.954 93 102 101
-23.1889 20.5924 70.4061 0.138 -0.249 -0.959 88 97 96
-23.0480 20.4136 69.9744 -0.061 -0.426 -0.902 82 91 90
-21.0542 20.0616 69.8816 0.004 -0.276 -0.961 80 81 76
-20.9117 20.0344 69.8693 0.030 -0.265 -0.964 80 81 76
-20.1974 19.9103 69.8415 -0.131 -0.647 -0.751 67 69 64
-20.0609 19.8337 69.6902 -0.325 -0.570 -0.755 68 70 65
-18.9059 19.7052 69.8447 -0.172 -0.147 -0.974 90 93 84
-18.7660 19.6594 69.7799 -0.197 -0.091 -0.976 102 105 96
-18.6272 19.6085 69.7006 -0.185 -0.072 -0.980 94 97 89
-18.0542 19.5066 69.6717 -0.140 -0.190 -0.972 107 109 106
-17.9172 19.4506 69.5777 0.391 -0.551 -0.737 108 110 107
-17.7814 19.3899 69.4698 -0.630 -0.179 -0.755 100 102 99
-15.6293 18.5153 68.0043 -0.161 -0.448 -0.879 96 101 104
-13.4217 17.9763 67.4893 -0.201 -0.261 -0.944 77 82 86
-13.0217 17.8460 67.3060 -0.479 -0.211 -0.852 70 75 78
-8.6578 17.3024 67.7287 -0.635 -0.138 -0.760 60 59 55
-4.6930 16.1098 66.1842 -0.251 -0.509 -0.823 74 84 60
-4.4059 16.0641 66.1848 -0.336 -0.491 -0.804 95 105 80
-4.2823 16.0171 66.1094 -0.320 -0.476 -0.819 85 96 70
-1.8685 15.9462 66.9775 -0.189 -0.595 -0.781 93 98 75
1.0499 15.1443 66.0502 -0.121 -0.011 -0.993 50 62 43
3.4924 14.8538 66.3249 -0.502 -0.359 -0.787 71 80 62
9.7987 13.6532 65.7901 0.435 -0.294 -0.851 60 75 36
12.6761 13.6582 67.0720 -0.221 -0.402 -0.888 58 66 47
12.8220 13.6296 67.0573 -0.234 -0.413 -0.880 56 62 51
15.2453 13.4319 67.5797 -0.110 -0.690 -0.715 55 63 48
15.4340 13.4249 67.6434 -0.126 -0.673 -0.728 49 56 43
16.6579 13.3197 67.8925 0.328 -0.529 -0.783 71 76 69
16.8352 13.3053 67.9309 -0.212 -0.634 -0.744 70 76 69
17.0022 13.2855 67.9499 -0.197 -0.646 -0.737 67 74 66
17.9155 13.4315 68.7555 -0.038 -0.319 -0.947 64 71 63
17.9986 13.3686 68.6185 -0.038 -0.206 -0.978 63 75 63
18.1612 13.3454 68.6260 -0.077 -0.241 -0.967 56 69 56
18.3368 13.3285 68.6567 -0.079 -0.216 -0.973 47 60 48
23.4637 12.7998 69.4567 -0.142 -0.217 -0.966 52 70 56
23.5967 12.7612 69.4091 -0.156 -0.210 -0.965 61 75 63
23.7781 12.7432 69.4393 -0.179 -0.175 -0.968 63 74 63
38.2922 12.8214 76.0517 0.399 -0.529 -0.749 111 130 125
-46.9277 28.8341 82.2068 -0.696 -0.148 -0.703 31 45 48
-47.3445 31.5461 89.4679 -0.418 -0.552 -0.721 43 57 60
-47.0278 31.2767 88.8672 0.383 0.102 -0.918 36 50 53
-46.8737 31.2713 88.9198 0.345 0.095 -0.934 45 59 62
-46.3115 30.8392 87.9797 -0.759 0.092 -0.644 52 67 70
-43.2706 29.1577 84.6952 -0.402 0.269 -0.875 154 173 168
-39.7129 26.1377 77.9628 -0.537 0.238 -0.809 53 67 76
-39.5391 26.0644 77.8376 -0.528 0.238 -0.815 53 67 76
-34.3588 24.2678 75.1733 -0.103 -0.154 -0.983 165 201 223
-34.2150 24.2536 75.1973 -0.302 -0.204 -0.931 165 201 223
-32.4681 23.5695 74.0839 -0.345 -0.208 -0.915 107 130 147
-32.3170 23.5281 74.0363 -0.345 -0.208 -0.915 169 196 214
-32.1645 23.4812 73.9745 -0.352 -0.216 -0.911 163 191 212
-32.2681 24.3477 76.3074 0.302 -0.904 -0.304 162 193 213
-28.4319 22.4830 72.8678 0.102 -0.225 -0.969 166 201 220
-28.0148 22.5367 73.1979 0.364 0.065 -0.929 169 200 218
-27.8674 22.5051 73.1756 0.365 -0.014 -0.931 169 200 218
-27.7265 22.5179 73.2724 -0.131 -0.134 -0.982 169 200 218
-26.3343 21.5908 71.3369 0.001 -0.378 -0.926 170 201 221
-24.0409 21.6210 72.4233 -0.757 0.023 -0.653 81 100 103
-23.7460 21.3986 71.9420 -0.135 -0.591 -0.795 93 103 104
-23.4548 21.5107 72.3770 -0.482 0.096 -0.871 93 102 101
-23.1683 20.7275 70.3528 0.327 -0.068 -0.943 91 97 97
-23.0260 20.6551 70.2164 0.120 -0.077 -0.990 82 91 90
-22.8733 21.1476 71.6350 -0.122 -0.482 -0.867 80 84 83
-22.7350 20.8319 70.8290 -0.192 -0.482 -0.855 73 75 72
-22.0187 20.6266 70.5788 -0.092 -0.138 -0.986 84 84 82
-20.6065 20.1101 69.7792 -0.226 -0.642 -0.733 85 86 81
-20.0422 19.9522 69.5926 -0.325 -0.570 -0.755 68 70 65
-18.8846 19.8432 69.7998 -0.162 -0.141 -0.977 96 99 90
-18.7434 19.8054 69.7580 -0.191 -0.100 -0.976 107 110 101
-18.6042 19.7565 69.6847 -0.163 -0.116 -0.980 100 103 94
-18.4688 19.6881 69.5561 -0.635 -0.323 -0.702 99 101 96
-18.0341 19.6385 69.6103 -0.121 -0.184 -0.976 112 114 111
-17.9080 19.5294 69.3660 0.326 -0.681 -0.656 110 112 109
-17.6225 19.4766 69.3460 -0.627 -0.150 -0.764 81 83 80
-17.4883 19.4117 69.2267 -0.661 -0.154 -0.734 62 64 62
-7.9114 16.8291 66.3285 -0.175 -0.147 -0.973 65 65 57
-5.6290 16.6767 66.9090 0.087 -0.433 -0.897 69 78 49
-4.6703 16.2437 66.1400 -0.413 -0.535 -0.737 71 81 56
-3.9742 16.1031 66.0588 0.026 -0.581 -0.813 63 78 47
-1.4672 15.9479 66.7298 0.077 -0.924 -0.374 96 99 88
12.5505 13.8223 67.0291 -0.221 -0.402 -0.888 64 75 51
12.6929 13.7917 67.0074 -0.221 -0.402 -0.888 56 68 45
15.5725 13.5173 67.5143 -0.432 -0.063 -0.900 90 97 82
16.2265 13.5412 67.8659 0.361 -0.063 -0.931 72 78 64
16.4084 13.5295 67.9136 0.206 -0.245 -0.947 60 66 54
16.6319 13.5393 68.0382 -0.418 -0.482 -0.770 82 88 78
16.7640 13.5015 67.9923 -0.263 -0.525 -0.810 93 100 93
17.9238 13.5648 68.6735 0.073 -0.043 -0.996 63 72 63
18.4267 13.5021 68.7215 -0.081 -0.120 -0.989 59 73 58
27.4108 13.0495 71.4103 0.420 -0.127 -0.899 66 67 51
-50.2578 32.9714 91.5704 -0.454 -0.615 -0.645 65 84 90
-46.8050 28.8305 81.7684 -0.791 0.179 -0.585 33 44 48
-47.1565 31.4429 88.7460 0.245 0.067 -0.967 38 52 53
-46.0312 30.8214 87.5386 -0.851 0.066 -0.521 53 68 73
-45.0908 30.2329 86.3410 -0.233 0.405 -0.884 58 75 82
-42.7251 27.8332 80.8192 0.162 -0.411 -0.897 150 171 167
-43.2947 29.4010 84.8507 -0.305 -0.235 -0.923 149 168 165
-39.8799 26.3858 78.1048 -0.445 0.152 -0.883 52 66 75
-38.6272 25.7838 77.0061 -0.513 -0.595 -0.619 84 111 134
-38.4638 25.7279 76.9244 -0.513 -0.595 -0.619 199 231 241
-38.3026 25.6765 76.8542 -0.511 -0.598 -0.618 159 190 211
-38.1398 25.6210 76.7733 -0.511 -0.598 -0.618 167 195 217
-33.9390 24.4672 75.4493 -0.508 -0.143 -0.849 166 202 224
-32.4448 23.7014 74.0083 -0.342 -0.184 -0.922 109 133 150
-23.4335 20.9527 70.4211 0.176 -0.340 -0.924 96 105 104
-23.2902 20.9653 70.5178 0.365 -0.659 -0.658 96 105 104
-22.8525 21.2779 71.5613 -0.046 -0.709 -0.704 82 86 85
-22.7077 21.2293 71.4914 -0.184 -0.651 -0.736 73 75 72
-22.4271 20.8922 70.6932 0.002 -0.238 -0.971 70 71 66
-22.2766 21.0293 71.1327 -0.805 0.016 -0.594 79 81 78
-19.0051 20.0169 69.7910 -0.543 -0.118 -0.831 65 68 59
-18.8629 19.9846 69.7645 -0.232 -0.111 -0.966 90 93 84
-18.7220 19.9441 69.7151 -0.262 -0.130 -0.956 95 98 89
-18.5815 19.9023 69.6622 -0.181 -0.190 -0.965 91 94 85
-18.3855 19.3730 68.3027 -0.240 -0.340 -0.909 110 112 107
-18.2420 19.3613 68.3332 -0.268 -0.253 -0.929 116 118 115
-18.0053 19.8138 69.6711 -0.227 -0.377 -0.898 123 125 122
-17.8719 19.7387 69.5239 0.323 -0.185 -0.928 115 117 114
-17.8170 19.2953 68.3376 0.008 -0.337 -0.942 100 102 99
-17.6747 19.2757 68.3458 0.008 -0.337 -0.942 83 85 82
-16.2771 18.9651 68.1055 -0.614 -0.071 -0.786 78 83 87
-14.6098 18.5755 67.7663 -0.134 -0.451 -0.882 71 74 79
-8.9929 17.1991 66.4500 -0.247 -0.527 -0.813 87 86 82
-4.2592 16.2575 65.9367 0.017 -0.558 -0.830 67 79 51
2.8235 15.1104 65.8829 -0.107 -0.647 -0.755 80 89 72
2.9698 15.0869 65.8823 -0.107 -0.647 -0.755 80 89 72
3.1304 15.0754 65.9206 -0.124 -0.274 -0.954 77 86 69
3.3185 15.0865 66.0325 -0.087 -0.190 -0.978 75 84 67
5.2111 15.1799 67.1099 0.066 0.413 -0.909 81 91 71
6.3832 15.1035 67.4105 -0.453 -0.097 -0.886 73 85 67
9.6616 14.0443 65.9438 0.493 -0.605 -0.625 74 84 56
10.4088 14.1607 66.5860 -0.014 -0.401 -0.916 73 81 56
10.5593 14.1360 66.5842 -0.389 -0.332 -0.859 73 83 62
16.7783 13.6363 67.9221 -0.472 -0.473 -0.744 73 80 73
16.8781 13.5819 67.8170 -0.426 -0.498 -0.756 73 79 75
17.0308 13.5550 67.8098 -0.382 -0.581 -0.719 71 78 71
17.9330 13.6984 68.5932 -0.030 0.053 -0.998 63 72 63
23.7123 13.0766 69.4067 0.168 0.098 -0.981 58 77 58
34.4910 12.3753 72.1754 0.263 -0.486 -0.833 32 49 39
-50.1939 33.0792 91.3607 -0.462 -0.773 -0.435 66 85 91
-46.7831 28.9813 81.7102 -0.802 0.167 -0.573 32 43 47
-47.1285 31.5991 88.6660 0.280 0.062 -0.958 34 48 49
-46.9758 31.5958 88.7230 -0.436 -0.570 -0.697 36 50 53
-45.7517 30.8017 87.0957 -0.861 -0.102 -0.499 55 70 73
-45.4194 30.4879 86.3872 -0.794 0.048 -0.606 54 72 74
-43.2745 29.5632 84.8028 -0.305 -0.235 -0.923 146 165 159
-43.1049 29.5222 84.7646 -0.283 0.355 -0.891 149 166 159
-41.6906 27.1403 78.9101 -0.694 -0.486 -0.531 149 166 159
-42.3419 29.1934 84.2016 -0.018 -0.978 -0.206 88 103 99
-38.4377 25.8612 76.8416 -0.419 -0.560 -0.715 200 231 243
-38.2816 25.8208 76.7995 -0.418 -0.569 -0.708 161 192 212
-38.1242 25.7773 76.7493 -0.425 -0.567 -0.706 167 195 217
-32.4289 23.8588 73.9990 -0.332 -0.174 -0.927 115 140 157
-32.2779 23.8177 73.9526 -0.332 -0.174 -0.927 182 211 229
-31.5577 23.7383 74.0478 -0.106 -0.144 -0.984 165 197 218
-28.8815 23.1394 73.5767 -0.623 -0.132 -0.771 167 203 219
-28.7311 23.0946 73.5200 -0.418 -0.270 -0.867 176 211 230
-26.3027 21.9615 71.4920 0.034 -0.160 -0.987 181 213 228
-24.8684 21.8821 71.8952 0.263 -0.720 -0.643 182 207 212
-23.6999 21.2393 70.6547 -0.309 0.134 -0.942 99 109 110
-23.4129 21.0818 70.3512 0.175 -0.348 -0.921 99 108 107
-23.2697 21.0808 70.4101 -0.014 -0.719 -0.695 101 110 109
-22.8320 21.3924 71.4446 -0.046 -0.709 -0.704 82 86 85
-22.6870 21.3548 71.4052 -0.155 -0.667 -0.729 65 67 64
-22.5501 21.0602 70.6646 -0.069 -0.273 -0.960 68 68 66
-22.4062 21.0326 70.6518 -0.144 -0.055 -0.988 67 67 65
-20.7236 20.2463 69.2436 -0.796 -0.216 -0.566 74 75 70
-19.2082 19.6652 68.3200 -0.301 -0.670 -0.678 64 67 58
-18.2210 19.4973 68.2901 -0.268 -0.253 -0.929 117 119 116
-18.0748 19.4981 68.3553 -0.330 -0.444 -0.833 122 124 121
-17.6516 19.4209 68.3284 0.020 -0.322 -0.947 85 87 84
-13.8057 18.3865 67.1800 -0.206 -0.235 -0.950 94 99 103
-13.6637 18.3656 67.1845 -0.095 -0.127 -0.987 80 85 89
-13.3841 18.3117 67.1589 -0.080 -0.551 -0.831 87 92 96
-13.2774 18.2018 66.9066 -0.243 -0.237 -0.941 74 79 83
-12.8304 18.1905 67.0686 -0.134 -0.316 -0.939 70 75 78
-12.6978 18.1465 67.0065 -0.040 -0.326 -0.945 76 81 84
-9.1438 17.3027 66.2494 -0.467 -0.550 -0.693 74 73 69
-4.0856 16.3777 65.9206 -0.188 -0.628 -0.755 60 74 43
-0.3968 15.5517 65.2699 0.021 -0.712 -0.701 80 91 75
3.0513 15.5702 66.8077 -0.868 -0.117 -0.483 83 91 76
3.1728 15.2261 65.9260 0.263 -0.688 -0.676 81 87 73
5.9113 15.2801 67.2538 -0.196 0.480 -0.855 82 88 72
6.0721 15.2639 67.2792 -0.204 0.496 -0.844 83 89 73
6.2724 15.2775 67.4026 -0.408 0.429 -0.806 82 89 73
6.3555 15.2024 67.2345 -0.500 -0.271 -0.822 82 90 74
6.5069 15.1789 67.2361 -0.416 -0.052 -0.908 79 87 71
12.0525 14.1182 66.7495 -0.362 -0.341 -0.868 89 98 79
16.1992 14.1064 68.5059 0.528 0.245 -0.813 88 95 79
17.0372 13.6855 67.7252 -0.251 -0.531 -0.809 75 81 77
19.9581 13.6829 68.9780 -0.364 0.189 -0.912 55 76 61
27.0566 13.2756 70.9345 0.006 -0.702 -0.713 67 68 54
-50.1522 33.2201 91.2325 -0.181 -0.574 -0.799 60 79 85
-49.6948 32.9876 90.8009 0.285 -0.956 -0.065 59 76 82
-47.1288 31.8018 88.6995 0.421 -0.156 -0.894 33 47 48
-46.9188 31.7041 88.5257 -0.426 -0.553 -0.716 34 48 51
-46.6796 31.5568 88.2307 -0.630 -0.281 -0.724 39 53 56
-46.4850 31.4830 88.1149 -0.863 -0.032 -0.504 50 64 67
-46.2136 31.2789 87.6801 -0.860 -0.010 -0.510 57 71 74
-45.7244 30.9556 87.0173 -0.861 -0.102 -0.499 47 62 65
-45.4141 30.6783 86.4016 -0.794 0.028 -0.607 47 65 67
-44.5460 30.4591 86.1817 -0.437 0.202 -0.876 71 89 90
-44.3613 30.3948 86.0873 -0.522 0.199 -0.830 150 171 165
-44.1658 30.3108 85.9443 -0.522 0.199 -0.830 142 163 157
-43.4351 29.7873 84.8444 -0.312 -0.230 -0.922 141 162 155
-43.2635 29.7427 84.7975 -0.312 -0.230 -0.922 138 157 152
-41.6426 27.2372 78.7294 -0.671 -0.510 -0.538 138 153 147
-42.2666 29.2483 83.8901 -0.005 -0.978 -0.210 90 105 100
-39.5515 26.6611 78.0702 -0.622 0.326 -0.712 45 62 70
-38.0863 25.8835 76.5991 -0.618 -0.394 -0.681 166 194 216
-31.5351 23.8726 73.9776 -0.115 -0.124 -0.986 170 202 222
-30.4391 24.0269 74.8633 -0.464 -0.775 -0.429 177 212 232
-29.1801 23.4678 73.8936 -0.701 -0.060 -0.711 178 214 230
-29.0225 23.3877 73.7449 -0.701 -0.060 -0.711 179 215 231
-28.8657 23.3090 73.5996 -0.610 -0.146 -0.779 179 214 233
-28.7094 23.2310 73.4562 -0.446 -0.041 -0.894 187 222 241
-28.5608 23.1961 73.4254 -0.474 -0.235 -0.849 187 222 241
-28.4088 23.1401 73.3396 -0.443 -0.259 -0.859 188 223 242
-28.2630 23.1210 73.3503 -0.361 -0.631 -0.687 189 222 241
-27.3529 22.7560 72.7551 -0.297 0.117 -0.948 182 214 229
-26.9061 22.6095 72.5510 -0.426 0.225 -0.877 205 237 250
-26.7567 22.5536 72.4641 -0.426 0.225 -0.877 206 238 249
-26.6095 22.5154 72.4241 -0.270 0.189 -0.944 199 231 244
-24.2740 22.2084 72.5958 -0.620 -0.354 -0.700 71 96 100
-23.9785 22.0791 72.3732 -0.616 -0.367 -0.697 88 107 110
-23.3923 21.2306 70.3343 0.188 -0.337 -0.922 99 108 107
-22.8116 21.5059 71.3261 -0.064 -0.695 -0.716 86 90 89
-22.5255 21.3174 70.9398 -0.569 -0.709 -0.417 67 67 65
-20.1262 20.3549 69.3698 0.102 -0.826 -0.554 65 67 62
-19.9885 20.2916 69.2577 -0.277 -0.733 -0.621 55 57 52
-17.4903 19.5267 68.2633 0.003 -0.311 -0.950 81 83 81
-16.3132 19.4969 68.6871 -0.427 -0.366 -0.827 77 82 88
-13.6417 18.5015 67.1447 -0.076 -0.108 -0.991 87 92 96
-13.3668 18.4355 67.0842 -0.139 -0.299 -0.944 93 98 102
-13.2615 18.3221 66.8233 -0.203 -0.249 -0.947 81 86 90
-12.8093 18.3237 67.0212 -0.223 -0.294 -0.929 76 81 84
14.2104 14.2464 67.5889 -0.212 -0.156 -0.965 100 105 84
14.3558 14.2162 67.5697 -0.235 -0.287 -0.928 97 105 85
16.4370 14.2523 68.5586 -0.074 -0.184 -0.980 96 102 89
16.7467 14.1987 68.5463 -0.211 -0.160 -0.964 85 91 77
28.8539 13.0094 70.5218 -0.086 -0.451 -0.888 88 93 72
-47.0432 31.8627 88.3880 -0.110 -0.728 -0.677 34 48 51
-46.7771 31.6707 87.9857 -0.628 -0.444 -0.639 32 46 49
-46.1321 31.3422 87.3783 -0.812 -0.428 -0.397 48 59 65
-45.8885 31.1818 87.0515 -0.832 -0.356 -0.426 39 52 58
-45.6556 31.0382 86.7652 -0.745 -0.417 -0.521 39 54 57
-45.4369 30.9177 86.5347 -0.739 -0.417 -0.529 43 61 63
-43.4036 29.9286 84.7447 -0.318 -0.146 -0.937 140 160 158
-43.2400 29.8988 84.7343 -0.338 -0.163 -0.927 138 157 154
-36.4399 26.1531 77.5725 -0.672 -0.070 -0.737 163 204 226
-36.1410 26.1134 77.5930 -0.689 -0.201 -0.696 163 204 226
-33.8527 24.8243 75.1062 -0.304 -0.542 -0.784 167 203 225
-33.8003 25.5434 77.0585 -0.683 -0.595 -0.424 165 205 223
-29.3080 23.6414 73.8640 -0.428 -0.613 -0.664 190 225 244
-29.1518 23.5696 73.7377 -0.633 -0.416 -0.653 195 231 247
-28.9972 23.5047 73.6292 -0.633 -0.416 -0.653 194 229 245
-28.8400 23.4234 73.4778 -0.603 -0.331 -0.726 196 230 248
-28.5353 23.3093 73.3012 -0.541 -0.289 -0.790 184 218 236
-28.3890 23.2871 73.3039 -0.455 -0.613 -0.646 184 218 237
-28.2350 23.2172 73.1817 -0.381 -0.590 -0.712 183 216 235
-28.0876 23.1872 73.1640 -0.380 -0.618 -0.688 182 214 233
-27.9393 23.1518 73.1319 -0.397 -0.626 -0.671 183 214 232
-27.7908 23.1139 73.0934 -0.394 -0.623 -0.676 185 214 232
-27.3388 22.9478 72.8396 -0.565 -0.527 -0.634 201 233 246
-27.1898 22.9020 72.7802 -0.585 -0.516 -0.625 196 228 241
-27.0405 22.8526 72.7111 -0.586 -0.501 -0.638 173 205 218
-26.8868 22.7627 72.5352 -0.483 -0.010 -0.876 172 204 217
-26.7376 22.7087 72.4536 -0.483 -0.010 -0.876 171 203 216
-26.5914 22.6809 72.4411 -0.380 -0.458 -0.804 166 198 212
-26.4427 22.6288 72.3647 -0.497 -0.459 -0.736 161 193 209
-26.2939 22.5732 72.2786 -0.520 -0.424 -0.741 160 192 206
-23.9476 21.6791 70.8765 -0.413 -0.697 -0.587 87 105 109
-23.8034 21.6370 70.8249 -0.413 -0.697 -0.587 97 109 112
-23.6591 21.5832 70.7419 -0.154 -0.058 -0.986 98 107 109
-22.0716 21.3635 70.8274 -0.713 -0.494 -0.497 64 64 62
-21.5117 20.9848 70.0491 -0.567 -0.054 -0.822 67 68 64
-18.7308 19.9389 68.4243 -0.402 -0.535 -0.743 91 93 87
-18.3162 19.8144 68.2665 -0.250 -0.247 -0.936 125 127 123
-18.1789 19.7693 68.2038 -0.268 -0.253 -0.929 118 120 118
-16.4381 19.6444 68.6088 -0.440 -0.325 -0.837 88 93 98
-16.2993 19.6054 68.5633 -0.390 -0.326 -0.861 82 87 92
-16.0133 19.5595 68.5616 -0.275 0.050 -0.960 71 75 78
-10.5334 18.0571 66.8596 -0.282 -0.101 -0.954 64 65 62
-9.2550 17.5690 66.0931 0.017 -0.141 -0.990 70 69 65
-6.3699 16.9490 65.6560 0.454 -0.105 -0.885 82 91 50
-2.0998 16.2431 65.5773 0.245 -0.952 -0.184 89 93 73
-1.9270 16.2518 65.6740 0.219 -0.957 -0.192 90 93 76
-0.9357 16.2449 66.0770 0.111 -0.498 -0.860 90 92 82
13.9322 14.4393 67.5535 -0.211 -0.720 -0.662 102 108 77
15.0676 14.1826 67.3472 -0.194 -0.253 -0.948 94 106 90
15.2755 14.1871 67.4477 -0.265 0.150 -0.952 95 106 90
15.2736 14.0758 67.1483 -0.105 -0.260 -0.960 97 108 92
16.0651 14.3996 68.3538 0.305 -0.928 -0.215 102 110 95
17.9674 13.9960 68.0796 -0.428 -0.316 -0.847 85 98 85
23.9030 13.5587 69.4299 0.332 -0.646 -0.688 66 85 66
-49.8702 33.4303 90.8709 0.315 -0.949 0.034 41 58 65
-47.1677 32.0217 88.2521 -0.241 -0.752 -0.614 37 51 52
-47.0771 32.1214 88.5567 -0.534 -0.062 -0.843 34 48 49
-45.3500 30.9669 86.2042 -0.808 -0.235 -0.540 43 61 64
-42.5892 28.3441 80.3691 0.182 -0.914 -0.364 140 160 158
-43.1947 30.0141 84.5712 -0.348 -0.020 -0.937 138 157 153
-37.7254 26.0736 76.3626 0.255 0.022 -0.967 164 197 220
-34.4376 25.1082 75.1739 -0.514 -0.284 -0.809 168 204 226
-34.1149 24.9781 74.9630 -0.651 -0.282 -0.705 170 205 226
-33.9518 24.9066 74.8410 -0.651 -0.282 -0.705 168 202 225
-33.9542 25.7894 77.1963 -0.348 -0.802 -0.485 167 204 222
-33.7617 25.6351 76.8657 -0.491 -0.484 -0.724 160 198 215
-33.1434 24.5535 74.2399 -0.417 -0.267 -0.869 157 190 207
-32.5143 24.3103 73.8562 -0.385 -0.383 -0.840 146 164 186
-30.0597 24.0765 74.2688 -0.644 -0.626 -0.441 187 220 238
-29.7503 23.9614 74.0921 -0.636 -0.632 -0.443 184 219 234
-29.2819 23.7559 73.7415 -0.428 -0.613 -0.664 177 210 223
-29.1246 23.6773 73.5979 -0.634 -0.483 -0.604 169 202 215
-28.9728 23.6269 73.5277 -0.633 -0.416 -0.653 170 202 216
-28.8165 23.5495 73.3871 -0.595 -0.337 -0.729 170 200 216
-28.5142 23.4490 73.2464 -0.468 -0.252 -0.847 171 201 217
-28.3624 23.3931 73.1612 -0.425 -0.257 -0.868 171 202 218
-28.2098 23.3301 73.0575 -0.381 -0.214 -0.900 170 201 217
-28.0648 23.3153 73.0793 -0.382 -0.533 -0.755 169 198 215
-27.9160 23.2759 73.0370 -0.443 -0.559 -0.700 166 195 211
-27.7673 23.2361 72.9936 -0.427 -0.624 -0.655 163 192 210
-27.6180 23.1919 72.9386 -0.427 -0.624 -0.655 157 185 201
-27.4658 23.1248 72.8236 -0.567 -0.572 -0.593 154 183 199
-27.3147 23.0629 72.7224 -0.565 -0.527 -0.634 154 183 199
-27.1658 23.0170 72.6627 -0.585 -0.516 -0.625 153 182 198
-27.0169 22.9692 72.5979 -0.586 -0.501 -0.638 151 180 196
-26.8668 22.9096 72.5024 -0.577 -0.510 -0.637 149 181 196
-26.7172 22.8524 72.4127 -0.577 -0.510 -0.637 149 181 196
-26.5680 22.7966 72.3267 -0.493 -0.507 -0.707 140 172 187
-26.4198 22.7476 72.2585 -0.493 -0.507 -0.707 131 163 176
-26.2722 22.7034 72.2029 -0.497 -0.459 -0.736 129 161 174
-24.7855 21.8668 70.5976 -0.387 -0.200 -0.900 129 154 160
-23.6387 21.7537 70.7801 -0.079 -0.631 -0.772 101 111 112
-22.1940 21.5558 70.8618 -0.771 -0.548 -0.324 56 58 57
-16.7728 19.5451 67.7839 -0.074 0.072 -0.995 104 114 115
-16.4210 19.7648 68.5188 -0.155 -0.089 -0.984 88 97 98
-13.5922 18.7879 67.1059 -0.359 -0.343 -0.868 94 100 99
-13.3599 18.6119 66.7343 -0.062 -0.229 -0.971 81 87 86
-9.0818 17.6967 66.0978 -0.240 -0.500 -0.832 69 64 63
-5.8289 16.9230 65.4061 -0.082 -0.276 -0.958 78 86 43
3.1667 16.3284 67.6174 -0.531 -0.845 -0.056 90 88 82
13.7824 14.5919 67.4649 -0.299 -0.745 -0.597 105 108 83
15.2481 14.2976 67.2981 -0.205 -0.168 -0.964 104 110 95
16.3883 14.4816 68.2708 0.272 -0.931 -0.243 109 113 99
19.2165 13.9158 67.9547 0.162 -0.397 -0.903 73 90 77
23.9024 13.6915 69.3347 0.351 -0.609 -0.711 65 84 65
24.5368 13.5799 69.3045 -0.073 -0.249 -0.966 78 93 74
-47.1274 32.1569 88.1231 -0.217 -0.771 -0.598 37 51 52
-45.8606 31.5361 87.0064 -0.811 -0.022 -0.585 56 70 71
-45.3960 31.2475 86.4351 -0.802 -0.069 -0.593 41 62 57
-44.5413 31.0551 86.2827 -0.419 -0.123 -0.899 78 98 98
-42.5559 28.4726 80.2599 0.137 -0.936 -0.325 141 161 159
-36.1135 25.7101 75.6280 -0.366 0.360 -0.858 171 208 226
-33.7273 25.7394 76.7061 -0.562 -0.419 -0.713 185 219 234
-33.0618 25.4340 76.1746 -0.501 -0.534 -0.681 185 213 229
-30.9567 23.9097 73.0107 -0.098 -0.067 -0.993 170 202 217
-30.3624 23.7572 72.8552 -0.140 -0.010 -0.990 161 193 208
-29.2558 23.8703 73.6192 -0.428 -0.613 -0.664 145 175 189
-29.0989 23.7926 73.4787 -0.634 -0.483 -0.604 146 175 189
-28.9485 23.7491 73.4263 -0.633 -0.416 -0.653 146 175 189
-28.7927 23.6740 73.2924 -0.580 -0.340 -0.741 145 174 190
-28.6416 23.6239 73.2227 -0.541 -0.321 -0.778 122 151 167
-28.4913 23.5779 73.1636 -0.493 -0.263 -0.830 122 151 167
-28.3397 23.5221 73.0790 -0.430 -0.252 -0.867 121 150 166
-28.1869 23.4576 72.9719 -0.380 -0.245 -0.892 120 149 165
-28.0400 23.4303 72.9611 -0.415 -0.519 -0.747 117 146 162
-27.8918 23.3942 72.9274 -0.431 -0.618 -0.658 108 137 153
-27.5933 23.3048 72.8151 -0.427 -0.624 -0.655 99 126 143
-27.4404 23.2305 72.6822 -0.542 -0.561 -0.625 98 125 142
-27.2906 23.1780 72.6054 -0.565 -0.527 -0.634 98 127 143
-27.1420 23.1328 72.5478 -0.601 -0.517 -0.610 96 125 141
-26.9932 23.0855 72.4847 -0.591 -0.520 -0.617 90 119 135
-26.8433 23.0265 72.3910 -0.591 -0.520 -0.617 89 118 134
-26.6937 22.9682 72.2988 -0.577 -0.510 -0.637 88 120 135
-26.5445 22.9109 72.2093 -0.484 -0.444 -0.754 90 122 137
-26.3970 22.8677 72.1564 -0.493 -0.507 -0.707 92 124 139
-26.2500 22.8287 72.1147 -0.489 -0.503 -0.712 94 123 139
-26.1004 22.7599 71.9947 -0.548 -0.499 -0.672 95 124 138
-23.6194 22.1136 71.3194 0.082 -0.977 -0.197 102 112 113
-22.9031 21.4394 69.8299 -0.025 -0.688 -0.725 106 115 114
-22.3218 21.6155 70.5413 -0.554 -0.024 -0.832 51 53 52
-20.9201 20.8924 69.2093 -0.525 -0.117 -0.843 71 75 76
-14.8285 19.1690 67.1885 -0.480 -0.723 -0.496 68 73 76
-13.5652 18.9372 67.1030 -0.318 -0.517 -0.795 85 91 89
-13.3109 18.8171 66.8907 -0.101 -0.422 -0.901 77 83 81
-9.4352 17.9874 66.3133 -0.339 -0.319 -0.885 76 70 70
-9.3275 17.9034 66.1356 -0.290 -0.302 -0.908 76 70 70
-5.7261 16.9494 65.1131 -0.083 -0.573 -0.815 69 75 39
19.2201 14.0463 67.8660 0.151 -0.385 -0.911 75 89 74
28.6760 13.4420 70.2265 -0.240 -0.743 -0.625 101 105 82
-49.7734 33.2216 89.3304 -0.859 0.123 -0.497 47 64 71
-47.2826 32.3667 88.1105 -0.906 0.059 -0.418 37 51 51
-45.9076 31.8193 87.2377 -0.761 0.116 -0.638 54 70 64
-45.0229 31.3166 86.2790 0.103 -0.159 -0.982 42 64 59
-44.5027 31.1872 86.1540 -0.301 -0.372 -0.878 96 117 119
-39.4394 27.1889 77.7065 0.064 -0.725 -0.686 57 67 74
-33.0322 25.5509 76.0496 -0.635 -0.309 -0.708 170 201 213
-32.4568 24.5354 73.6084 -0.283 0.019 -0.959 162 191 203
-31.0885 24.1027 73.0356 -0.118 0.173 -0.978 142 171 187
-30.9377 24.0563 72.9760 -0.128 -0.019 -0.992 142 171 187
-30.7899 24.0224 72.9478 -0.446 0.021 -0.895 136 165 179
-30.3459 23.9158 72.8513 -0.140 -0.010 -0.990 120 149 163
-29.0734 23.9085 73.3619 -0.556 -0.332 -0.762 102 130 144
-28.9217 23.8571 73.2894 -0.577 -0.332 -0.746 102 129 144
-28.7701 23.8049 73.2147 -0.580 -0.340 -0.741 102 130 144
-28.6195 23.7575 73.1521 -0.541 -0.321 -0.778 113 141 155
-28.4704 23.7181 73.1103 -0.483 -0.250 -0.839 113 141 155
-28.3188 23.6629 73.0277 -0.430 -0.252 -0.867 114 142 156
-28.1657 23.5963 72.9156 -0.415 -0.519 -0.747 113 140 157
-28.0165 23.5528 72.8630 -0.415 -0.519 -0.747 111 138 155
-27.8672 23.5087 72.8085 -0.486 -0.514 -0.707 110 137 154
-27.7176 23.4609 72.7446 -0.501 -0.510 -0.699 110 137 154
-27.5678 23.4105 72.6741 -0.486 -0.514 -0.707 116 143 160
-27.2662 23.2901 72.4818 -0.565 -0.532 -0.631 119 146 163
-27.1177 23.2450 72.4244 -0.586 -0.478 -0.654 119 146 163
-26.9693 23.1997 72.3665 -0.572 -0.476 -0.669 118 147 163
-26.8202 23.1457 72.2863 -0.580 -0.468 -0.667 119 148 164
-26.6703 23.0838 72.1850 -0.577 -0.510 -0.637 118 147 163
-26.5223 23.0367 72.1224 -0.493 -0.507 -0.707 119 148 164
-26.3743 22.9876 72.0544 -0.493 -0.507 -0.707 119 148 166
-26.2274 22.9492 72.0141 -0.489 -0.503 -0.712 119 148 165
-26.0778 22.8780 71.8885 -0.548 -0.499 -0.672 119 148 164
-22.5860 21.9150 70.8000 -0.575 -0.518 -0.633 65 71 71
-22.4440 21.8111 70.5849 -0.291 -0.738 -0.608 48 52 53
-22.3000 21.7777 70.5565 -0.291 -0.738 -0.608 50 54 55
-20.9014 21.0064 69.1025 -0.407 -0.227 -0.885 77 81 82
-18.3588 20.4414 68.6695 -0.386 -0.628 -0.676 72 76 79
-17.3904 20.1403 68.2778 -0.012 -0.014 -1.000 86 90 95
-17.2489 20.1143 68.2679 -0.542 -0.180 -0.821 102 109 111
-16.8495 19.9310 67.9503 -0.297 0.176 -0.938 104 114 113
-15.9394 20.0044 68.5231 -0.403 0.047 -0.914 80 84 85
-15.8038 19.9538 68.4461 -0.407 0.054 -0.912 81 82 84
-14.6406 19.3576 67.3562 -0.249 -0.540 -0.804 78 83 86
-13.3006 18.9224 66.7653 -0.222 -0.417 -0.882 73 79 77
-9.5586 18.1381 66.2525 -0.262 -0.429 -0.864 76 70 70
-9.4228 18.1041 66.2195 -0.251 -0.423 -0.871 76 70 70
-9.2909 18.0635 66.1672 -0.259 -0.405 -0.877 76 70 70
-6.5559 17.4395 65.6582 -0.435 -0.349 -0.830 78 71 63
1.3893 16.6956 67.0023 0.238 -0.950 -0.203 84 78 78
1.8047 16.7610 67.3479 0.208 -0.916 -0.342 86 80 80
2.1981 16.0036 65.5123 -0.147 -0.507 -0.849 82 77 74
2.3316 15.9692 65.4769 -0.157 -0.500 -0.852 82 77 74
2.5118 15.9766 65.5715 -0.360 -0.619 -0.698 82 77 73
28.8650 13.5607 70.1652 -0.224 -0.273 -0.936 78 82 57
-45.9083 32.0229 87.2763 -0.766 0.111 -0.634 47 65 56
-45.5867 31.7225 86.6204 -0.860 0.100 -0.500 33 55 41
-45.1358 31.4533 86.1000 -0.329 -0.083 -0.941 39 67 48
-45.0399 31.5489 86.3905 0.021 -0.187 -0.982 33 58 50
-44.8128 31.4094 86.1183 -0.392 -0.324 -0.861 37 58 60
-44.6591 31.4018 86.1619 -0.117 -0.327 -0.938 45 66 72
-44.4765 31.3417 86.0796 -0.301 -0.372 -0.878 98 121 126
-42.3837 29.6196 82.4232 -0.406 -0.911 -0.073 135 155 146
-41.8986 29.8143 83.1350 0.801 -0.261 -0.539 24 40 38
-33.5038 25.9089 76.3513 -0.463 -0.776 -0.429 154 184 195
-33.0094 25.6903 75.9818 -0.631 -0.528 -0.569 131 163 174
-32.8641 25.6829 76.0225 -0.496 -0.626 -0.601 144 176 187
-32.4469 24.7142 73.6514 -0.348 -0.381 -0.857 167 198 209
-30.3294 24.0746 72.8474 -0.140 -0.010 -0.990 108 137 151
-30.1805 24.0346 72.8041 -0.160 0.050 -0.986 113 142 156
-28.9003 23.9950 73.2294 -0.580 -0.340 -0.741 123 149 164
-28.7475 23.9358 73.1369 -0.580 -0.340 -0.741 123 151 165
-28.5974 23.8910 73.0815 -0.541 -0.321 -0.778 125 153 167
-28.4497 23.8600 73.0612 -0.473 -0.241 -0.847 126 154 168
-28.2984 23.8064 72.9831 -0.417 -0.254 -0.873 124 152 166
-28.1396 23.7024 72.7756 -0.419 -0.574 -0.704 123 151 165
-27.9924 23.6715 72.7553 -0.442 -0.578 -0.686 122 150 164
-27.8437 23.6307 72.7097 -0.495 -0.520 -0.696 129 156 173
-27.6939 23.5808 72.6404 -0.495 -0.520 -0.696 135 162 179
-26.7959 23.2547 72.1555 -0.452 -0.690 -0.565 138 167 183
-26.6461 23.1917 72.0520 -0.525 -0.632 -0.570 138 167 183
-25.9105 22.9794 71.7988 -0.459 -0.573 -0.679 141 168 185
-24.7246 22.2945 70.4908 -0.419 -0.335 -0.844 141 164 178
-21.9959 21.7538 70.1992 -0.572 -0.467 -0.674 44 48 49
-20.4645 20.9694 68.7726 0.049 -0.442 -0.896 49 53 54
-20.1826 20.9060 68.7229 -0.327 -0.189 -0.926 49 53 54
-19.9023 20.8305 68.6404 -0.371 -0.203 -0.906 49 53 54
-17.3621 20.3092 68.3217 -0.567 -0.139 -0.812 87 91 95
-16.9666 20.1051 67.9494 -0.386 -0.414 -0.824 104 114 113
-16.8164 20.1162 68.0406 -0.474 -0.033 -0.880 104 114 113
-16.4147 19.9510 67.7730 -0.320 -0.423 -0.847 87 97 96
-15.9150 20.1520 68.5074 -0.407 0.054 -0.912 80 84 85
-15.7821 20.0914 68.4033 -0.094 0.038 -0.995 81 82 84
-14.6285 19.4647 67.2345 -0.250 -0.543 -0.802 82 87 90
-12.1122 18.9568 66.9413 -0.267 -0.505 -0.821 58 59 54
-9.4205 18.2026 66.0739 -0.291 -0.146 -0.946 62 56 56
-7.9833 18.0027 66.1431 -0.432 -0.199 -0.880 75 67 64
-6.1990 17.8300 66.4273 -0.101 -0.305 -0.947 73 67 57
-5.8968 17.5777 65.8900 -0.021 -0.426 -0.904 65 69 44
1.3800 16.6348 66.4225 0.658 -0.572 -0.490 85 79 79
1.4218 16.5106 66.1136 0.399 -0.224 -0.889 86 80 80
2.0807 16.1660 65.4813 -0.198 -0.510 -0.837 78 73 70
2.1997 16.1183 65.4053 -0.164 -0.447 -0.879 76 71 68
2.3717 16.1189 65.4778 -0.235 -0.576 -0.783 76 71 68
5.4698 15.6427 65.5083 -0.118 -0.302 -0.946 80 70 71
5.6024 15.6075 65.4708 -0.533 0.148 -0.833 85 75 76
5.7423 15.5781 65.4516 -0.545 0.066 -0.836 85 75 76
6.1571 15.6236 65.7423 -0.402 -0.524 -0.751 85 76 77
6.4533 15.5761 65.7401 0.283 -0.645 -0.710 82 78 79
6.8060 15.5710 65.8726 0.122 -0.806 -0.580 80 76 75
6.9751 15.5625 65.9201 0.122 -0.806 -0.580 80 76 75
9.1852 15.5695 66.8522 0.095 -0.995 -0.010 83 73 72
9.4360 15.6142 67.0734 -0.772 -0.534 -0.344 82 72 71
10.5379 15.3418 66.8137 -0.109 -0.991 -0.082 81 71 70
13.8726 14.7881 66.7383 -0.356 -0.707 -0.611 104 96 85
28.4094 13.7948 70.1401 0.011 -0.040 -0.999 74 77 56
-50.3063 34.2131 90.6960 -0.144 -0.296 -0.944 49 64 69
-45.9117 32.2318 87.3261 -0.767 0.024 -0.641 40 57 48
-45.5885 31.9275 86.6643 -0.860 0.100 -0.500 26 48 30
-45.1657 31.7082 86.2650 -0.164 -0.085 -0.983 32 61 41
-45.1073 31.8728 86.7189 -0.091 -0.274 -0.957 24 51 42
-44.8206 31.6257 86.1914 -0.333 -0.276 -0.902 30 54 57
-44.6658 31.6166 86.2312 -0.162 -0.378 -0.912 47 70 77
-42.4246 28.7971 79.7885 0.376 -0.810 -0.450 147 169 166
-32.9840 25.8209 75.8922 -0.567 -0.590 -0.574 106 135 149
-32.8265 25.7707 75.8257 -0.499 -0.501 -0.707 127 156 170
-32.4226 24.8423 73.5670 -0.366 -0.390 -0.845 160 189 203
-30.3128 24.2331 72.8424 -0.159 -0.053 -0.986 132 161 175
-30.1636 24.1921 72.7965 -0.198 -0.006 -0.980 137 166 180
-29.0211 24.1320 73.1086 -0.456 -0.619 -0.640 147 175 189
-28.8651 24.0543 72.9696 -0.481 -0.635 -0.604 148 176 190
-28.7249 24.0665 73.0593 -0.580 -0.340 -0.741 148 176 190
-28.5747 24.0206 73.0011 -0.552 -0.318 -0.771 149 177 191
-28.4279 23.9956 72.9959 -0.495 -0.251 -0.832 150 178 192
-28.2765 23.9410 72.9155 -0.412 -0.234 -0.881 149 177 191
-27.8152 23.7172 72.5205 -0.666 -0.415 -0.620 153 181 195
-22.2599 22.0118 70.3477 0.060 -0.785 -0.617 58 62 63
-19.7461 20.8941 68.4608 -0.326 -0.131 -0.936 44 48 49
-18.8774 20.8626 68.7353 0.337 -0.506 -0.794 47 50 55
-12.2280 19.1255 66.9288 0.069 -0.538 -0.840 59 60 55
-11.9131 19.1497 67.1212 -0.212 -0.421 -0.882 59 60 55
-9.4064 18.3222 65.9893 -0.286 -0.166 -0.944 94 88 88
-6.0037 17.9838 66.5026 -0.040 -0.122 -0.992 66 67 52
-6.1794 17.5025 65.1735 -0.078 -0.148 -0.986 64 66 50
-5.8942 17.4598 65.1792 -0.046 -0.146 -0.988 64 67 50
-2.2968 16.7452 64.7898 -0.308 -0.111 -0.945 63 59 50
1.4283 16.6299 66.0181 0.387 -0.056 -0.920 81 75 75
1.6002 16.6306 66.0904 0.387 -0.056 -0.920 82 76 76
2.3890 16.5630 66.2378 -0.366 -0.453 -0.813 76 71 68
2.5439 16.3887 65.8461 -0.595 -0.452 -0.664 72 67 64
2.7797 16.1359 65.2827 -0.374 -0.780 -0.501 75 67 64
3.9649 15.8169 64.9364 -0.558 -0.197 -0.806 85 73 75
5.4936 15.7779 65.4621 -0.118 -0.302 -0.946 78 68 67
5.6365 15.7508 65.4499 -0.135 -0.274 -0.952 90 80 79
5.7792 15.7236 65.4375 -0.135 -0.274 -0.952 86 76 75
5.9767 15.7390 65.5589 -0.444 -0.495 -0.747 81 71 70
6.8198 15.6993 65.8012 0.114 -0.772 -0.626 84 80 81
10.1503 15.5827 66.8640 0.091 -0.996 -0.002 78 68 67
17.8937 14.7048 67.7502 -0.367 -0.211 -0.906 114 114 104
18.1158 14.7138 67.8651 -0.289 0.076 -0.954 115 116 103
20.4103 14.8209 69.0866 0.374 -0.417 -0.828 107 113 99
20.6367 14.8279 69.1978 0.363 -0.406 -0.839 106 112 98
23.7397 14.3484 69.2197 -0.441 -0.763 -0.473 86 101 80
24.7820 14.2210 69.3148 0.156 -0.414 -0.897 90 105 86
25.0293 14.2321 69.4452 -0.053 -0.261 -0.964 99 114 95
28.1573 13.9225 69.9210 0.326 -0.163 -0.931 72 75 56
28.4568 13.9504 70.1167 0.000 0.102 -0.995 78 81 60
-50.4199 34.3570 90.5157 -0.469 -0.234 -0.851 51 69 73
-50.0581 34.0330 89.8217 -0.215 -0.422 -0.881 50 65 70
-46.7671 32.8702 88.1432 -0.810 0.018 -0.586 31 46 41
-46.3517 32.6760 87.8082 -0.718 0.354 -0.600 50 65 58
-46.0847 32.4739 87.3919 -0.712 0.359 -0.604 51 66 59
-45.8110 32.2577 86.9420 -0.678 0.383 -0.628 37 53 47
-45.0938 31.7809 85.9962 -0.488 -0.007 -0.873 22 51 32
-44.7081 31.6231 85.7434 -0.196 -0.803 -0.563 32 55 60
-44.5771 31.6567 85.8842 -0.065 -0.888 -0.455 49 72 79
-42.1197 29.7814 82.0154 0.791 -0.120 -0.600 138 159 150
-41.6909 30.3972 83.7896 0.582 -0.061 -0.811 46 54 60
-39.5465 27.3971 76.8717 -0.429 -0.326 -0.842 45 56 62
-38.7081 27.0714 76.3674 -0.276 -0.634 -0.722 65 76 85
-32.9524 25.9299 75.7491 -0.567 -0.590 -0.574 136 163 180
-32.8031 25.9079 75.7530 -0.493 -0.508 -0.706 136 163 180
-32.4002 24.9772 73.4999 -0.318 -0.417 -0.852 164 192 207
-30.4387 24.4016 72.8045 -0.157 -0.090 -0.983 146 175 189
-30.1498 24.3645 72.8260 0.052 -0.008 -0.999 151 180 194
-30.0050 24.3448 72.8337 0.052 -0.008 -0.999 153 182 196
-29.8617 24.3335 72.8629 0.054 0.005 -0.999 151 183 196
-29.7171 24.3158 72.8757 -0.018 -0.104 -0.994 151 183 196
-29.5719 24.2958 72.8832 -0.013 -0.105 -0.994 152 184 197
-29.4216 24.2498 72.8249 -0.015 -0.130 -0.991 152 184 197
-29.2694 24.1929 72.7390 -0.069 -0.144 -0.987 154 183 197
-29.1151 24.1225 72.6192 -0.281 -0.175 -0.944 155 184 198
-28.9775 24.1449 72.7334 -0.693 -0.257 -0.673 156 184 198
-28.2530 24.0644 72.8197 -0.358 -0.359 -0.862 156 184 198
-25.7065 23.0092 71.1172 -0.416 -0.200 -0.887 154 180 193
-24.6829 22.5553 70.3556 -0.414 -0.324 -0.851 163 187 199
-24.5374 22.4751 70.2066 -0.639 -0.347 -0.687 161 185 195
-24.3919 22.3780 70.0138 -0.144 -0.613 -0.777 173 197 207
-24.2490 22.3530 70.0070 -0.144 -0.613 -0.777 134 158 168
-24.1063 22.3371 70.0239 -0.158 -0.636 -0.755 127 151 162
-23.8196 22.2285 69.8589 -0.099 -0.365 -0.926 103 122 131
-22.9656 21.8769 69.2938 0.012 -0.312 -0.950 100 110 111
-20.7048 21.3093 68.7412 -0.225 -0.473 -0.852 37 41 42
-20.5655 21.2603 68.6708 -0.228 -0.414 -0.881 37 41 42
-20.4230 21.2427 68.6830 -0.201 -0.310 -0.929 41 45 46
-20.2815 21.2152 68.6694 -0.189 -0.322 -0.928 49 53 54
-18.8674 20.9318 68.5098 0.067 -0.245 -0.967 46 50 53
-18.6011 20.7788 68.2209 -0.060 0.009 -0.998 52 56 59
-15.7950 20.1648 67.7702 -0.194 -0.467 -0.863 82 83 85
-11.3488 19.1308 66.8972 -0.155 -0.333 -0.930 69 65 62
-10.1851 18.6862 66.2169 -0.315 -0.243 -0.918 84 79 75
-9.3843 18.4562 65.9459 -0.298 -0.220 -0.929 105 99 99
0.9601 16.7842 65.8204 0.729 -0.323 -0.603 66 62 61
5.6591 15.8851 65.4007 -0.146 -0.240 -0.960 82 72 70
9.6512 15.2381 65.3478 0.039 -0.439 -0.897 93 85 83
9.8146 15.2240 65.3776 0.039 -0.438 -0.898 92 84 82
10.0104 15.2314 65.4767 0.010 -0.475 -0.880 93 85 83
10.1718 15.2154 65.5009 -0.100 -0.407 -0.908 88 80 77
10.3323 15.1987 65.5231 -0.175 -0.362 -0.916 80 72 69
10.4750 15.1702 65.5071 -0.175 -0.362 -0.916 78 70 68
10.5961 15.1274 65.4453 -0.260 -0.275 -0.926 79 71 69
15.3701 15.1076 67.3402 0.420 -0.688 -0.592 104 95 86
18.2345 14.9048 67.9810 -0.296 -0.032 -0.955 113 113 101
18.2073 14.7818 67.6504 -0.541 0.053 -0.839 113 114 100
18.6407 14.6861 67.5786 0.185 0.053 -0.981 114 115 100
18.8388 14.6820 67.6488 0.494 -0.157 -0.855 113 115 101
26.0723 14.3325 69.6898 -0.193 -0.526 -0.828 86 95 78
-50.0977 34.0626 89.3807 0.102 -0.762 -0.640 54 72 76
-49.7891 33.8173 88.8722 0.373 -0.118 -0.920 53 68 73
-47.0300 33.2650 88.5624 0.213 0.320 -0.923 34 50 47
-46.6323 33.1044 88.3084 -0.557 0.211 -0.803 31 46 41
-44.9172 31.9338 85.9789 -0.515 -0.734 -0.443 23 49 43
-44.6296 31.6811 85.4423 -0.267 -0.764 -0.587 39 63 68
-44.5017 31.7203 85.5954 -0.062 -0.891 -0.450 67 90 95
-44.3372 31.6924 85.5900 -0.070 -0.892 -0.447 96 120 122
-44.1686 31.6568 85.5663 -0.026 -0.895 -0.444 136 158 156
-43.9485 31.8084 86.0469 0.003 -0.947 -0.322 155 177 174
-39.5694 27.6371 77.0441 -0.441 -0.258 -0.860 40 49 56
-34.0200 25.9283 74.8764 -0.595 0.068 -0.801 130 162 173
-32.7634 25.9874 75.5377 -0.511 -0.641 -0.573 140 169 183
-32.3775 25.1108 73.4296 -0.346 -0.390 -0.853 163 192 206
-30.5848 25.2989 74.6410 -0.382 0.104 -0.918 152 181 195
-30.4273 25.2349 74.5396 -0.533 0.132 -0.836 152 181 195
-30.2754 25.1964 74.5016 -0.580 0.113 -0.807 153 182 196
-29.0706 24.1305 72.2359 -0.092 -0.204 -0.975 155 184 198
-28.9245 24.1017 72.2207 -0.079 -0.224 -0.971 156 184 198
-28.7769 24.0637 72.1822 -0.086 -0.274 -0.958 156 184 198
-28.1875 23.9139 72.0339 -0.248 -0.516 -0.820 156 184 198
-27.6011 23.7775 71.9189 -0.722 -0.550 -0.420 155 182 199
-27.3120 23.7400 71.9390 -0.201 0.249 -0.948 156 183 200
-26.1362 23.4176 71.5821 -0.281 -0.002 -0.960 155 184 200
-25.2429 22.9145 70.6441 -0.169 -0.335 -0.927 151 177 192
-24.6614 22.6724 70.2541 -0.339 -0.320 -0.885 163 187 199
-24.5162 22.5946 70.1119 -0.619 -0.272 -0.737 162 186 198
-24.3721 22.5392 70.0271 -0.562 -0.223 -0.797 173 197 207
-24.2281 22.4738 69.9165 -0.228 -0.405 -0.885 134 158 168
-23.7989 22.3535 69.7795 -0.116 -0.344 -0.932 103 122 131
-23.6561 22.3148 69.7373 -0.338 -0.320 -0.885 102 116 119
