ply
format ascii 1.0
element vertex 886
property float x
property float y
property float z
property float nx
property float ny
property float nz
property uchar diffuse_red
property uchar diffuse_green
property uchar diffuse_blue
end_header
59.7389 15.2975 96.4032 0.373 -0.711 -0.597 69 80 72
61.2001 15.2378 99.1806 0.650 0.116 -0.751 94 98 101
61.3380 15.2296 99.4044 0.746 -0.121 -0.655 106 111 111
63.0439 15.0973 101.7252 0.312 0.653 -0.690 35 45 46
63.1654 15.1282 102.4839 -0.005 0.529 -0.849 35 45 46
64.7243 15.1851 107.2240 -0.389 -0.384 -0.837 91 101 92
5.2215 22.4771 63.4275 -0.213 -0.426 -0.879 60 59 57
5.8754 22.3624 63.3831 -0.445 -0.362 -0.819 52 51 49
6.8949 22.1730 63.1640 0.581 -0.421 -0.696 47 43 42
6.9565 22.1725 63.3071 0.230 -0.317 -0.920 68 64 63
7.0806 22.1568 63.3858 -0.003 -0.220 -0.975 53 52 50
7.8831 22.0338 63.5884 0.374 -0.249 -0.893 62 61 57
8.1049 21.9942 63.5635 0.324 -0.274 -0.905 63 62 58
8.3025 21.9605 63.5637 0.748 -0.039 -0.662 62 61 59
8.3684 21.9590 63.7037 0.299 -0.205 -0.932 43 39 38
8.5002 21.9414 63.7738 -0.388 -0.218 -0.896 68 64 63
8.7400 21.8972 63.7281 -0.194 -0.434 -0.880 66 62 61
12.4418 21.2772 63.9017 0.345 -0.858 -0.381 112 101 95
12.7345 21.2341 63.9997 0.335 -0.854 -0.398 127 117 111
12.5543 21.2946 64.4274 -0.191 -0.869 -0.455 108 99 92
14.0833 21.0006 63.9546 0.328 -0.047 -0.943 115 110 104
14.1815 20.9911 64.0585 0.129 -0.281 -0.951 128 123 117
14.3487 20.9641 64.0803 0.338 -0.251 -0.907 95 87 84
14.5087 20.9388 64.1104 0.401 -0.314 -0.861 67 59 56
16.2886 20.6393 64.1744 0.472 -0.296 -0.830 82 72 70
16.2815 20.6569 64.4089 0.112 -0.603 -0.790 104 94 92
17.1720 20.5060 64.4262 -0.195 -0.497 -0.846 101 92 85
25.8680 19.1846 66.7758 0.309 -0.076 -0.948 100 90 81
28.7639 18.7135 67.1119 0.439 -0.373 -0.818 77 62 57
30.2274 18.5192 67.9112 0.468 -0.197 -0.862 117 107 98
31.8030 18.3121 68.8018 0.176 -0.364 -0.915 80 67 61
34.7252 17.9502 70.7730 0.372 -0.466 -0.802 148 137 127
34.8380 17.9372 70.8626 0.405 -0.397 -0.824 142 128 117
35.0040 17.9071 70.8374 0.411 -0.299 -0.861 149 135 124
35.1157 17.8944 70.9295 0.449 -0.288 -0.846 156 142 131
35.2342 17.8796 71.0068 0.413 -0.448 -0.793 160 146 135
35.3295 17.8723 71.1354 0.483 -0.349 -0.803 173 159 148
35.4348 17.8617 71.2424 0.602 -0.262 -0.755 177 163 152
35.5682 17.8421 71.2877 0.661 -0.152 -0.735 182 168 157
35.7987 17.8146 71.4588 0.593 -0.310 -0.743 162 155 142
37.3940 17.6050 72.3619 0.433 -0.151 -0.888 141 139 127
37.7324 17.5669 72.6441 0.523 0.148 -0.839 133 134 117
38.2220 17.5032 72.9298 0.585 -0.525 -0.618 90 91 74
38.9332 17.4158 73.4202 0.586 -0.521 -0.621 128 130 117
39.4029 17.3594 73.7626 0.225 -0.302 -0.926 127 129 116
39.7690 17.3124 73.9852 0.462 -0.195 -0.865 115 117 103
42.8480 16.8818 75.3522 -0.091 -0.552 -0.829 99 108 107
43.1404 16.9928 77.6663 0.354 0.513 -0.782 100 110 111
43.2626 16.9779 77.7528 0.331 0.509 -0.794 100 110 111
43.8276 16.8884 77.8528 0.550 -0.748 -0.371 112 122 123
44.3733 16.8409 78.5094 0.428 -0.396 -0.812 116 124 126
44.5166 16.8177 78.5272 0.426 -0.222 -0.877 115 123 125
44.6450 16.8005 78.5951 0.447 -0.144 -0.883 115 123 125
45.4718 16.6374 78.2809 0.710 -0.166 -0.684 85 94 93
47.5361 16.3932 79.8379 0.441 0.013 -0.898 116 122 89
47.7854 16.4450 81.1940 0.394 -0.665 -0.634 103 100 90
50.5059 16.2871 85.6036 0.629 -0.753 -0.194 49 45 40
50.5497 16.3167 86.1365 0.581 -0.791 -0.192 48 46 39
52.7003 15.9751 86.5047 0.845 -0.400 -0.355 61 75 78
53.0255 15.9671 87.1881 0.521 -0.319 -0.791 59 74 69
53.1570 15.9511 87.2812 0.521 -0.319 -0.791 62 77 74
54.1241 15.8787 88.6136 0.038 0.021 -0.999 50 68 70
56.1744 15.6838 90.8456 0.791 -0.286 -0.540 31 46 43
56.4381 15.6563 91.0973 0.218 0.179 -0.959 33 48 45
56.8611 15.5947 91.2494 0.444 -0.372 -0.815 43 57 58
57.2504 15.6532 93.0463 -0.163 -0.195 -0.967 61 75 76
57.5378 15.6104 93.1370 -0.151 -0.243 -0.958 31 45 45
57.6897 15.5821 93.1028 -0.156 -0.230 -0.961 39 53 53
58.6777 15.5580 95.1820 0.553 -0.407 -0.727 79 85 81
58.9657 15.5173 95.3045 0.310 -0.104 -0.945 86 95 90
59.1017 15.5048 95.4581 0.559 -0.416 -0.717 85 96 90
59.2430 15.4872 95.5519 0.568 -0.410 -0.714 74 85 79
59.3720 15.4820 95.7947 0.534 -0.541 -0.650 62 75 66
61.0677 15.4438 99.4086 0.934 -0.117 -0.338 117 118 118
61.2394 15.3924 99.0900 0.523 -0.157 -0.838 108 108 109
62.4768 15.3498 101.5161 0.834 -0.140 -0.534 67 74 70
63.6608 15.5218 106.8965 0.482 0.279 -0.831 50 60 59
64.4573 15.3761 106.7561 -0.384 -0.568 -0.728 98 108 99
64.7631 15.3508 107.1439 0.254 -0.596 -0.762 95 105 96
4.2323 22.8145 63.6032 0.513 0.504 -0.694 52 51 47
6.9159 22.3219 63.1509 0.632 -0.326 -0.703 55 51 50
6.9854 22.3196 63.2858 0.206 -0.311 -0.928 82 78 77
7.1294 22.2990 63.3439 0.118 -0.326 -0.938 63 62 60
8.1591 22.1345 63.5154 0.481 -0.042 -0.876 77 76 72
8.3425 22.1041 63.5306 0.779 0.012 -0.627 73 72 68
8.4279 22.0980 63.6499 0.304 0.173 -0.937 64 60 59
8.6348 22.0617 63.6395 -0.412 -0.263 -0.873 74 70 69
8.8276 22.0290 63.6438 -0.194 -0.434 -0.880 73 69 68
9.0162 21.9972 63.6521 -0.230 -0.483 -0.845 72 68 67
15.8530 20.8527 64.0531 0.211 0.055 -0.976 128 120 117
16.0088 20.8282 64.0855 0.211 0.055 -0.976 131 122 117
16.2176 20.7900 64.0522 0.242 0.069 -0.968 173 164 159
16.3242 20.7784 64.1450 0.472 -0.296 -0.830 121 111 109
16.8534 20.7049 64.3885 0.042 -0.602 -0.797 116 107 102
17.0185 20.6779 64.4078 -0.203 -0.488 -0.849 102 93 86
17.3576 20.6380 64.6635 0.846 -0.417 -0.333 114 105 98
17.4180 20.6385 64.8164 0.846 -0.417 -0.333 115 106 99
21.5012 19.9857 65.4880 0.074 -0.410 -0.909 105 95 86
23.1889 19.6984 65.5198 0.513 -0.264 -0.817 125 115 105
28.4527 18.9093 67.1218 0.433 -0.228 -0.872 114 99 94
30.7229 18.5963 68.1966 0.551 -0.034 -0.834 71 61 52
35.8019 17.9597 71.4961 0.625 -0.303 -0.720 149 142 129
35.9498 17.9353 71.5088 0.434 -0.344 -0.833 139 133 119
36.1037 17.9088 71.5073 0.269 -0.196 -0.943 126 120 106
36.5370 17.8385 71.5647 0.336 -0.230 -0.913 154 148 134
37.4103 17.7461 72.3720 0.432 -0.167 -0.886 141 139 126
37.7467 17.7089 72.6596 0.501 0.111 -0.859 137 138 118
40.3071 17.3798 74.2074 0.456 -0.280 -0.845 122 124 110
40.4146 17.3695 74.3217 0.422 -0.320 -0.848 115 119 104
41.0181 17.2941 74.7168 0.303 -0.198 -0.932 95 101 89
41.1007 17.2932 74.9039 0.351 -0.322 -0.879 87 93 79
41.2022 17.2854 75.0389 0.361 -0.135 -0.923 83 89 76
43.5105 17.0654 77.5114 0.069 -0.873 -0.483 103 111 114
43.6658 17.0372 77.4895 0.563 -0.734 -0.381 94 102 105
43.7654 17.0314 77.6481 0.563 -0.734 -0.381 85 93 96
43.9009 17.0111 77.6902 0.384 -0.844 -0.374 100 108 110
44.6209 16.8920 77.7519 0.491 -0.302 -0.817 115 123 125
44.7741 16.8642 77.7312 0.641 -0.353 -0.682 121 129 131
45.0050 16.8399 77.9463 0.382 -0.194 -0.904 107 116 115
45.3853 16.7895 78.1543 0.706 -0.150 -0.692 92 101 101
45.4979 16.7787 78.2737 0.710 -0.166 -0.684 77 86 84
46.3011 16.7371 79.6250 0.319 -0.259 -0.912 133 141 117
46.4200 16.7242 79.7306 0.351 -0.223 -0.910 78 86 62
46.5383 16.7116 79.8392 0.301 -0.356 -0.884 74 80 56
47.5571 16.5379 79.8542 0.457 -0.264 -0.850 100 106 70
47.6955 16.5161 79.8814 0.406 -0.310 -0.860 104 109 77
47.8815 16.5570 80.9038 0.485 0.185 -0.854 89 90 74
48.8531 16.4497 81.7390 0.368 -0.595 -0.715 53 52 48
48.9809 16.4334 81.8183 0.368 -0.595 -0.715 53 52 47
49.0798 16.4312 82.0261 0.742 -0.478 -0.470 52 51 46
49.1869 16.4253 82.2000 0.759 -0.465 -0.455 52 51 46
50.6105 16.3956 85.2145 0.752 -0.655 -0.072 47 45 40
50.9322 16.3852 85.8433 0.271 -0.557 -0.785 57 60 53
52.9096 16.1405 87.1722 0.903 -0.355 -0.242 52 68 65
53.0768 16.1032 87.0501 0.438 -0.772 -0.461 45 61 58
53.2663 16.1817 88.6095 0.413 0.306 -0.858 29 47 47
53.9884 16.0663 88.7292 0.103 -0.311 -0.945 64 83 87
54.3912 16.0162 88.9961 0.075 -0.946 -0.314 35 50 55
56.4335 15.8361 91.3880 0.152 -0.482 -0.863 35 50 47
57.0096 15.7453 91.5014 0.492 -0.605 -0.626 54 68 69
57.4394 15.7754 92.9599 0.384 -0.633 -0.672 66 80 81
57.5761 15.7598 93.0696 0.340 -0.653 -0.677 36 50 50
57.7193 15.7386 93.1181 0.345 -0.658 -0.669 33 47 47
57.8787 15.7034 93.0073 -0.135 -0.228 -0.964 49 65 62
58.0345 15.6710 92.9270 -0.063 -0.231 -0.971 44 60 57
59.6824 15.6106 96.0498 0.680 -0.407 -0.610 95 108 99
62.1037 15.5126 100.5084 0.803 -0.473 -0.362 66 73 65
62.2338 15.5213 100.9443 0.795 -0.506 -0.336 60 67 59
62.5127 15.5124 101.4915 0.851 -0.190 -0.490 68 77 72
63.1125 15.4277 101.7473 -0.015 -0.076 -0.997 33 42 40
63.7605 15.5511 105.0420 0.775 0.179 -0.607 49 59 60
-1.6855 23.9884 63.5630 0.096 -0.286 -0.953 50 52 47
7.2112 22.4329 63.2676 0.111 -0.345 -0.932 73 72 70
8.7873 22.1771 63.4861 -0.340 -0.328 -0.881 77 73 72
9.7417 22.0298 63.7236 0.041 -0.968 -0.246 81 80 78
12.4070 21.5251 63.1034 0.630 -0.069 -0.774 80 77 72
12.6146 21.5348 63.7272 0.440 -0.124 -0.889 81 76 70
12.7252 21.5223 63.8170 0.408 -0.093 -0.908 109 103 97
13.9524 21.3178 63.9155 -0.159 -0.577 -0.801 82 79 72
14.1153 21.2917 63.9428 0.103 -0.405 -0.908 86 83 78
16.2722 20.9239 63.9991 0.377 -0.356 -0.855 175 164 160
16.4016 20.9063 64.0635 0.377 -0.356 -0.855 97 86 82
16.8477 20.8547 64.4108 -0.045 -0.193 -0.980 143 132 126
17.0424 20.8199 64.3930 -0.172 -0.130 -0.976 144 133 127
17.2437 20.7832 64.3662 0.125 -0.553 -0.824 143 133 124
18.0757 20.6289 64.2178 0.333 -0.100 -0.938 118 108 99
18.6004 20.5392 64.2278 0.086 -0.302 -0.949 94 84 75
21.6401 20.0941 65.3117 0.119 -0.524 -0.843 121 108 100
22.2155 19.9886 65.2257 0.374 -0.224 -0.900 63 50 42
23.6588 19.7667 65.5957 0.205 -0.602 -0.772 96 86 76
28.4921 19.0417 67.0826 0.437 -0.228 -0.870 108 93 88
28.6383 19.0183 67.1081 0.383 -0.374 -0.844 111 96 91
30.3722 18.7843 67.9992 0.538 -0.091 -0.838 107 97 88
30.5022 18.7657 68.0517 0.590 0.014 -0.807 106 96 87
31.6084 18.6179 68.6410 0.390 -0.166 -0.906 102 89 81
31.8867 18.5750 68.7102 0.497 -0.040 -0.867 92 79 71
32.2276 18.5344 68.9603 0.352 -0.192 -0.916 85 74 68
32.3583 18.5156 69.0109 0.343 -0.182 -0.922 63 52 46
33.0127 18.4209 69.2600 0.514 -0.093 -0.853 99 88 82
33.5681 18.3578 69.7083 0.606 -0.203 -0.769 122 109 103
33.7942 18.3314 69.8810 0.614 -0.204 -0.763 116 103 97
34.3771 18.2363 69.9553 0.514 -0.074 -0.855 131 121 112
35.6296 18.1139 71.2387 0.535 -0.293 -0.792 146 132 121
40.2223 17.5298 74.0908 0.423 -0.256 -0.869 147 149 135
40.3405 17.5156 74.1756 0.405 -0.282 -0.870 140 142 128
42.9577 17.1685 75.6045 0.571 -0.275 -0.774 105 111 109
44.7768 17.0151 77.8033 0.630 -0.430 -0.647 123 131 133
45.0398 16.9774 77.9091 0.371 -0.179 -0.911 101 110 109
45.5238 16.9201 78.2678 0.119 -0.522 -0.844 83 92 88
46.4545 16.8635 79.6941 0.355 -0.221 -0.909 169 180 153
46.5797 16.8479 79.7764 0.361 -0.234 -0.903 154 165 136
46.7094 16.8303 79.8417 0.364 -0.228 -0.903 125 136 103
47.6007 16.6722 79.7803 0.406 -0.310 -0.860 100 108 71
47.7291 16.6549 79.8472 0.406 -0.310 -0.860 93 100 66
48.4947 16.6438 81.5062 0.518 -0.644 -0.563 55 57 43
48.6062 16.6355 81.6557 0.543 -0.611 -0.576 58 59 51
48.7540 16.6095 81.6482 0.500 -0.468 -0.729 56 57 52
49.1059 16.5763 82.0262 0.751 -0.484 -0.449 52 53 48
50.8432 16.5430 85.6799 0.663 -0.676 -0.323 54 59 53
50.9659 16.5315 85.8122 0.269 -0.583 -0.767 54 62 55
51.1164 16.5046 85.8001 0.044 -0.249 -0.967 57 63 56
51.2645 16.4791 85.7998 0.138 -0.298 -0.945 52 58 51
51.3851 16.4688 85.9444 0.255 -0.568 -0.782 51 56 50
52.7479 16.2785 86.5569 0.942 -0.159 -0.294 72 90 91
52.8245 16.2955 86.9716 0.852 -0.457 -0.256 59 78 77
52.9185 16.3025 87.2899 0.864 -0.448 -0.229 45 63 62
53.4479 16.3055 88.5837 0.544 0.078 -0.836 31 49 51
56.4899 15.9695 91.1709 0.645 -0.067 -0.762 35 50 47
56.6048 15.9696 91.4451 0.220 -0.465 -0.857 36 51 48
57.6265 15.8985 92.8871 0.421 -0.694 -0.584 43 57 57
57.7622 15.8837 93.0051 0.368 -0.645 -0.669 29 44 41
57.9069 15.8611 93.0369 0.460 -0.230 -0.857 53 69 66
59.0304 15.8323 95.3001 0.504 0.334 -0.797 55 64 59
59.1726 15.8138 95.3823 0.504 0.334 -0.797 94 103 98
59.3141 15.7960 95.4739 0.515 0.331 -0.791 95 106 98
59.4451 15.7894 95.6930 0.642 0.085 -0.762 86 97 89
59.7147 15.7692 96.0528 0.629 -0.331 -0.704 100 113 103
62.2805 15.6653 100.6999 0.807 -0.524 -0.272 61 68 60
62.4168 15.6656 101.0266 0.794 -0.551 -0.258 61 68 61
62.6928 15.6640 101.6574 0.072 -0.018 -0.997 66 75 74
62.8462 15.6369 101.6480 0.053 -0.014 -0.998 51 59 61
63.7936 15.7271 105.1287 0.787 0.171 -0.593 49 59 60
-1.6057 24.1310 63.4952 -0.109 -0.507 -0.855 54 56 51
-1.3804 24.0915 63.4899 -0.109 -0.507 -0.855 51 53 48
0.0005 23.8174 63.0209 0.273 -0.786 -0.555 52 52 50
4.1909 23.0932 63.0460 0.407 -0.288 -0.867 68 67 63
4.3269 23.0748 63.1152 0.416 -0.348 -0.840 65 64 60
6.3244 22.7012 62.7461 0.525 -0.075 -0.848 57 56 54
6.3650 22.7064 62.9092 0.586 -0.192 -0.788 49 48 46
8.9389 22.2921 63.3336 -0.294 -0.528 -0.797 77 73 72
12.3959 21.6778 63.1274 0.248 -0.372 -0.894 99 96 89
12.6532 21.6755 63.6949 0.443 -0.133 -0.887 65 62 55
12.8008 21.6534 63.7420 0.447 -0.677 -0.584 84 81 74
13.5283 21.5457 63.9881 0.057 -0.648 -0.759 66 65 60
14.0257 21.4486 63.8417 -0.152 -0.559 -0.815 58 57 52
19.1115 20.5993 64.2685 0.230 -0.118 -0.966 122 111 107
19.0553 20.6319 64.5746 0.198 -0.283 -0.939 104 93 89
22.2655 20.1204 65.1744 0.355 -0.244 -0.902 34 21 14
30.4006 18.9199 67.9789 0.496 -0.130 -0.858 107 97 88
30.5202 18.9045 68.0504 0.496 -0.130 -0.858 113 103 94
30.9990 18.8429 68.3364 0.496 -0.130 -0.858 109 99 90
31.8910 18.7182 68.7362 0.499 -0.053 -0.865 98 85 77
33.1507 18.5443 69.3323 0.463 -0.309 -0.831 113 100 94
34.5290 18.3553 70.0001 0.631 0.011 -0.776 121 111 102
35.6923 18.2390 71.1433 0.296 -0.502 -0.812 124 110 99
37.0486 18.0592 71.8844 0.588 -0.183 -0.788 116 114 101
37.1895 18.0367 71.9107 0.507 -0.105 -0.856 113 111 98
40.1087 17.6905 74.0520 0.346 -0.308 -0.886 140 142 128
40.2372 17.6726 74.1093 0.341 -0.304 -0.890 136 138 124
40.3644 17.6550 74.1699 0.351 -0.290 -0.890 130 132 118
40.4884 17.6387 74.2391 0.343 -0.264 -0.902 123 127 112
43.5774 17.3071 76.9705 0.608 0.400 -0.686 94 102 105
45.0685 17.1175 77.8928 0.365 -0.176 -0.914 94 103 102
45.1083 17.1768 78.7811 -0.307 -0.166 -0.937 96 105 102
45.5874 17.0451 78.1278 0.166 -0.487 -0.857 86 95 91
46.4770 17.0083 79.7031 0.364 -0.228 -0.903 44 57 30
46.6087 16.9898 79.7608 0.364 -0.228 -0.903 86 99 71
46.7404 16.9713 79.8186 0.364 -0.228 -0.903 135 149 116
46.8635 16.9567 79.9091 0.523 -0.451 -0.723 143 154 121
47.6343 16.8110 79.7461 0.406 -0.310 -0.860 89 99 65
48.4269 16.7882 81.2822 0.495 -0.424 -0.759 71 76 52
48.5458 16.7762 81.3981 0.521 -0.430 -0.737 50 55 37
48.6704 16.7615 81.4900 0.519 -0.455 -0.724 59 62 51
48.8046 16.7420 81.5404 0.637 -0.463 -0.616 62 64 58
48.9128 16.7836 82.3503 0.530 -0.332 -0.780 53 55 50
49.4181 16.6737 82.0503 0.056 0.246 -0.968 49 50 45
50.8812 16.6867 85.6263 0.725 -0.639 -0.258 52 59 55
51.0034 16.6756 85.7618 0.461 -0.299 -0.836 55 66 60
51.1524 16.6494 85.7568 0.255 0.139 -0.957 62 72 67
51.2938 16.6275 85.7914 0.255 0.139 -0.957 66 76 71
51.5492 16.5993 86.0065 0.271 -0.456 -0.848 77 87 81
53.4785 16.4564 88.5743 0.550 0.100 -0.829 26 44 48
53.8240 16.3023 87.3095 0.466 -0.560 -0.685 31 48 54
53.7880 16.3964 88.4889 -0.211 -0.252 -0.944 28 45 52
53.9391 16.3685 88.4659 -0.228 -0.236 -0.945 61 78 85
56.5164 16.1260 91.2040 0.649 -0.072 -0.757 35 51 48
57.6699 16.0428 92.7697 0.421 -0.685 -0.595 38 52 52
57.8051 16.0285 92.8916 0.476 -0.220 -0.852 29 44 41
57.9422 16.0126 92.9971 0.462 -0.226 -0.858 54 70 67
58.6300 16.0514 95.1167 0.199 0.477 -0.856 57 66 61
59.0887 15.9633 95.0003 0.791 -0.487 -0.371 40 49 44
59.2066 15.9697 95.3611 0.566 0.046 -0.823 35 45 39
59.3488 15.9512 95.4441 0.564 0.051 -0.824 71 82 74
59.4824 15.9421 95.6323 0.692 -0.148 -0.707 93 106 97
59.6204 15.9285 95.7702 0.692 -0.148 -0.707 84 97 88
59.7660 15.9066 95.8145 0.407 -0.051 -0.912 88 101 91
59.9119 15.8843 95.8553 0.413 -0.037 -0.910 97 110 100
60.0558 15.8642 95.9193 0.664 -0.126 -0.737 97 110 101
60.1877 15.8581 96.1446 0.442 0.055 -0.895 95 107 97
62.5921 15.8240 101.2776 0.730 -0.585 -0.354 69 78 73
62.7293 15.8256 101.6175 0.137 -0.256 -0.957 56 65 64
62.8769 15.8091 101.7400 0.148 -0.252 -0.956 39 47 49
63.0335 15.7756 101.6541 0.137 -0.223 -0.965 34 42 44
4.2423 23.2523 63.2059 0.360 -0.412 -0.837 63 62 57
6.3184 22.8725 62.9647 0.147 -0.258 -0.955 58 57 53
12.4684 21.8089 63.0567 0.268 -0.384 -0.884 94 91 84
12.6342 21.8312 63.7286 0.417 -0.072 -0.906 81 80 75
12.7748 21.8109 63.7841 0.411 -0.074 -0.908 106 105 100
12.9434 21.7833 63.8070 0.372 -0.075 -0.925 104 103 98
14.1539 21.5647 63.7032 -0.070 -0.594 -0.801 86 87 81
14.6394 21.4865 63.7864 0.316 -0.687 -0.654 65 66 60
15.0384 21.4312 63.9716 -0.236 -0.800 -0.552 68 67 62
16.9004 21.1204 64.1479 0.696 0.178 -0.695 135 124 118
17.4184 21.0324 64.1755 0.132 -0.261 -0.956 133 123 114
17.5798 21.0060 64.1983 0.135 -0.261 -0.956 117 107 98
19.1369 20.7390 64.2517 0.163 -0.580 -0.798 131 120 118
22.2725 20.2642 65.1843 0.379 -0.385 -0.841 83 70 62
22.5574 20.2207 65.2653 0.350 -0.364 -0.863 65 52 44
22.6772 20.2055 65.3384 0.350 -0.376 -0.858 169 156 148
22.8253 20.1821 65.3703 0.348 -0.384 -0.855 140 130 121
23.3203 20.0975 65.3906 0.235 -0.390 -0.890 127 117 107
28.8113 19.2541 66.8682 0.341 -0.397 -0.852 98 83 78
30.4032 19.0636 68.0056 0.533 -0.117 -0.838 103 93 84
30.5517 19.0392 68.0245 0.426 -0.230 -0.875 108 98 89
30.6749 19.0227 68.0895 0.436 -0.244 -0.866 97 87 78
30.7743 19.0137 68.1984 0.602 -0.071 -0.795 101 91 82
30.8994 18.9966 68.2600 0.486 -0.128 -0.864 103 93 84
32.9316 18.7133 69.1844 0.322 -0.455 -0.830 95 84 78
33.0471 18.6993 69.2648 0.319 -0.258 -0.912 90 79 73
33.1620 18.6855 69.3466 0.346 -0.300 -0.889 84 71 65
34.5111 18.5064 70.0780 0.277 -0.029 -0.961 126 116 107
34.7764 18.4671 70.1687 0.283 -0.148 -0.948 123 113 104
34.9257 18.4418 70.1783 0.304 -0.175 -0.936 128 118 109
35.0544 18.4235 70.2316 0.283 -0.146 -0.948 130 120 110
35.0267 18.4581 70.6227 0.381 -0.325 -0.865 106 92 82
35.2557 18.4313 70.7941 0.398 -0.297 -0.868 110 96 85
35.7402 18.3688 71.0806 0.296 -0.502 -0.812 117 103 92
36.8969 18.2051 71.5755 0.483 -0.436 -0.759 159 152 139
37.1701 18.1902 72.0043 0.343 -0.281 -0.896 121 119 106
37.2984 18.1722 72.0606 0.342 -0.292 -0.893 122 120 107
44.5860 17.3265 77.6140 0.449 0.028 -0.893 91 99 101
44.7064 17.3125 77.7047 0.459 0.020 -0.888 102 110 112
44.8399 17.2928 77.7511 0.771 0.127 -0.625 111 119 121
44.9614 17.2783 77.8382 0.821 -0.006 -0.571 102 110 112
45.0957 17.2582 77.8816 0.357 -0.163 -0.920 87 96 95
45.0428 17.3204 78.5777 -0.005 -0.158 -0.987 95 104 103
45.1284 17.3221 78.7959 -0.241 -0.260 -0.935 95 104 101
46.5193 17.1441 79.6371 0.328 -0.244 -0.913 133 145 123
46.9183 17.0866 79.7940 0.333 -0.472 -0.817 137 147 120
47.8283 17.0075 80.8356 -0.020 0.026 -0.999 73 82 55
47.9585 16.9899 80.9019 0.335 -0.187 -0.923 72 77 52
48.4475 16.9354 81.3039 0.678 -0.352 -0.645 81 86 63
48.5637 16.9249 81.4318 0.678 -0.352 -0.645 44 48 31
48.6972 16.9058 81.4858 0.580 -0.372 -0.724 59 62 53
48.9343 16.9319 82.3713 0.549 -0.330 -0.768 54 56 51
49.0608 16.9168 82.4615 0.440 -0.405 -0.802 51 53 50
49.2895 16.8488 82.0918 0.281 0.060 -0.958 51 53 48
49.4050 16.8391 82.2287 0.055 0.229 -0.972 49 51 46
50.9580 16.8083 85.3726 0.517 -0.798 -0.311 50 59 54
51.0375 16.8215 85.7283 0.461 -0.299 -0.836 54 65 61
51.1848 16.7962 85.7327 0.077 -0.221 -0.972 62 74 70
51.3163 16.7799 85.8195 0.255 0.139 -0.957 63 75 71
52.7499 16.5455 86.0174 0.903 -0.248 -0.351 67 88 94
52.9603 16.5456 86.5004 0.667 -0.564 -0.487 46 66 72
53.0765 16.5392 86.6814 0.681 -0.538 -0.497 38 58 65
53.5225 16.5985 88.4793 0.642 -0.630 -0.437 25 42 49
53.8229 16.5440 88.4506 -0.126 -0.664 -0.737 38 55 63
53.9602 16.5253 88.5185 -0.057 -0.569 -0.821 48 62 71
56.0682 16.2943 90.3038 0.539 0.258 -0.802 36 48 46
56.1551 16.3159 90.7866 0.474 -0.474 -0.742 34 49 46
56.2793 16.3088 90.9765 0.770 -0.462 -0.440 34 50 49
57.5775 16.2018 92.5388 0.796 -0.362 -0.485 47 61 61
57.7135 16.1866 92.6498 0.759 -0.372 -0.535 28 42 42
57.8332 16.1865 92.9218 0.567 -0.019 -0.824 30 45 42
57.9757 16.1657 92.9748 0.462 -0.226 -0.858 54 69 66
58.4490 16.1765 94.1984 0.305 -0.864 -0.402 53 65 61
59.1336 16.1072 94.8525 0.692 -0.659 -0.295 42 51 46
59.2580 16.1070 95.1355 0.714 -0.565 -0.414 25 36 30
59.3870 16.1028 95.3738 0.591 0.006 -0.806 27 40 31
59.5262 16.0876 95.4927 0.589 0.008 -0.808 85 99 89
59.6543 16.0850 95.7514 0.687 -0.147 -0.712 115 131 121
59.8042 16.0581 95.7414 0.463 0.079 -0.883 95 111 101
59.9423 16.0447 95.8812 0.451 0.110 -0.885 88 104 94
60.9796 16.0372 98.1531 0.411 -0.549 -0.728 107 117 96
62.1056 15.9463 99.5328 0.778 -0.492 -0.390 76 83 76
62.2510 15.9292 99.6406 0.834 -0.407 -0.372 64 71 63
62.7768 15.9669 101.3367 0.726 -0.606 -0.325 56 65 64
63.0615 15.9538 101.8157 -0.044 -0.078 -0.996 35 43 45
63.4510 16.0248 103.6380 0.973 -0.183 -0.141 46 55 54
63.5325 16.1661 105.6794 0.954 -0.258 -0.151 47 57 56
64.1256 16.1555 106.8954 0.145 -0.789 -0.597 54 63 59
64.3758 16.3005 109.3709 0.661 0.202 -0.723 115 126 118
64.5214 16.3240 110.0117 0.366 -0.481 -0.797 121 131 123
64.6818 16.3027 110.0983 0.366 -0.481 -0.797 110 120 111
-0.3224 24.2166 63.3293 -0.041 -0.604 -0.796 63 63 61
-0.7776 24.3446 63.9513 0.661 -0.695 -0.282 59 59 57
4.2970 23.3953 63.1590 0.360 -0.412 -0.837 63 62 57
6.3340 23.0232 62.9569 0.143 -0.265 -0.954 73 72 68
8.2941 22.6993 63.2007 0.009 -0.467 -0.884 60 57 52
8.5086 22.6604 63.1826 0.022 -0.464 -0.886 61 58 53
8.7374 22.6340 63.3581 -0.374 -0.435 -0.819 65 61 58
12.4921 22.0028 63.6867 0.506 0.097 -0.857 83 82 77
12.6683 21.9731 63.7014 0.413 -0.090 -0.907 83 82 77
12.8449 21.9433 63.7153 0.301 -0.251 -0.920 91 90 85
17.4079 21.1832 64.2042 -0.005 -0.512 -0.859 129 119 110
19.8970 20.7832 64.6591 0.577 -0.393 -0.716 148 131 124
23.6701 20.1804 65.3940 0.492 -0.174 -0.853 145 135 125
25.8175 19.8873 66.4539 0.753 -0.159 -0.639 103 90 84
28.8098 19.3772 66.6246 0.342 -0.212 -0.916 99 84 79
30.7105 19.1561 68.0562 0.421 -0.258 -0.870 118 108 99
31.2756 19.1131 68.7739 0.519 -0.283 -0.806 146 133 125
33.0912 18.8297 69.2134 0.255 -0.234 -0.938 95 84 78
33.2352 18.8064 69.2367 0.441 -0.212 -0.872 89 76 70
34.2069 18.7042 70.1074 0.445 -0.399 -0.802 119 109 100
34.3265 18.6890 70.1813 0.445 -0.399 -0.802 126 116 107
34.5029 18.6546 70.1354 0.280 -0.461 -0.842 130 120 111
35.1734 18.5538 70.3473 0.164 -0.418 -0.894 114 100 90
35.2892 18.5659 70.7634 0.398 -0.297 -0.868 114 100 89
35.6852 18.5077 70.9059 0.175 -0.406 -0.897 118 104 93
35.8221 18.4866 70.9422 0.175 -0.406 -0.897 119 105 94
35.8854 18.4912 71.1428 0.390 -0.268 -0.881 121 108 96
36.0110 18.4740 71.2048 0.447 -0.264 -0.854 141 132 119
36.1746 18.4435 71.1808 0.348 -0.334 -0.876 136 128 115
36.9382 18.3368 71.5263 0.483 -0.436 -0.759 157 150 137
37.1823 18.3050 71.6657 0.552 -0.317 -0.772 160 158 145
42.3782 17.6816 75.3338 0.099 -0.464 -0.880 110 113 104
42.3684 17.7551 76.2552 0.267 0.408 -0.873 107 112 108
42.9306 17.6645 76.3549 0.272 0.289 -0.918 104 110 106
43.0460 17.6884 76.9214 0.055 -0.842 -0.536 105 111 107
44.4823 17.4859 77.5473 0.170 0.158 -0.973 95 103 105
44.7110 17.4632 77.7702 0.399 0.352 -0.847 97 105 107
44.8496 17.4413 77.7998 0.770 0.215 -0.601 100 108 110
44.9787 17.4235 77.8614 0.821 -0.006 -0.571 98 106 108
45.1737 17.4564 78.7224 0.091 -0.245 -0.965 98 107 104
46.3070 17.3127 79.4237 0.716 -0.227 -0.660 58 69 51
46.9540 17.2252 79.7526 0.295 -0.464 -0.835 97 104 86
47.9884 17.1323 80.8839 0.335 -0.187 -0.923 52 60 41
48.3796 17.0792 81.0814 0.406 -0.415 -0.814 103 108 88
48.5002 17.0665 81.1891 0.507 -0.420 -0.753 84 88 72
48.6032 17.0628 81.3733 0.671 -0.347 -0.655 40 44 30
48.7331 17.0455 81.4426 0.580 -0.372 -0.724 60 63 55
48.9047 17.1071 82.6196 0.689 -0.234 -0.686 58 60 55
49.0649 17.0745 82.5611 0.718 -0.031 -0.696 51 53 50
49.3028 17.0525 82.8134 0.215 0.171 -0.962 49 51 46
49.4251 17.0399 82.9257 0.220 0.156 -0.963 41 43 38
51.8100 16.8381 85.6931 0.255 -0.474 -0.843 67 82 79
52.1852 16.7370 85.2372 0.544 -0.184 -0.819 60 83 89
52.3209 16.7177 85.2936 0.533 -0.205 -0.821 54 77 83
52.4457 16.7050 85.4113 0.559 -0.138 -0.817 58 81 87
52.5631 16.6970 85.5726 0.494 -0.414 -0.765 66 89 95
52.6926 16.6816 85.6652 0.442 -0.428 -0.788 66 89 95
53.1194 16.6792 86.5936 0.837 -0.465 -0.287 38 58 67
53.2191 16.6838 86.8767 0.837 -0.465 -0.287 49 69 78
53.3738 16.6527 86.8252 0.438 -0.242 -0.865 52 72 81
53.6182 16.6332 87.1242 0.372 -0.523 -0.767 30 48 58
54.1086 16.6706 88.7067 -0.281 0.179 -0.943 48 62 71
55.8042 16.4982 90.3021 0.561 0.275 -0.781 33 43 44
55.9466 16.4763 90.3404 0.546 0.247 -0.801 33 43 42
56.0871 16.4558 90.3934 0.546 0.246 -0.801 31 43 41
56.1792 16.4742 90.8368 0.464 -0.458 -0.758 25 39 39
56.3124 16.4600 90.9534 0.756 -0.482 -0.444 24 40 39
56.7179 16.4130 91.2608 0.737 -0.247 -0.629 42 58 57
57.1442 16.3486 91.3916 0.306 -0.391 -0.868 50 64 64
57.6211 16.3452 92.4198 0.800 -0.442 -0.407 29 43 43
57.8049 16.3973 93.5016 0.741 -0.514 -0.432 35 50 47
57.9291 16.3946 93.7458 0.762 -0.486 -0.427 43 58 55
58.0720 16.3743 93.8066 0.717 -0.609 -0.339 49 64 61
58.7822 16.2770 94.1522 0.260 -0.885 -0.387 46 57 49
59.1744 16.2549 94.7503 0.705 -0.630 -0.326 43 54 46
59.3032 16.2504 94.9822 0.777 -0.539 -0.326 31 44 35
59.4266 16.2524 95.2850 0.772 -0.545 -0.327 34 47 40
59.5555 16.2489 95.5292 0.780 -0.515 -0.357 98 113 106
59.9369 16.2479 96.3733 0.802 -0.361 -0.477 101 118 110
61.2953 16.1725 98.4581 0.725 -0.249 -0.642 118 124 96
62.8142 16.1262 101.2766 0.718 -0.540 -0.438 57 66 65
62.9530 16.1265 101.5926 0.708 -0.539 -0.457 40 48 50
63.1015 16.1084 101.6935 -0.007 -0.106 -0.994 34 42 44
63.2900 16.0058 100.7990 -0.402 -0.322 -0.857 35 44 43
63.3669 16.1419 102.7199 0.964 -0.218 -0.153 35 44 43
64.4138 16.4755 109.3592 0.694 0.200 -0.692 108 118 109
-0.8582 24.5431 64.2344 -0.074 -0.507 -0.859 61 61 59
-0.6473 24.5228 64.4459 -0.404 -0.334 -0.852 61 60 58
7.0076 23.0376 62.6871 0.631 -0.332 -0.701 60 59 55
12.6144 22.1214 63.5585 0.435 -0.201 -0.878 68 67 62
14.8076 21.7402 63.6121 0.377 -0.394 -0.838 115 116 110
17.4957 21.3071 64.1083 -0.032 -0.524 -0.851 121 111 102
22.3537 20.5328 65.1085 0.543 -0.384 -0.747 135 122 114
23.7118 20.3136 65.3538 0.421 -0.383 -0.822 132 122 112
23.8973 20.2790 65.3284 0.389 -0.285 -0.876 125 112 103
25.4849 20.0297 65.7027 0.127 -0.205 -0.970 147 134 128
28.8659 19.5252 66.8310 0.335 -0.449 -0.828 86 71 66
31.1891 19.2396 68.3753 0.477 -0.175 -0.861 86 73 65
32.6285 19.0308 68.9305 0.572 -0.181 -0.800 136 125 119
33.2611 18.9427 69.2217 0.483 -0.176 -0.858 84 71 65
34.6929 18.7609 70.1002 0.414 -0.241 -0.878 109 99 90
34.8268 18.7408 70.1428 0.288 -0.140 -0.947 108 98 89
35.1102 18.7214 70.5259 0.362 -0.369 -0.856 114 100 90
35.2104 18.7130 70.6423 0.396 -0.387 -0.833 114 100 89
35.5104 18.6885 70.9962 0.776 -0.078 -0.626 118 104 93
35.7028 18.6478 70.9105 0.213 -0.359 -0.909 118 104 93
41.6709 17.9135 74.8676 0.505 -0.140 -0.852 129 132 123
44.2418 17.7056 77.9374 -0.085 -0.204 -0.975 96 104 106
44.7296 17.6081 77.7883 0.368 0.163 -0.915 98 106 108
45.7597 17.4672 78.2942 0.083 0.211 -0.974 76 85 81
46.7439 17.3925 79.5301 0.339 -0.566 -0.751 56 66 57
46.8690 17.3770 79.6117 0.302 -0.539 -0.786 46 54 43
50.7176 17.0987 84.6196 0.861 -0.124 -0.493 56 58 53
50.8171 17.1005 84.8627 0.585 -0.712 -0.388 56 58 53
50.9656 17.0740 84.8568 0.250 -0.888 -0.385 54 59 55
51.4472 16.9721 84.6403 -0.154 -0.254 -0.955 65 80 75
51.5799 16.9544 84.7113 -0.134 -0.361 -0.923 61 76 71
51.7339 16.9239 84.6677 -0.158 -0.375 -0.914 54 66 62
51.8755 16.9007 84.6895 -0.134 -0.361 -0.923 62 74 70
52.0076 16.8833 84.7622 -0.108 -0.450 -0.886 65 81 77
52.2688 16.8503 84.9251 0.462 -0.690 -0.557 63 87 91
52.3930 16.8379 85.0435 0.462 -0.690 -0.557 57 80 86
52.4689 16.8559 85.4378 0.321 -0.284 -0.903 60 84 88
52.6050 16.8363 85.4923 0.321 -0.284 -0.903 67 91 95
52.7452 16.8141 85.5223 0.332 -0.357 -0.873 66 90 94
54.0919 16.7009 87.0758 0.528 -0.577 -0.623 52 66 75
54.2223 16.6858 87.1745 0.583 -0.590 -0.558 47 61 70
54.3371 16.6818 87.3778 0.143 -0.699 -0.701 50 64 73
54.8364 16.8041 90.0197 0.513 -0.823 -0.245 31 41 50
55.8175 16.6645 90.4328 0.370 0.224 -0.902 33 43 44
55.9583 16.6439 90.4854 0.370 0.224 -0.902 33 43 42
56.1092 16.6152 90.4574 0.546 0.246 -0.801 32 44 42
56.2101 16.6272 90.8318 0.416 -0.514 -0.750 29 43 43
56.3479 16.6093 90.9109 0.760 -0.493 -0.424 27 43 42
56.5989 16.5943 91.2776 0.799 -0.437 -0.413 39 58 56
56.7324 16.5804 91.3979 0.756 -0.478 -0.447 42 58 57
57.0444 16.5134 91.2451 0.356 -0.545 -0.759 46 60 60
57.1640 16.5117 91.4878 0.223 -0.394 -0.892 46 60 60
57.6027 16.5459 92.8884 0.933 -0.309 -0.186 29 43 43
57.9746 16.5377 93.6068 0.688 -0.627 -0.365 39 51 49
58.1048 16.5296 93.7935 0.741 -0.637 -0.214 45 57 55
58.2244 16.5324 94.0934 0.440 -0.734 -0.518 44 56 54
58.5898 16.4113 93.3770 0.637 -0.560 -0.530 53 65 61
58.9649 16.4046 94.1222 0.624 -0.629 -0.464 45 58 49
59.3421 16.4003 94.9019 0.680 -0.619 -0.392 32 48 38
59.4684 16.3994 95.1697 0.691 -0.606 -0.394 43 58 51
59.5957 16.3979 95.4329 0.701 -0.492 -0.517 103 119 112
59.8619 16.3829 95.8325 0.663 -0.542 -0.516 114 133 127
59.9867 16.3861 96.1492 0.721 -0.452 -0.525 119 138 131
61.4749 16.3143 98.5353 0.798 -0.191 -0.571 98 104 76
62.6875 16.3340 101.4649 0.986 0.115 -0.117 65 71 66
63.3301 16.1571 100.6605 0.470 0.326 -0.820 38 47 46
63.4433 16.2155 101.6452 0.738 0.458 -0.496 37 46 45
64.4488 16.6604 109.4642 0.696 0.185 -0.694 101 109 98
64.6062 16.6474 109.6482 0.699 0.173 -0.694 113 121 110
5.4181 23.4702 62.6707 0.229 0.224 -0.947 61 61 53
11.4140 22.4378 62.9965 0.572 -0.456 -0.682 84 81 75
11.5787 22.4111 63.0254 0.446 -0.375 -0.813 87 84 77
11.9668 22.3765 63.4444 0.658 -0.593 -0.465 68 64 55
12.6355 22.2667 63.5462 0.413 -0.204 -0.888 60 59 54
23.7746 20.4405 65.2823 0.490 -0.323 -0.810 133 123 113
25.4230 20.2141 66.0800 0.219 -0.472 -0.854 147 134 128
25.7411 20.1596 66.1012 0.608 -0.357 -0.709 107 94 88
27.6178 19.8616 66.5128 0.527 0.127 -0.840 96 83 74
30.9911 19.4018 68.1875 0.536 -0.374 -0.757 97 87 78
31.4607 19.3436 68.4921 0.352 -0.378 -0.856 124 111 103
32.9325 19.1235 68.9824 0.428 -0.433 -0.793 120 110 103
33.1770 19.0911 69.1156 0.273 -0.354 -0.895 122 111 105
33.2519 19.0910 69.2774 0.572 -0.025 -0.820 112 99 93
34.9984 18.8531 70.1458 0.286 -0.102 -0.953 105 95 86
35.6633 18.8084 71.0414 0.634 -0.169 -0.755 117 104 93
35.8057 18.7853 71.0665 0.641 -0.233 -0.731 118 105 93
36.9168 18.6380 71.6699 0.465 -0.099 -0.880 141 133 121
40.8505 18.1238 73.8934 0.584 -0.361 -0.727 125 129 114
42.2250 18.0825 76.3757 0.490 0.326 -0.808 116 121 114
42.3317 18.0742 76.5053 0.513 0.293 -0.807 118 123 117
42.4847 18.0463 76.4949 0.245 0.340 -0.908 118 125 118
44.6719 17.7469 77.5651 0.521 -0.179 -0.835 95 103 104
44.7959 17.7314 77.6439 0.231 -0.256 -0.939 97 106 107
46.7896 17.5260 79.4501 0.339 -0.566 -0.751 75 85 79
46.9134 17.5111 79.5369 0.302 -0.539 -0.786 71 80 73
49.3503 17.2947 82.1724 0.532 0.476 -0.700 46 48 43
51.6058 17.1031 84.7194 -0.051 -0.447 -0.893 60 72 68
52.7584 17.1119 87.3354 -0.114 0.370 -0.922 48 71 77
53.0917 17.0344 87.1058 0.919 -0.357 -0.168 49 70 75
53.7074 16.9107 86.9221 0.117 -0.152 -0.982 54 73 79
53.8316 16.9000 87.0605 0.568 -0.292 -0.769 62 79 86
54.3602 16.8355 87.4154 0.369 -0.008 -0.929 41 54 63
54.5037 16.8113 87.4293 0.122 0.068 -0.990 53 66 75
54.8976 16.9338 89.7954 0.514 -0.822 -0.247 29 39 48
55.9611 16.8195 90.7018 0.132 -0.211 -0.969 34 44 43
56.1018 16.7992 90.7581 0.149 -0.234 -0.961 34 46 46
56.2434 16.7782 90.8073 0.420 -0.466 -0.779 48 62 62
57.0951 16.6489 91.0673 0.557 -0.468 -0.686 42 56 56
58.1928 16.6299 93.2220 0.285 0.323 -0.902 40 50 49
58.2927 16.6524 93.7164 0.446 -0.766 -0.462 35 45 44
59.2746 16.5288 94.3300 0.671 -0.669 -0.320 37 50 41
59.3885 16.5413 94.7319 0.587 -0.706 -0.397 38 54 44
59.5123 16.5435 95.0279 0.657 -0.650 -0.382 56 73 65
59.6317 16.5515 95.3868 0.700 -0.513 -0.496 96 114 108
59.7580 16.5523 95.6705 0.764 -0.498 -0.411 93 112 106
59.8976 16.5375 95.7920 0.710 -0.510 -0.485 108 127 123
60.0237 16.5396 96.0925 0.717 -0.473 -0.512 115 135 130
60.1790 16.5056 96.0114 0.599 -0.385 -0.702 133 150 144
60.3005 16.5145 96.3855 0.582 -0.321 -0.748 134 148 137
60.4415 16.4990 96.5018 0.582 -0.321 -0.748 117 127 112
60.5945 16.4676 96.4475 0.719 -0.400 -0.568 96 104 88
61.5100 16.4734 98.5103 0.573 -0.469 -0.673 91 97 71
62.2349 16.3854 99.0040 0.448 -0.608 -0.656 68 76 63
62.3584 16.4068 99.5366 0.873 -0.300 -0.386 60 66 54
63.1752 16.4299 101.5978 0.680 0.384 -0.625 49 55 55
63.4673 16.4054 101.9325 0.743 0.468 -0.479 43 52 51
63.8390 16.5473 104.4896 0.968 -0.086 -0.236 50 65 60
64.4101 16.5960 106.3315 0.516 -0.574 -0.636 75 85 75
64.5641 16.5801 106.4709 0.516 -0.574 -0.636 133 141 128
-1.9287 24.9735 63.2130 0.060 -0.495 -0.867 58 58 58
-1.7420 24.9429 63.2434 0.060 -0.495 -0.867 58 58 58
-1.1718 24.8154 62.9262 0.260 -0.427 -0.866 57 57 55
-1.0169 24.7927 62.9839 0.260 -0.427 -0.866 59 59 57
1.4677 24.3764 63.2796 -0.056 -0.795 -0.604 61 60 58
5.4384 23.6203 62.6578 0.157 -0.372 -0.915 74 74 66
5.6393 23.5849 62.6603 0.132 -0.279 -0.951 91 90 85
5.8280 23.5526 62.6745 0.017 -0.061 -0.998 100 99 94
11.3087 22.5997 62.9122 0.433 -0.539 -0.722 104 103 98
11.4982 22.5663 62.9137 0.421 -0.417 -0.806 95 95 87
11.6304 22.5482 62.9787 0.098 -0.611 -0.786 85 85 77
12.1863 22.4508 62.9940 0.243 -0.481 -0.842 69 66 59
20.0188 21.1898 64.5482 0.407 -0.252 -0.878 138 123 116
20.1461 21.1725 64.6123 0.407 -0.252 -0.878 136 121 114
24.2771 20.4970 65.3059 0.262 0.003 -0.965 105 92 83
25.1142 20.3690 65.5538 0.342 -0.108 -0.933 139 126 117
25.6323 20.2956 65.7778 0.550 -0.310 -0.776 119 106 98
26.9467 20.1059 66.3030 0.535 -0.392 -0.748 102 87 80
30.1544 19.6538 67.7165 0.386 -0.105 -0.917 121 108 100
31.2348 19.5150 68.3559 0.407 -0.402 -0.820 95 82 76
31.3593 19.4981 68.4188 0.389 -0.424 -0.818 109 96 90
31.4849 19.4809 68.4798 0.363 -0.437 -0.823 106 93 87
33.1714 19.2383 69.1637 0.234 -0.446 -0.864 112 99 91
33.2719 19.2296 69.2743 0.199 -0.393 -0.898 108 97 91
34.9078 19.0038 70.0518 0.411 -0.463 -0.785 97 84 78
35.0213 18.9908 70.1379 0.286 -0.102 -0.953 115 102 96
38.8099 18.5251 72.6325 0.185 0.077 -0.980 132 134 111
40.0056 18.4109 73.8150 0.199 -0.112 -0.974 128 132 118
42.4805 18.2006 76.5779 0.254 0.338 -0.906 120 128 117
44.7876 17.8472 77.2536 0.138 -0.460 -0.877 95 106 102
44.9460 17.8158 77.2130 0.269 -0.442 -0.856 95 106 102
46.7246 17.6677 79.2349 0.511 -0.572 -0.641 75 85 84
48.2362 17.5274 80.7802 0.690 -0.117 -0.714 66 67 67
49.3523 17.4538 82.2821 0.532 0.476 -0.700 47 49 44
50.7988 17.2582 83.0191 -0.406 -0.336 -0.850 47 49 44
50.9361 17.2369 83.0569 -0.362 -0.351 -0.864 55 57 52
50.9294 17.3017 83.8240 0.906 -0.342 -0.250 61 63 58
51.2330 17.2426 83.7608 0.914 -0.344 -0.216 59 65 59
52.3360 17.2751 86.5169 0.098 0.243 -0.965 74 98 103
52.8006 17.1106 85.5252 0.266 -0.623 -0.735 60 84 88
53.7458 17.0534 86.8599 0.118 0.002 -0.993 55 74 81
54.3910 16.9838 87.4023 0.495 0.028 -0.868 35 49 58
54.5222 16.9686 87.4995 0.211 0.216 -0.953 44 57 66
54.7914 17.1037 89.7073 0.196 0.696 -0.690 27 37 46
55.9998 16.9661 90.6347 0.126 -0.248 -0.961 41 51 50
56.1360 16.9496 90.7267 0.149 -0.234 -0.961 40 52 50
56.2767 16.9292 90.7822 0.223 -0.253 -0.941 45 60 57
56.4193 16.9072 90.8220 0.223 -0.253 -0.941 44 60 59
56.5447 16.9001 91.0052 0.901 -0.100 -0.422 42 61 59
57.4869 16.7975 91.7849 0.355 -0.869 -0.343 36 50 50
57.5487 16.8529 92.5860 0.864 -0.442 -0.241 28 42 42
57.6745 16.8482 92.7984 0.738 -0.470 -0.484 29 43 43
57.9301 16.8359 93.1971 0.735 -0.442 -0.514 21 35 35
58.0469 16.8413 93.5132 0.339 0.331 -0.881 31 43 41
58.1968 16.8137 93.5004 0.271 0.302 -0.914 37 49 47
58.3294 16.8036 93.6634 0.457 -0.016 -0.890 37 49 47
58.4704 16.7851 93.7414 0.265 0.257 -0.930 46 58 56
59.1897 16.6764 93.9700 0.641 -0.666 -0.381 34 46 39
59.9210 16.7072 95.9088 0.834 -0.432 -0.344 107 126 122
60.0440 16.7140 96.2540 0.837 -0.426 -0.343 110 129 123
60.1666 16.7222 96.6156 0.778 -0.480 -0.405 113 132 128
60.3163 16.6958 96.6184 0.391 -0.575 -0.719 121 135 126
60.4622 16.6744 96.6715 0.410 -0.576 -0.707 125 131 116
60.6138 16.6449 96.6403 0.681 -0.469 -0.563 115 119 104
61.5514 16.6223 98.3771 0.577 0.214 -0.788 99 103 80
61.6982 16.6015 98.4396 0.491 -0.150 -0.858 98 103 81
61.8390 16.5905 98.6088 0.505 -0.162 -0.848 98 103 81
62.1517 16.5155 98.3731 0.038 -0.811 -0.584 71 77 62
62.2651 16.5537 99.0767 0.900 -0.091 -0.427 63 69 58
63.2064 16.6030 101.6884 0.934 -0.138 -0.330 46 52 52
63.3420 16.6150 102.1246 0.943 -0.199 -0.266 45 51 49
63.4785 16.6275 102.5673 0.955 -0.206 -0.215 46 51 52
64.0358 16.6744 104.3273 0.987 -0.087 -0.138 54 68 63
-1.6468 25.0809 63.1619 0.027 -0.489 -0.872 64 64 62
-1.0784 24.9528 62.8462 0.254 -0.453 -0.855 65 65 63
0.0391 24.8704 64.2283 -0.186 -0.321 -0.929 76 75 73
0.2318 24.8380 64.2513 0.020 -0.553 -0.833 73 69 68
1.8684 24.4666 63.3089 -0.109 -0.803 -0.585 65 64 60
4.1109 24.0035 62.5592 0.123 0.330 -0.936 82 83 77
4.4671 23.9275 62.4123 -0.107 -0.016 -0.994 81 82 76
5.4938 23.7612 62.6100 0.157 -0.372 -0.915 70 69 64
5.6880 23.7274 62.6190 0.101 -0.336 -0.936 83 82 77
5.8703 23.6966 62.6396 0.098 -0.332 -0.938 87 86 81
6.0068 23.6779 62.7061 0.067 -0.306 -0.950 75 74 69
6.3373 23.6426 62.9858 0.013 0.302 -0.953 53 52 48
9.9176 23.0386 63.3914 0.369 -0.720 -0.588 55 54 50
11.6136 22.7039 63.0083 0.256 -0.446 -0.858 84 84 76
12.3367 22.6147 63.4787 0.241 0.317 -0.917 66 63 56
12.4954 22.5894 63.5138 0.321 0.069 -0.945 66 65 60
15.0467 22.1407 63.5863 0.548 -0.175 -0.818 112 112 104
16.7681 21.8254 63.4868 0.397 0.095 -0.913 109 98 92
16.9278 21.7990 63.5122 0.318 0.070 -0.946 131 120 114
20.0849 21.3376 64.7128 0.394 0.043 -0.918 144 129 124
20.1974 21.3247 64.7975 0.367 -0.062 -0.928 131 118 112
20.8543 21.2123 64.8530 0.469 -0.621 -0.628 141 128 119
22.7289 20.9007 65.1202 0.324 -0.311 -0.893 123 113 101
23.4616 20.7634 65.0413 0.325 -0.504 -0.800 116 103 94
26.0259 20.3840 65.9617 0.633 -0.082 -0.770 102 89 81
26.8979 20.2439 66.1428 0.522 -0.400 -0.753 93 78 71
26.9873 20.2381 66.2627 0.535 -0.392 -0.748 101 86 79
27.2733 20.1927 66.3288 0.287 -0.115 -0.951 121 106 99
33.6216 19.3063 69.2331 0.369 -0.241 -0.898 110 99 93
39.0885 18.6281 72.7413 0.499 -0.266 -0.825 116 119 101
40.6759 18.4241 73.6762 0.003 -0.402 -0.916 129 133 119
41.1674 18.4669 75.2196 0.719 -0.120 -0.685 135 139 122
46.4733 17.8087 78.6240 0.241 -0.451 -0.860 103 117 114
47.3578 17.6942 79.1351 0.559 -0.455 -0.693 81 91 87
47.4281 17.7066 79.4303 0.483 -0.447 -0.753 69 79 73
48.0248 17.6949 80.5515 0.679 -0.187 -0.710 51 58 56
48.5110 17.6428 80.9603 0.482 -0.247 -0.840 50 55 53
48.6358 17.6281 81.0500 0.509 -0.232 -0.829 44 49 45
48.7827 17.6014 81.0442 0.427 -0.322 -0.845 39 41 38
48.8083 17.7503 82.8602 0.917 0.376 -0.135 40 42 37
49.2775 17.6567 82.7416 0.570 0.465 -0.678 44 49 43
50.5169 17.4667 83.1084 -0.369 -0.294 -0.882 34 36 31
52.5219 17.3923 86.4583 0.070 0.222 -0.973 67 91 95
52.6682 17.3666 86.4629 0.070 0.222 -0.973 61 85 89
52.8337 17.3278 86.3529 0.550 -0.301 -0.779 55 79 83
53.7766 17.2014 86.8461 0.112 0.006 -0.994 48 67 74
53.9077 17.1859 86.9393 0.561 -0.303 -0.771 25 42 50
54.4321 17.1246 87.3203 0.446 -0.194 -0.873 40 54 63
54.5563 17.1146 87.4641 0.547 -0.049 -0.836 38 51 60
55.7788 17.1352 90.2878 0.357 -0.872 -0.334 27 38 34
55.9169 17.1168 90.3612 0.023 -0.757 -0.653 35 45 44
56.0351 17.1155 90.5944 0.133 -0.244 -0.961 35 45 44
56.3054 17.0843 90.7959 0.261 -0.234 -0.936 39 54 51
56.4437 17.0660 90.8711 0.846 -0.224 -0.484 39 55 54
56.5693 17.0591 91.0543 0.894 -0.190 -0.405 37 56 54
56.6903 17.0565 91.2791 0.901 -0.100 -0.422 33 49 48
56.8118 17.0539 91.5042 0.906 -0.118 -0.406 32 48 48
57.0284 16.9642 90.8998 0.773 -0.365 -0.518 32 46 47
57.4180 16.9328 91.3500 0.784 0.181 -0.594 38 52 52
57.5554 16.9154 91.4345 0.027 -0.542 -0.840 35 49 49
57.6541 17.0548 93.2922 0.017 0.268 -0.963 28 42 42
57.8090 17.0223 93.2344 -0.055 0.097 -0.994 28 42 42
57.9543 16.9993 93.2684 -0.043 0.246 -0.968 25 39 39
58.0793 16.9968 93.5036 0.208 0.221 -0.953 34 46 44
58.2275 16.9708 93.5078 0.337 0.308 -0.890 40 52 50
58.3498 16.9719 93.7796 0.312 0.190 -0.931 46 58 56
58.5037 16.9397 93.7229 0.284 0.286 -0.915 44 56 54
59.0407 16.7568 92.6917 -0.181 -0.374 -0.910 44 57 48
59.1663 16.7539 92.9220 0.293 -0.626 -0.723 43 56 47
59.7005 16.8626 95.3355 0.918 -0.221 -0.329 78 97 92
59.8206 16.8719 95.6992 0.920 -0.238 -0.312 93 112 110
60.1936 16.8895 96.6937 0.762 -0.403 -0.507 104 124 119
60.3289 16.8825 96.8970 0.503 -0.678 -0.537 102 116 107
60.4686 16.8700 97.0437 0.503 -0.678 -0.537 103 109 95
62.2982 16.7170 99.0928 0.642 -0.533 -0.551 59 65 54
62.4226 16.7392 99.6184 0.613 -0.697 -0.372 55 61 47
63.0957 16.7793 101.5131 0.906 -0.296 -0.301 41 46 49
63.2356 16.7812 101.8305 0.923 -0.202 -0.327 43 49 49
63.3703 16.7969 102.3004 0.947 -0.199 -0.251 45 51 49
64.0665 16.8582 104.4954 0.986 -0.098 -0.137 54 67 63
2.2792 24.5362 63.1249 0.864 -0.257 -0.433 67 66 61
6.0563 23.8199 62.6638 0.067 -0.306 -0.950 60 59 55
7.0202 23.6510 62.7072 0.332 -0.127 -0.935 53 52 48
8.7439 23.3658 62.9798 0.486 0.098 -0.869 72 67 63
12.1938 22.7503 63.0080 -0.025 -0.588 -0.808 75 70 66
12.2912 22.7603 63.3265 0.490 -0.370 -0.789 72 69 64
12.4194 22.7433 63.3962 0.458 -0.118 -0.881 70 67 62
12.5230 22.7332 63.4941 0.506 -0.497 -0.705 75 72 67
14.9439 22.3003 63.5023 0.308 -0.391 -0.868 85 82 77
15.1534 22.2792 63.6928 0.538 -0.216 -0.815 87 84 77
16.2898 22.0332 63.2002 0.586 -0.064 -0.808 80 77 70
16.3949 22.0224 63.2931 0.613 -0.039 -0.789 81 75 69
16.5054 22.0100 63.3796 0.613 -0.039 -0.789 74 66 59
16.9302 21.9464 63.5239 0.318 0.070 -0.946 130 119 113
16.7115 22.0284 64.0213 0.416 -0.806 -0.421 134 123 117
16.8935 22.0153 64.2471 -0.027 -0.777 -0.628 133 122 116
20.6316 21.3643 64.4625 0.541 -0.490 -0.683 142 129 123
20.8245 21.3274 64.4361 0.007 -0.422 -0.907 147 134 126
22.4623 21.0856 65.0335 0.408 -0.209 -0.889 144 134 122
22.7577 21.0383 65.0992 0.324 -0.300 -0.897 123 113 101
22.9233 21.0092 65.1057 0.005 -0.117 -0.993 135 125 115
23.3691 20.9373 65.1976 0.285 -0.310 -0.907 134 121 112
23.5280 20.9101 65.2126 0.289 -0.343 -0.894 125 112 103
24.9042 20.6808 65.4121 0.400 -0.295 -0.867 137 127 115
25.0379 20.6611 65.4620 0.367 -0.224 -0.903 140 130 120
25.1669 20.6429 65.5190 0.367 -0.224 -0.903 123 110 101
25.8532 20.5613 65.9977 0.481 -0.510 -0.713 150 137 129
26.0498 20.5218 65.9482 0.527 -0.346 -0.776 96 83 75
27.3832 20.3255 66.4420 0.499 0.135 -0.856 113 98 91
28.1506 20.2178 66.7876 0.450 -0.399 -0.799 88 73 66
28.6646 20.1452 67.0132 0.372 -0.511 -0.775 134 121 115
36.1220 19.1387 70.8340 0.320 -0.182 -0.930 110 100 91
39.7788 18.6995 73.3385 0.476 -0.406 -0.780 122 125 108
39.9187 18.6766 73.3642 0.449 -0.361 -0.817 126 129 113
42.6892 18.4539 76.5381 0.176 0.551 -0.816 118 127 106
43.2875 18.3058 76.0635 0.380 -0.399 -0.835 123 132 111
43.4141 18.2888 76.1293 0.380 -0.399 -0.835 123 132 111
43.5126 18.2845 76.2841 0.422 -0.178 -0.889 124 133 115
47.6686 17.8370 79.7306 0.115 -0.337 -0.934 64 79 72
48.7910 17.8660 82.4004 0.786 0.207 -0.583 40 45 39
48.9045 17.8587 82.5508 0.786 0.207 -0.583 42 44 39
49.0182 17.8513 82.7016 0.786 0.207 -0.583 40 42 37
49.1392 17.8399 82.8206 0.766 0.210 -0.608 37 42 36
49.3034 17.8039 82.7442 0.481 -0.050 -0.875 37 42 36
51.5676 17.5569 84.5843 0.834 0.295 -0.466 68 84 83
52.8836 17.4626 86.2252 0.595 -0.364 -0.717 59 79 86
53.2831 17.4113 86.4610 0.761 -0.360 -0.539 52 72 81
53.9359 17.3359 86.9426 0.358 -0.467 -0.808 33 50 58
54.0730 17.3161 86.9983 0.574 -0.314 -0.756 35 50 57
54.4636 17.2724 87.3025 0.345 -0.289 -0.893 45 59 68
55.9743 17.2469 90.1469 0.391 -0.721 -0.572 28 40 38
56.0667 17.2679 90.5833 0.149 -0.236 -0.960 29 39 38
57.5548 17.2196 93.1165 0.768 -0.094 -0.634 27 41 41
57.8501 17.1688 93.1400 0.018 0.261 -0.965 28 42 42
58.2548 17.1317 93.5510 0.338 0.308 -0.889 41 53 51
58.3773 17.1331 93.8218 0.312 0.190 -0.931 45 57 57
58.6489 16.9723 92.5202 0.457 -0.716 -0.528 45 57 55
59.0889 16.8921 92.5040 0.048 -0.351 -0.935 43 56 49
59.2109 16.8933 92.7723 0.284 -0.600 -0.748 43 56 47
59.2711 16.9681 93.7646 0.605 -0.399 -0.689 37 50 41
59.9851 17.0260 95.9216 0.921 -0.214 -0.324 94 114 108
60.2238 17.0530 96.7304 0.744 -0.364 -0.560 100 118 113
60.3701 17.0312 96.7820 0.490 -0.660 -0.569 103 116 107
61.2068 16.9631 97.7312 0.713 -0.424 -0.559 91 95 78
62.3347 16.8740 99.0416 0.647 -0.483 -0.590 63 69 57
63.4122 16.9467 102.1255 0.917 -0.170 -0.361 45 51 51
63.5437 16.9739 102.7136 0.807 0.089 -0.584 45 50 51
63.6856 16.9773 103.0482 0.737 0.053 -0.674 47 60 56
63.9747 16.9756 103.6302 0.987 -0.086 -0.133 53 66 59
64.1002 17.0343 104.5722 0.986 -0.091 -0.139 50 65 58
-9.1604 26.8578 64.3135 0.313 -0.844 -0.436 56 58 55
0.1452 25.1144 63.5305 -0.141 -0.211 -0.967 62 62 60
0.9175 24.9298 63.0103 0.085 -0.108 -0.990 69 69 67
1.8725 24.7671 63.1152 0.373 -0.769 -0.518 77 76 74
6.5878 23.9042 62.9523 0.041 -0.186 -0.982 54 53 49
7.0408 23.8001 62.6943 0.332 -0.127 -0.935 55 54 52
7.0659 23.8114 62.8743 0.201 0.170 -0.965 57 56 52
8.7504 23.5177 62.9822 0.466 0.092 -0.880 72 67 63
12.3166 22.9047 63.3093 0.486 -0.375 -0.789 79 74 71
12.5926 22.8653 63.4263 0.496 -0.497 -0.712 87 84 79
12.7375 22.8437 63.4769 -0.424 -0.355 -0.833 110 107 102
16.9146 22.0991 63.5579 0.286 -0.349 -0.892 144 133 127
17.2235 22.0888 64.0743 -0.298 -0.401 -0.866 127 116 110
19.5048 21.6616 63.8844 0.329 -0.364 -0.871 113 101 89
20.6837 21.4956 64.4096 0.541 -0.490 -0.683 129 116 110
22.3897 21.2328 64.9131 0.339 -0.451 -0.826 132 122 110
22.9468 21.1483 65.0924 0.208 -0.493 -0.845 132 122 112
23.4068 21.0718 65.1635 0.285 -0.310 -0.907 138 125 116
23.5838 21.0389 65.1518 0.248 -0.488 -0.837 133 120 111
29.4906 20.1385 67.0024 0.590 -0.118 -0.799 131 118 110
29.5968 20.1276 67.0963 0.586 -0.137 -0.799 133 120 112
29.7087 20.1149 67.1805 0.586 -0.137 -0.799 127 114 105
29.8155 20.1039 67.2740 0.553 -0.344 -0.759 122 109 100
35.6677 19.3661 70.8655 0.224 -0.303 -0.926 108 98 89
35.8163 19.3404 70.8766 0.233 -0.304 -0.924 108 98 89
36.0144 19.2959 70.7766 0.484 -0.139 -0.864 108 98 89
36.3861 19.2462 70.9716 0.138 -0.163 -0.977 114 100 97
39.1646 18.8940 72.6546 0.358 -0.133 -0.924 123 126 106
43.3183 18.5259 76.9743 0.657 -0.526 -0.540 124 133 116
43.8022 18.3862 76.3748 0.576 -0.188 -0.795 129 135 121
46.4835 18.0663 78.2264 0.523 -0.568 -0.636 111 132 125
46.5994 18.0551 78.3359 0.489 -0.600 -0.634 122 143 136
49.3491 17.9397 82.6565 0.466 -0.097 -0.879 37 42 38
51.2352 17.6025 82.6815 -0.419 -0.671 -0.611 52 57 53
52.8017 17.5384 85.1607 0.856 0.166 -0.490 71 91 98
52.9557 17.5813 85.9651 0.469 -0.354 -0.809 60 80 89
54.3608 17.4378 87.2099 0.702 -0.428 -0.570 26 40 49
55.3418 17.3745 88.4991 0.309 -0.394 -0.866 23 38 45
55.4797 17.3548 88.5573 0.309 -0.394 -0.866 24 37 44
55.6197 17.3333 88.5996 0.291 -0.414 -0.863 23 37 41
56.0776 17.4387 90.7376 0.643 0.074 -0.762 24 36 36
58.0779 17.1207 91.2158 -0.288 -0.213 -0.933 28 42 42
58.5543 17.2670 93.8578 0.773 -0.626 -0.104 45 57 57
59.4410 17.1087 93.8714 0.553 -0.522 -0.649 37 50 41
59.7173 17.2403 95.9359 0.945 -0.072 -0.319 54 69 62
59.8782 17.1988 95.7935 0.746 -0.200 -0.635 70 86 79
60.0233 17.1776 95.8491 0.731 -0.196 -0.653 87 103 96
60.2875 17.1706 96.3108 0.301 0.145 -0.942 95 111 104
61.8067 17.0725 98.3062 0.684 -0.491 -0.540 104 109 86
61.9419 17.0719 98.5766 0.657 -0.489 -0.573 95 100 77
62.0831 17.0615 98.7474 0.657 -0.489 -0.573 68 73 54
62.2245 17.0511 98.9185 0.657 -0.489 -0.573 64 70 55
62.3672 17.0387 99.0699 0.686 -0.512 -0.518 64 70 58
62.5056 17.0354 99.3166 0.679 -0.690 -0.250 64 70 58
62.9050 17.0656 100.4789 0.823 -0.533 -0.196 43 50 42
63.4871 17.0138 101.0815 0.593 -0.783 -0.187 45 51 51
63.6065 17.0696 101.9616 0.797 -0.565 -0.212 45 50 51
63.7367 17.1025 102.6027 0.833 -0.524 -0.177 47 60 56
64.5540 17.2929 106.4447 0.853 -0.368 -0.370 126 135 124
64.7022 17.3006 106.8356 0.850 -0.371 -0.374 125 131 118
0.9671 25.0768 62.9694 0.085 -0.048 -0.995 72 72 70
1.8276 24.9206 62.9623 0.375 -0.725 -0.578 76 75 73
2.0282 24.8853 62.9731 0.694 -0.570 -0.440 76 75 73
2.3308 24.8408 63.0880 0.940 -0.257 -0.223 80 79 74
