ply
format ascii 1.0
element vertex 881
property float x
property float y
property float z
property float nx
property float ny
property float nz
property uchar diffuse_red
property uchar diffuse_green
property uchar diffuse_blue
end_header
55.1914 21.4250 86.5379 0.742 0.017 -0.670 185 211 222
56.5643 21.7583 88.0306 0.816 -0.435 -0.381 49 76 93
57.0368 21.9225 88.6522 0.733 -0.416 -0.537 29 51 71
57.4735 21.8364 88.7074 0.805 0.278 -0.524 28 47 62
61.7699 22.0599 91.5881 0.317 -0.137 -0.939 77 88 80
61.8400 21.7597 90.9716 0.232 -0.162 -0.959 78 88 80
-14.3918 29.6541 65.3481 0.217 0.089 -0.972 63 65 62
-2.9763 25.9729 63.6929 0.035 -0.447 -0.894 66 62 61
-2.8680 25.9908 63.7921 0.070 -0.457 -0.887 71 65 65
-2.7043 25.9660 63.8293 0.059 -0.456 -0.888 71 65 65
3.2138 24.0254 62.9014 0.599 -0.348 -0.721 71 63 61
3.3702 24.0013 62.9359 0.600 -0.328 -0.730 77 69 67
3.6847 23.9513 63.0021 0.207 -0.354 -0.912 79 71 69
3.9489 23.9433 63.1317 0.356 -0.139 -0.924 86 81 78
4.0926 23.9296 63.1818 0.261 -0.155 -0.953 85 81 78
4.5486 23.7593 63.0651 -0.380 -0.284 -0.880 76 72 69
6.5249 23.0378 62.5955 0.232 0.034 -0.972 66 62 61
9.0779 22.2097 62.2149 0.107 -0.734 -0.671 63 59 56
11.1876 22.2094 63.3874 0.009 -0.841 -0.542 79 74 71
15.2392 21.2681 63.5940 0.110 -0.328 -0.938 77 73 70
16.4899 20.8604 63.4032 -0.200 -0.216 -0.956 121 112 105
18.6161 20.6812 64.1962 0.246 -0.334 -0.910 105 92 86
18.9800 20.8264 64.7141 0.242 -0.762 -0.601 113 100 93
19.3030 20.7398 64.7054 0.177 0.083 -0.981 124 110 101
19.4731 20.6863 64.6837 0.051 -0.321 -0.946 118 104 95
22.2614 19.9976 64.7369 0.388 -0.297 -0.873 93 76 68
23.5842 19.8718 65.1991 -0.083 -0.592 -0.801 130 117 109
24.4349 19.8824 65.6951 0.479 -0.330 -0.813 127 114 106
24.5770 19.8568 65.7185 0.468 -0.365 -0.805 136 123 115
24.6804 19.8831 65.8332 0.080 -0.310 -0.947 112 97 90
28.5309 19.4913 67.1229 0.405 -0.606 -0.684 96 85 81
28.6535 19.4931 67.1949 0.578 -0.317 -0.752 82 71 67
30.8712 19.3152 68.0414 0.144 -0.469 -0.871 97 84 76
34.1810 19.2060 69.6445 0.672 -0.056 -0.738 67 58 53
34.6498 19.0154 69.4910 0.157 -0.525 -0.836 78 69 64
35.5838 19.4562 70.9687 0.461 -0.406 -0.789 106 95 91
36.1787 19.2613 70.8756 0.615 -0.314 -0.724 108 101 95
36.3145 19.2409 70.9068 0.293 -0.479 -0.828 107 100 94
38.6352 19.1833 72.0723 0.259 -0.555 -0.790 119 116 101
38.7712 19.1616 72.1008 0.240 -0.543 -0.805 99 96 81
38.9037 19.1497 72.1485 0.307 -0.510 -0.803 96 93 76
41.7532 19.5909 74.6924 0.567 -0.248 -0.785 130 133 116
41.9079 19.5042 74.5899 0.412 -0.484 -0.772 137 138 120
42.0396 19.5031 74.6608 0.412 -0.484 -0.772 136 137 119
48.3455 20.5805 80.5100 -0.792 -0.042 -0.609 134 151 143
50.1515 20.8993 82.2074 0.939 0.054 -0.339 114 138 125
50.2893 21.0280 82.5638 0.865 0.150 -0.478 105 132 117
50.4299 21.0890 82.7745 0.039 -0.970 -0.240 98 127 109
53.1272 20.6103 83.2338 0.713 -0.042 -0.700 98 119 112
53.2709 20.6400 83.3783 0.713 -0.042 -0.700 128 147 143
54.4445 21.0288 84.8762 0.692 -0.495 -0.525 129 149 157
55.0486 21.2860 85.7714 0.657 -0.631 -0.413 154 175 186
56.5986 21.9158 88.0026 0.826 -0.367 -0.428 38 63 82
56.7553 21.9680 88.2032 0.789 -0.398 -0.468 27 52 73
56.9137 22.0288 88.4236 0.781 -0.380 -0.496 27 49 71
57.1820 21.8242 88.1279 0.219 0.491 -0.843 25 46 62
57.8268 22.1023 89.0911 0.246 -0.512 -0.823 37 56 71
57.9655 22.0338 89.0193 0.273 -0.537 -0.798 37 56 71
58.1221 22.0680 89.1807 0.184 -0.068 -0.981 32 51 66
61.8605 22.4175 92.0194 -0.297 -0.652 -0.698 77 89 84
61.8718 21.9023 90.9057 0.159 -0.381 -0.911 77 88 82
65.3276 25.3341 100.2885 0.863 -0.505 -0.035 70 86 89
-19.0354 31.4598 66.2649 0.189 -0.513 -0.837 61 72 64
-17.3744 30.9155 66.0094 0.018 -0.441 -0.897 54 56 55
-12.5194 29.0076 64.5770 0.990 -0.070 -0.120 73 75 70
-12.3422 28.9797 64.6150 0.990 -0.067 -0.128 48 50 45
-12.5174 29.2006 64.9957 0.337 -0.706 -0.623 56 57 52
-9.6907 28.1606 64.3150 0.020 -0.932 -0.361 59 60 55
-9.2901 27.9690 64.1228 0.431 -0.365 -0.825 63 64 59
-8.7151 27.8459 64.1759 0.582 0.288 -0.761 52 52 50
-4.5119 26.5096 63.6183 -0.072 -0.264 -0.962 69 68 66
2.6943 24.1977 62.6173 0.170 -0.027 -0.985 68 67 63
3.0149 24.1429 62.6769 0.236 -0.532 -0.813 70 65 62
3.0890 24.1871 62.8135 0.298 0.172 -0.939 71 63 61
3.2631 24.1482 62.8261 0.302 0.159 -0.940 71 63 61
3.6298 24.0544 62.8269 0.211 -0.656 -0.724 80 72 70
3.7805 24.0348 62.8680 0.284 -0.635 -0.718 80 72 70
4.1865 24.0143 63.0491 0.007 -0.432 -0.902 85 81 78
4.5135 23.8448 62.8640 0.102 -0.386 -0.917 85 81 78
11.3059 22.2586 63.2035 0.155 -0.675 -0.722 82 77 74
13.2051 21.6174 62.8708 0.273 -0.340 -0.900 89 78 76
13.4901 21.5789 62.9458 0.143 -0.254 -0.957 96 86 84
13.6436 21.5487 62.9656 0.500 -0.288 -0.817 98 88 86
13.7828 21.5325 63.0079 0.234 -0.415 -0.879 85 77 75
13.9292 21.5092 63.0386 0.251 -0.426 -0.869 82 77 74
14.2114 21.4728 63.1166 0.234 -0.533 -0.813 73 72 70
15.1285 21.4165 63.5041 0.508 -0.433 -0.745 116 112 109
18.9367 20.4838 63.6006 0.288 -0.500 -0.817 113 100 94
19.3511 20.8484 64.6197 0.073 -0.535 -0.841 133 119 110
20.5566 20.4467 64.4199 0.033 -0.485 -0.874 135 120 113
22.5084 20.1588 64.8809 0.310 -0.173 -0.935 71 54 47
23.5163 20.2848 65.7133 0.343 -0.597 -0.725 114 101 93
24.4951 19.9688 65.5731 0.506 -0.369 -0.780 111 98 90
24.6148 19.9731 65.6487 0.506 -0.369 -0.780 122 109 101
27.5310 19.4973 66.2387 0.358 -0.568 -0.741 122 109 103
28.6723 19.6368 67.1744 0.573 -0.344 -0.744 93 82 78
30.9081 19.4293 67.9669 0.399 -0.305 -0.865 94 81 73
32.7480 19.2540 68.6094 -0.023 -0.339 -0.940 100 89 85
34.6737 19.1536 69.4616 0.181 -0.498 -0.848 87 78 73
35.1961 19.1095 69.6562 0.514 -0.639 -0.572 100 89 85
35.2160 19.6184 70.7684 0.126 -0.403 -0.906 101 90 86
35.7383 19.5915 71.0003 0.466 -0.450 -0.762 112 101 97
37.6664 19.5778 72.0414 -0.132 -0.169 -0.977 102 93 84
38.6628 19.3174 72.0313 0.181 -0.310 -0.933 138 135 120
38.9415 19.2549 72.0508 0.348 -0.557 -0.754 116 113 96
41.7820 19.7266 74.6489 0.244 -0.188 -0.951 143 146 129
41.9182 19.7093 74.6872 0.244 -0.188 -0.951 135 136 118
42.0485 19.7146 74.7709 0.334 -0.293 -0.896 135 136 118
42.5673 19.7492 75.1341 0.670 -0.261 -0.695 132 133 115
47.5641 20.5131 79.5619 -0.464 -0.509 -0.725 116 136 124
47.6749 20.7832 80.2079 0.835 -0.549 -0.038 119 139 130
49.7811 20.5252 80.8192 0.573 -0.585 -0.573 128 152 139
50.0660 20.3543 80.6078 -0.175 -0.482 -0.859 121 145 132
50.1873 20.9017 81.8597 0.824 -0.340 -0.453 113 137 124
50.3244 21.0387 82.2323 0.333 -0.834 -0.440 106 132 117
50.4633 21.1489 82.5478 0.040 -0.966 -0.254 97 126 109
50.7354 21.8853 84.2925 0.952 -0.234 -0.197 96 125 107
53.1604 20.7890 83.2669 0.715 -0.013 -0.699 99 120 113
53.3043 20.8199 83.4137 0.715 -0.013 -0.699 124 145 140
53.4495 20.8664 83.5948 0.709 -0.071 -0.702 122 141 139
53.5976 20.9544 83.8675 0.717 -0.068 -0.694 122 141 139
53.9104 21.3397 84.8749 0.501 -0.837 -0.218 130 149 147
54.0539 21.3208 84.9139 0.587 -0.751 -0.304 129 148 145
54.3401 21.2747 84.9729 0.204 -0.877 -0.436 122 141 146
54.4815 21.2329 84.9611 0.236 -0.811 -0.535 121 142 148
54.6246 21.2137 84.9990 0.012 -0.819 -0.573 123 142 148
55.0896 21.5193 85.9186 0.799 -0.546 -0.252 133 154 161
56.3137 21.9139 87.4523 0.760 -0.006 -0.650 190 215 229
56.4692 21.9656 87.6503 0.787 -0.407 -0.463 152 176 191
56.6287 22.0431 87.9068 0.731 -0.589 -0.345 96 120 134
57.1053 22.2342 88.5849 0.779 -0.402 -0.481 14 37 52
58.0076 22.2330 89.0834 0.119 0.152 -0.981 29 51 65
58.3083 22.2282 89.2401 0.145 0.176 -0.974 32 53 70
61.9236 22.1174 91.0079 -0.085 -0.368 -0.926 73 83 81
62.4733 22.9732 93.1652 0.979 -0.105 -0.177 60 70 69
63.2835 24.1202 96.0972 0.634 0.178 -0.752 44 58 55
63.5052 24.3209 96.6546 0.486 -0.014 -0.874 43 58 55
64.1827 25.4623 99.5007 0.984 0.020 -0.177 70 85 82
65.3976 24.1541 97.3445 0.898 -0.420 -0.134 72 87 94
63.3112 16.3236 79.2410 0.924 -0.149 -0.352 68 83 82
63.6366 16.4900 79.7818 0.849 -0.453 -0.271 56 71 73
63.8180 16.6190 80.1618 0.852 -0.456 -0.258 56 71 75
-19.6666 31.8748 66.3854 -0.497 -0.817 -0.291 57 68 62
-17.7634 31.1684 65.9194 0.249 -0.683 -0.687 55 61 59
-17.3997 31.0175 65.7959 0.189 -0.597 -0.780 70 74 73
-17.4052 31.1185 66.0104 0.165 -0.380 -0.910 82 83 85
-14.1042 29.9078 65.2335 -0.366 -0.616 -0.698 63 70 63
-12.7171 29.1290 64.3252 0.557 0.228 -0.799 59 64 58
-12.9256 29.3727 64.7345 0.693 -0.010 -0.721 67 72 66
-13.1434 29.6241 65.1552 -0.386 -0.416 -0.824 74 76 71
-4.3338 26.5433 63.4050 0.084 -0.456 -0.886 61 60 58
-4.1279 26.4867 63.3975 0.147 -0.692 -0.707 62 61 59
-3.9919 26.4836 63.4661 0.206 -0.658 -0.725 62 61 59
0.5120 24.7875 62.3106 0.006 -0.737 -0.676 67 63 62
0.8513 24.7203 62.3540 0.013 -0.750 -0.662 57 51 51
1.8947 24.5994 62.6724 -0.008 0.047 -0.999 77 73 70
2.0708 24.5598 62.6848 -0.035 0.013 -0.999 75 74 70
2.9902 24.3271 62.6934 0.248 -0.502 -0.828 69 64 61
3.0318 24.3987 62.8707 0.321 0.156 -0.934 71 63 61
3.6175 24.2286 62.8290 0.238 -0.457 -0.857 80 72 70
4.4135 23.9854 62.7466 0.161 -0.394 -0.905 85 81 78
4.5520 23.9755 62.8021 0.121 -0.384 -0.915 85 81 78
4.7807 23.8884 62.7415 0.171 -0.384 -0.907 87 83 80
9.2997 22.7816 62.8635 0.336 -0.137 -0.932 68 59 62
9.4397 22.7677 62.9112 0.299 -0.161 -0.941 69 60 61
9.5992 22.7357 62.9307 0.192 -0.394 -0.899 66 57 60
9.7003 22.7577 63.0343 0.451 -0.395 -0.800 63 54 57
9.8248 22.7582 63.1043 0.451 -0.395 -0.800 63 54 57
11.3886 22.3411 63.0733 0.159 -0.700 -0.696 78 70 68
13.7975 21.6783 62.9816 0.501 -0.274 -0.821 48 40 38
14.0848 21.6370 63.0519 0.440 -0.277 -0.854 52 48 47
14.2085 21.6364 63.1193 0.450 -0.290 -0.845 61 57 56
17.8830 21.1376 64.0826 -0.149 -0.285 -0.947 155 143 130
19.1735 20.9328 64.3572 0.402 -0.645 -0.650 136 123 115
21.1268 20.5146 64.5397 0.178 -0.573 -0.800 117 102 97
23.3311 20.3716 65.4542 0.482 -0.625 -0.613 133 120 112
23.3803 20.4680 65.6890 0.123 -0.668 -0.734 138 125 117
27.6924 19.6095 66.2313 0.543 -0.281 -0.791 124 111 105
27.8443 19.5655 66.2209 0.409 -0.218 -0.886 127 114 108
28.9899 19.3102 66.3062 0.218 -0.208 -0.953 104 93 89
29.2482 19.2886 66.4031 0.505 -0.469 -0.724 87 78 73
30.9483 19.5374 67.8818 0.089 -0.500 -0.861 98 85 77
31.0796 19.5251 67.9281 0.343 -0.602 -0.721 97 87 78
33.4530 19.2800 68.7163 0.028 -0.611 -0.791 109 99 90
34.7428 19.1965 69.2518 0.119 -0.488 -0.865 89 80 75
35.2503 19.1821 69.5022 0.600 -0.531 -0.598 97 86 82
35.7731 19.7085 70.9259 0.443 -0.449 -0.776 109 98 94
36.7678 19.4673 70.9581 0.405 -0.650 -0.643 112 105 99
37.7260 19.6292 71.8382 0.235 -0.669 -0.705 94 85 76
37.8521 19.6354 71.9215 -0.053 -0.048 -0.997 105 99 87
41.4480 19.7480 74.1581 0.547 -0.246 -0.800 153 155 141
41.5405 19.8882 74.5115 0.552 -0.285 -0.784 152 154 140
41.6616 19.9271 74.6625 0.344 -0.087 -0.935 152 154 140
41.8006 19.9002 74.6814 0.544 -0.298 -0.784 147 150 133
41.9347 19.8918 74.7377 0.377 -0.356 -0.855 139 140 122
42.0672 19.8890 74.8053 0.396 -0.349 -0.849 140 141 123
43.1071 19.9654 75.5464 -0.079 0.029 -0.996 120 121 103
43.2417 19.9573 75.6038 0.745 0.101 -0.660 123 126 106
44.6157 20.4505 77.4280 0.578 -0.460 -0.674 127 136 119
47.5449 21.1342 80.5250 0.658 -0.717 -0.232 116 136 124
47.7065 20.9145 80.1414 0.963 -0.246 -0.108 119 139 130
47.8589 20.7758 79.9273 0.886 0.158 -0.436 126 147 139
48.5694 20.5602 79.8569 0.753 -0.330 -0.569 128 148 139
48.7100 20.5277 79.8649 0.429 -0.163 -0.888 134 154 145
50.2164 21.1070 81.9481 0.755 -0.445 -0.481 114 137 124
50.9268 20.8428 81.7729 0.441 -0.719 -0.537 98 125 109
53.0479 20.8947 83.0610 0.212 -0.274 -0.938 30 53 43
54.5099 21.3347 84.8194 0.222 -0.836 -0.501 119 138 140
54.6565 21.3571 84.9491 0.248 -0.828 -0.503 119 138 141
54.8077 21.4262 85.1817 0.667 -0.569 -0.481 115 133 135
54.9617 21.5181 85.4651 0.739 -0.480 -0.472 119 137 140
55.5999 22.0131 86.8851 0.484 0.088 -0.870 130 151 158
55.8997 22.0459 87.1221 0.512 0.112 -0.852 153 175 181
56.1996 22.0728 87.3465 0.747 -0.006 -0.664 185 208 214
56.3445 22.0459 87.3687 0.776 -0.454 -0.438 190 212 221
56.4982 22.0849 87.5380 0.782 -0.437 -0.444 183 205 214
57.6176 22.5570 89.1756 0.783 -0.440 -0.439 29 52 68
57.7780 22.6126 89.3845 0.791 -0.420 -0.444 37 60 76
57.9171 22.5401 89.3053 0.417 -0.214 -0.883 37 60 74
58.0542 22.4587 89.2061 0.139 -0.546 -0.826 34 58 72
58.3568 22.4607 89.3782 0.331 -0.271 -0.904 28 54 67
61.4264 22.5677 91.3110 0.610 0.291 -0.737 73 89 88
63.3635 24.4271 96.3902 0.404 0.377 -0.834 42 58 55
63.5452 24.4934 96.6338 0.465 0.343 -0.816 42 58 55
64.5979 23.2797 94.6034 0.862 -0.505 -0.041 75 94 98
65.4230 23.8233 96.2318 0.845 -0.328 -0.421 75 92 99
63.6759 17.3591 81.3398 -0.471 -0.854 -0.221 75 90 93
-19.4204 31.8928 66.1365 -0.173 0.347 -0.922 51 64 57
-17.1726 31.2387 65.9791 0.392 0.111 -0.913 61 63 62
-13.0564 29.5442 64.6258 0.409 -0.669 -0.620 58 65 58
-5.1227 26.9104 63.3731 -0.073 -0.305 -0.949 70 69 67
0.9689 24.7894 62.1995 -0.011 -0.738 -0.675 73 69 68
3.5008 24.4911 62.9622 -0.061 -0.738 -0.672 85 77 75
4.3918 24.1673 62.7615 0.108 -0.056 -0.993 87 83 80
9.4699 22.9015 62.8601 0.291 -0.158 -0.944 73 64 65
9.6390 22.8605 62.8657 0.157 -0.395 -0.905 66 57 58
9.7237 22.8980 62.9931 0.285 -0.465 -0.838 63 54 55
9.8603 22.8872 63.0456 0.285 -0.465 -0.838 63 54 55
10.9924 22.4069 62.6429 0.453 -0.641 -0.620 77 68 69
13.6434 21.8701 62.9601 0.145 -0.123 -0.982 57 47 45
14.1089 21.7735 63.0108 0.269 -0.418 -0.868 46 40 40
14.2754 21.7294 63.0086 0.287 -0.389 -0.875 34 30 29
15.9004 21.4476 63.3042 0.015 -0.457 -0.889 134 128 127
17.9438 21.2328 63.9754 0.238 -0.269 -0.933 120 108 96
18.8136 20.8077 63.5457 0.238 -0.320 -0.917 118 105 99
19.1964 21.0698 64.3198 -0.180 -0.430 -0.885 130 117 109
23.7213 20.1898 64.9390 0.215 -0.363 -0.907 138 125 117
29.0105 19.4492 66.2805 0.218 -0.208 -0.953 119 108 104
34.3644 19.9188 70.2524 0.228 -0.654 -0.721 95 86 81
34.5298 19.8376 70.1700 0.134 -0.652 -0.746 94 85 80
34.6648 19.8204 70.2078 0.371 -0.198 -0.907 95 86 81
35.2823 19.8607 70.6362 0.249 -0.184 -0.951 106 95 91
35.8003 19.8431 70.8854 0.450 -0.447 -0.773 88 77 73
36.6816 19.5676 70.7826 0.238 -0.116 -0.964 101 94 88
37.7613 19.7437 71.7582 0.208 -0.713 -0.670 100 91 82
38.0378 19.6914 71.7992 0.154 -0.621 -0.768 147 141 129
38.1624 19.7015 71.8898 0.104 -0.554 -0.826 139 136 121
41.5709 20.0179 74.4559 0.395 -0.080 -0.915 152 154 141
41.8456 19.9753 74.5166 0.355 -0.273 -0.894 150 151 136
41.9846 19.9469 74.5328 0.318 -0.308 -0.897 147 148 132
42.1190 19.9361 74.5841 0.318 -0.308 -0.897 146 147 129
42.6129 20.0721 75.1490 0.756 -0.092 -0.648 144 145 129
42.9820 20.1943 75.6155 0.057 0.023 -0.998 128 129 113
43.1231 20.1593 75.6186 0.431 -0.312 -0.847 129 130 113
43.2580 20.1510 75.6756 0.444 -0.369 -0.816 130 133 114
43.8273 19.9771 75.6180 -0.038 -0.039 -0.999 138 141 124
47.6265 20.7777 79.4385 0.624 -0.733 -0.272 117 136 122
48.2905 21.0996 80.4964 -0.784 -0.031 -0.620 116 136 125
48.7421 20.6458 79.7735 0.409 -0.136 -0.902 134 151 141
50.8153 21.1166 81.9310 0.128 -0.461 -0.878 99 123 110
52.8112 21.4473 83.7455 0.097 0.072 -0.993 23 47 34
53.0804 21.0611 83.0665 0.176 -0.349 -0.920 36 61 48
53.9553 21.3537 84.1783 0.306 -0.392 -0.867 127 143 140
54.5443 21.5072 84.8337 0.689 -0.016 -0.724 118 138 136
55.9377 22.2370 87.1700 0.512 0.112 -0.852 145 163 166
56.3755 22.1793 87.2888 0.759 -0.551 -0.347 156 176 181
58.2389 22.6094 89.2429 0.365 -0.241 -0.899 28 56 68
58.8229 22.5005 89.3327 0.080 0.072 -0.994 33 61 73
58.9727 22.4938 89.4014 0.368 -0.233 -0.900 36 63 75
59.1220 22.4848 89.4648 0.368 -0.233 -0.900 38 61 77
61.8453 22.4417 90.8806 -0.238 0.231 -0.943 77 91 91
62.1218 22.3387 90.8129 -0.210 0.318 -0.924 64 76 76
63.0845 24.6148 96.2257 0.570 0.619 -0.540 50 62 62
64.1868 26.1070 100.0354 0.972 -0.010 -0.236 53 69 66
-18.4315 31.5995 65.6366 -0.287 0.243 -0.926 42 55 46
-16.2672 31.0892 65.7448 -0.075 0.020 -0.997 69 73 72
-12.9869 29.6717 64.5340 0.409 -0.669 -0.620 57 64 57
-12.5526 29.8564 65.1682 0.579 -0.056 -0.814 56 57 52
4.7755 24.1106 62.4905 0.380 -0.571 -0.728 85 81 78
8.2803 23.3515 62.8088 0.367 0.019 -0.930 61 56 53
9.3176 23.0889 62.8221 0.296 -0.398 -0.868 54 45 46
9.4635 23.0695 62.8615 0.392 -0.505 -0.769 46 37 38
9.6371 23.0242 62.8609 -0.072 -0.423 -0.903 52 43 44
9.7502 23.0354 62.9473 0.258 -0.519 -0.815 60 51 52
18.0954 21.0898 63.4108 0.443 -0.535 -0.720 112 99 90
19.1164 21.1835 64.1755 -0.033 -0.355 -0.934 124 111 103
23.7808 20.2772 64.8211 0.323 -0.573 -0.753 138 125 117
23.9188 20.2564 64.8531 0.312 -0.556 -0.771 143 130 122
24.0420 20.2551 64.9184 0.281 -0.635 -0.720 127 114 106
24.9997 20.2861 65.5142 0.238 -0.192 -0.952 126 111 104
31.9178 19.4931 67.6481 0.295 -0.236 -0.926 118 108 99
32.3463 19.8521 68.6512 0.299 -0.527 -0.795 106 95 89
32.4833 19.8299 68.6796 0.399 -0.475 -0.785 101 90 84
34.7097 19.9160 70.0948 0.351 -0.527 -0.774 101 92 85
34.8342 19.9212 70.1746 0.504 -0.572 -0.648 100 91 84
34.9668 19.9090 70.2219 0.503 -0.599 -0.623 100 91 84
35.0828 19.9332 70.3378 0.508 -0.596 -0.622 108 97 93
36.6826 19.7649 70.8633 0.480 -0.227 -0.848 92 84 81
36.8116 19.7609 70.9262 0.567 -0.283 -0.773 100 91 86
38.1955 19.8211 71.8200 0.109 -0.582 -0.806 135 129 115
39.7797 19.7051 72.4486 0.310 -0.107 -0.945 139 133 120
39.9129 19.6917 72.4938 0.310 -0.107 -0.945 145 140 127
39.8859 20.1820 73.5251 -0.383 -0.453 -0.805 124 123 110
42.8860 20.2971 75.4299 -0.529 -0.774 -0.348 146 144 129
43.8497 20.1456 75.6397 -0.026 -0.052 -0.998 140 141 125
47.9103 21.1615 80.0534 0.930 0.113 -0.350 131 149 135
48.1722 21.3515 80.6036 -0.553 -0.428 -0.715 121 139 124
51.5522 21.1107 81.9592 0.491 0.064 -0.869 90 117 102
54.4293 21.6239 84.6455 -0.328 -0.325 -0.887 119 138 134
56.1347 22.5122 87.4843 0.698 -0.171 -0.695 124 140 140
56.2843 22.5173 87.5779 0.704 -0.086 -0.705 132 150 152
59.4565 22.6273 89.5670 0.422 -0.243 -0.873 42 64 77
60.1000 22.7940 90.2788 0.083 -0.625 -0.776 34 50 64
63.1710 24.9494 96.5768 0.493 0.199 -0.847 45 59 59
-19.8260 32.5368 66.4419 -0.219 0.350 -0.911 45 60 53
-18.9747 32.0550 65.8887 -0.239 0.356 -0.903 22 35 26
-16.1870 31.2147 65.6434 -0.032 -0.157 -0.987 69 74 70
-9.7311 28.6873 63.8406 -0.210 0.135 -0.968 70 64 64
2.2452 25.0150 62.6547 0.173 -0.084 -0.981 78 72 69
2.5889 24.9418 62.6892 0.150 0.015 -0.989 83 78 75
4.8903 24.1748 62.3309 0.167 -0.577 -0.799 79 75 72
5.0000 24.1892 62.4222 0.249 -0.569 -0.783 74 70 67
8.2796 23.5146 62.8007 0.316 -0.013 -0.949 74 69 66
9.9408 23.1362 62.9144 0.206 -0.756 -0.621 56 47 48
10.8122 22.6644 62.3935 -0.122 -0.285 -0.951 62 52 51
10.9885 22.6143 62.3844 0.232 -0.389 -0.891 69 59 58
11.1200 22.6069 62.4414 0.327 -0.479 -0.815 74 64 63
11.8211 22.6484 62.9167 0.632 -0.208 -0.746 86 76 75
12.0518 22.6661 63.0816 0.361 -0.154 -0.920 77 67 65
12.2617 22.5820 63.0189 0.238 -0.742 -0.626 70 60 58
13.5883 22.1234 62.7776 0.358 -0.504 -0.786 68 60 57
15.5431 21.8878 63.3569 0.088 -0.246 -0.965 95 90 86
18.2746 21.1876 63.3781 0.371 -0.598 -0.710 134 121 111
18.4212 21.1602 63.4008 0.322 -0.568 -0.757 120 107 97
19.1298 21.3316 64.1562 0.308 -0.068 -0.949 113 100 91
21.8522 20.8710 64.6815 0.325 -0.170 -0.930 117 100 92
24.8648 20.4701 65.4940 0.173 -0.132 -0.976 91 76 69
25.0148 20.4331 65.4981 0.251 -0.179 -0.951 114 99 92
29.7337 20.2294 67.6718 0.383 -0.560 -0.735 83 73 66
32.3725 19.9857 68.6116 0.324 -0.470 -0.821 110 99 93
32.5224 19.9390 68.5952 0.397 -0.481 -0.782 101 90 84
35.1207 20.0433 70.2519 0.499 -0.600 -0.625 106 95 89
35.2675 19.9993 70.2395 0.262 -0.763 -0.591 114 103 97
38.2352 19.9226 71.7156 0.097 -0.572 -0.814 117 110 99
43.9570 19.9038 74.8359 0.486 -0.579 -0.654 140 141 125
46.7937 20.4971 77.6630 0.289 -0.903 -0.319 129 136 116
46.9279 20.5067 77.7574 0.289 -0.903 -0.319 124 134 113
47.0623 20.5162 77.8520 0.289 -0.903 -0.319 120 130 109
47.8039 21.2819 79.8880 0.942 -0.228 -0.245 131 144 127
47.9303 21.4180 80.2468 0.942 -0.228 -0.245 128 144 127
48.2064 21.4540 80.4758 -0.415 -0.700 -0.581 122 139 121
48.9435 20.8901 79.6852 0.365 0.018 -0.931 127 144 136
49.7733 20.8911 80.1455 0.322 -0.173 -0.931 144 161 155
51.7241 21.2288 81.9403 0.401 -0.055 -0.915 92 117 99
54.0257 21.7368 84.2906 0.355 -0.007 -0.935 126 143 137
54.1811 21.8871 84.6956 -0.186 -0.220 -0.958 124 143 137
54.3231 21.8494 84.6940 -0.152 -0.279 -0.948 125 142 136
54.4589 21.7388 84.5342 0.124 0.057 -0.991 121 137 134
54.5914 21.5991 84.3106 0.113 -0.014 -0.993 119 138 134
55.7718 21.8193 85.4302 0.454 -0.482 -0.750 126 140 141
55.9277 21.9044 85.6971 0.485 -0.513 -0.708 124 138 141
58.1917 23.1203 89.5303 0.517 -0.712 -0.475 27 52 63
58.6255 23.0015 89.5175 0.543 -0.139 -0.828 39 67 79
60.4466 22.9786 90.4747 0.208 -0.569 -0.796 38 52 61
61.2147 22.9933 90.9302 0.299 -0.200 -0.933 53 72 66
61.5347 23.0454 91.2176 0.566 -0.310 -0.764 69 89 87
63.1817 25.0212 96.3242 0.948 -0.285 -0.139 46 60 60
63.2151 24.5814 95.4083 0.971 -0.037 -0.237 42 56 56
63.4588 24.8625 96.1400 0.970 -0.005 -0.243 46 62 59
63.7249 25.2104 97.0260 0.962 0.019 -0.271 57 73 70
-16.1527 31.3721 65.5847 -0.261 -0.506 -0.822 70 73 69
-9.4709 28.8695 63.9789 -0.165 -0.247 -0.955 58 58 54
-9.2801 28.8291 63.9987 0.036 -0.483 -0.875 50 51 46
-9.1179 28.8097 64.0471 0.626 -0.590 -0.509 41 43 38
-8.9952 28.8195 64.1356 0.623 -0.584 -0.520 58 59 54
-5.4600 27.4748 63.2424 -0.151 -0.568 -0.809 63 59 56
-5.0533 27.2652 63.0235 0.201 -0.563 -0.802 64 60 57
-4.9275 27.2702 63.1034 0.186 -0.566 -0.803 69 68 64
-4.7326 27.2222 63.1093 0.176 -0.557 -0.812 72 71 69
-4.5918 27.2156 63.1731 0.198 -0.573 -0.795 72 71 69
-4.4130 27.1797 63.1958 -0.328 -0.519 -0.790 66 65 63
-2.1958 26.3712 62.7093 0.406 -0.600 -0.689 65 64 60
-2.0674 26.3728 62.7835 0.406 -0.600 -0.689 66 65 63
-1.9284 26.3661 62.8459 0.414 -0.548 -0.727 66 65 63
-1.7582 26.3346 62.8732 0.419 -0.617 -0.666 65 63 64
-1.6430 26.3468 62.9625 0.459 -0.602 -0.653 65 63 64
2.3219 25.1157 62.5465 -0.132 -0.940 -0.313 76 71 67
4.1915 24.6124 62.5136 -0.034 -0.673 -0.739 75 67 65
4.6564 24.5404 62.6177 0.360 -0.306 -0.881 71 70 66
4.8796 24.4569 62.5644 0.390 -0.346 -0.853 66 65 61
9.8768 23.2409 62.7495 0.263 -0.747 -0.610 49 41 39
10.0068 23.2362 62.8113 0.263 -0.747 -0.610 48 40 38
18.9922 21.5118 64.1214 0.416 -0.477 -0.774 131 117 106
22.1466 20.9754 64.7272 0.215 -0.718 -0.661 144 127 120
31.4500 20.0252 67.8496 0.156 -0.374 -0.914 145 132 126
32.4152 20.0879 68.5147 0.401 -0.522 -0.753 123 110 102
32.5462 20.0772 68.5641 0.393 -0.488 -0.779 117 104 96
32.8098 20.0522 68.6568 -0.035 -0.451 -0.892 100 87 79
34.9049 20.1528 70.0250 0.504 -0.572 -0.648 103 91 82
35.2750 20.1772 70.2808 0.504 -0.495 -0.708 101 88 80
35.3546 20.2850 70.5526 0.553 -0.457 -0.697 108 95 87
35.4824 20.2847 70.6224 0.423 -0.437 -0.794 103 90 82
35.6045 20.2977 70.7172 0.365 -0.492 -0.790 92 79 71
35.7341 20.2934 70.7798 0.365 -0.492 -0.790 86 73 65
35.8538 20.3127 70.8866 0.342 -0.504 -0.793 79 66 60
35.9952 20.2813 70.8981 0.263 -0.301 -0.917 81 68 63
36.1551 20.2055 70.8261 0.376 -0.385 -0.843 85 73 72
38.9304 19.9855 71.8917 0.413 -0.304 -0.858 105 95 88
43.8466 20.0756 74.7938 0.582 -0.519 -0.626 143 141 128
43.9859 20.0382 74.7917 0.633 -0.433 -0.642 135 133 120
47.8024 21.7621 80.5416 0.632 0.103 -0.768 122 138 119
47.9420 21.7687 80.6326 0.659 -0.187 -0.728 119 137 119
48.0881 21.7036 80.5755 -0.445 -0.675 -0.589 120 137 119
48.2369 21.5995 80.4375 -0.752 -0.404 -0.520 122 139 121
49.2448 21.1262 79.9927 0.685 -0.503 -0.527 140 157 149
49.3732 21.3178 80.4686 0.838 -0.179 -0.516 140 157 149
50.7684 21.4993 81.6219 0.001 -0.413 -0.911 122 143 134
52.6195 21.8803 83.4486 0.261 -0.599 -0.757 69 93 77
52.7621 21.8593 83.4828 0.214 -0.387 -0.897 62 86 70
53.1793 21.5814 83.1253 0.011 -0.317 -0.948 39 67 52
53.3376 21.8831 83.8505 0.019 -0.423 -0.906 38 64 49
53.4804 21.8629 83.8866 0.218 -0.386 -0.896 60 81 71
53.9117 21.8550 84.1077 0.715 -0.066 -0.696 102 118 115
54.0600 21.9146 84.3157 0.352 -0.018 -0.936 117 134 128
54.2075 21.9556 84.4837 0.073 0.089 -0.993 123 142 136
54.3506 21.9369 84.5231 0.106 0.044 -0.993 126 143 137
54.4952 21.9357 84.6003 0.132 0.059 -0.989 120 137 131
54.6348 21.8772 84.5537 0.438 -0.203 -0.876 116 133 127
54.9956 22.6378 86.3609 0.586 -0.621 -0.521 122 138 135
58.5443 23.3535 89.8315 0.673 -0.699 -0.242 52 80 94
58.6489 23.0970 89.3468 0.544 -0.553 -0.631 42 71 85
59.1024 23.0903 89.5828 0.468 -0.512 -0.721 45 72 85
59.7312 23.1900 90.1405 0.539 -0.541 -0.645 25 48 62
61.5562 23.1484 91.0590 0.506 -0.496 -0.706 69 90 85
61.6963 23.0984 91.0305 0.195 -0.310 -0.931 70 89 87
63.1785 25.0447 95.9634 0.843 -0.538 0.007 47 59 59
64.4463 26.5361 99.8160 0.757 -0.647 0.092 124 140 135
-19.5361 32.8082 66.3347 -0.239 0.356 -0.903 56 66 57
-18.0196 32.1595 65.8049 0.234 -0.010 -0.972 61 71 62
-17.6996 32.1364 65.9326 -0.133 -0.200 -0.971 57 62 58
-17.4070 32.0325 65.8749 -0.223 -0.409 -0.885 59 62 61
-9.7220 29.1284 63.9961 -0.221 -0.205 -0.953 67 66 64
-9.3524 28.9561 63.8369 -0.027 -0.495 -0.868 67 66 62
-9.2036 28.9465 63.8987 0.058 -0.563 -0.825 59 60 55
-9.0360 28.9230 63.9416 0.538 -0.681 -0.496 49 51 46
-8.9039 28.9258 64.0203 0.579 -0.621 -0.528 65 66 61
-6.7683 28.0320 63.3154 0.473 -0.039 -0.880 64 63 61
-6.6678 28.0572 63.4239 0.473 -0.001 -0.881 64 63 59
-4.9733 27.4752 63.1323 -0.251 -0.619 -0.745 65 64 60
-4.6556 27.3323 63.0066 0.263 -0.491 -0.830 66 65 63
-4.3508 27.3011 63.1088 -0.135 -0.628 -0.766 64 63 61
-1.5013 26.4011 62.7841 0.280 -0.243 -0.929 65 64 62
4.5257 24.5974 62.3078 -0.390 -0.454 -0.801 69 64 61
4.9665 24.4347 62.2082 0.215 -0.667 -0.714 67 66 62
10.9441 22.9790 62.4371 0.093 -0.421 -0.902 81 69 69
11.5520 22.8708 62.5443 0.589 -0.221 -0.778 84 72 72
17.8420 21.4480 63.0144 0.110 -0.407 -0.907 137 124 118
17.9770 21.4334 63.0582 0.468 -0.507 -0.724 143 130 124
18.3164 21.4641 63.3097 0.459 -0.400 -0.794 134 121 115
18.4670 21.4320 63.3252 0.323 -0.394 -0.861 138 125 118
19.0265 21.6359 64.0623 0.409 -0.465 -0.785 119 105 94
21.1010 21.0672 64.0082 0.532 -0.497 -0.685 142 127 120
21.2159 21.0763 64.0908 0.532 -0.497 -0.685 124 109 102
22.1546 21.1309 64.7226 0.560 -0.548 -0.621 115 98 91
22.3145 21.0840 64.7121 0.609 -0.471 -0.638 126 109 102
28.4867 20.3844 66.6396 0.281 -0.293 -0.914 96 81 76
29.1614 20.2947 66.8223 0.310 -0.522 -0.795 106 93 85
30.0328 20.2894 67.2912 0.364 -0.487 -0.794 122 109 100
31.4732 20.1632 67.8191 0.178 -0.405 -0.897 145 132 126
32.4436 20.2173 68.4674 0.421 -0.514 -0.748 128 115 106
33.2066 19.9495 68.3239 0.487 -0.333 -0.807 105 92 83
33.7328 20.1503 69.0365 0.455 -0.403 -0.794 99 86 78
34.6631 20.3195 69.9051 0.428 -0.480 -0.766 85 75 65
34.7930 20.3130 69.9630 0.393 -0.501 -0.771 89 79 69
35.1733 20.3149 70.1766 0.379 -0.486 -0.788 89 76 68
35.5707 20.2793 70.3204 0.241 -0.272 -0.932 102 89 81
38.2074 20.0671 71.3263 0.480 -0.165 -0.862 95 86 79
38.4094 20.2178 71.7547 0.089 -0.510 -0.855 98 87 81
38.6795 20.1815 71.8271 0.276 -0.361 -0.891 94 83 77
38.8125 20.1688 71.8735 0.276 -0.361 -0.891 99 88 82
39.8865 20.0352 72.1840 0.237 -0.176 -0.955 115 104 100
47.7111 21.7188 80.0376 0.834 -0.261 -0.486 121 135 114
47.8311 21.9282 80.5444 0.432 -0.887 -0.162 118 134 115
49.9612 21.4878 80.7908 -0.036 -0.258 -0.965 146 163 157
50.7996 21.6342 81.5607 0.001 -0.413 -0.911 134 155 146
51.0815 21.6412 81.7307 0.013 -0.543 -0.839 127 148 139
53.5081 21.9355 83.6868 0.740 0.021 -0.672 62 83 74
53.7986 21.9844 83.9498 0.820 -0.108 -0.563 66 83 77
53.9505 22.1022 84.2815 0.307 -0.274 -0.911 75 92 86
54.0925 22.0673 84.2861 0.268 -0.109 -0.957 91 108 102
54.2418 22.1319 84.5044 0.076 0.079 -0.994 103 122 116
54.3860 22.1244 84.5679 0.361 0.220 -0.906 114 131 125
54.5307 22.1229 84.6444 0.359 0.212 -0.909 117 134 128
55.2851 22.4071 85.6582 0.431 -0.004 -0.902 122 138 137
58.5707 23.4642 89.6930 0.631 -0.746 -0.210 102 130 142
58.6791 23.2289 89.2573 0.544 -0.553 -0.631 72 100 112
59.1335 23.2278 89.5054 0.468 -0.512 -0.721 52 79 91
59.2818 23.2108 89.5513 0.232 -0.551 -0.802 35 57 71
60.1835 23.1664 89.9545 0.381 -0.916 -0.124 60 76 89
61.7198 23.2096 90.8917 0.594 -0.697 -0.402 70 90 85
61.9016 23.3162 91.2162 0.304 -0.688 -0.659 75 91 88
62.0114 23.1552 90.9378 0.182 -0.671 -0.719 75 87 85
-20.1295 33.3022 66.6263 -0.552 -0.217 -0.805 57 66 60
-19.1117 32.8005 66.1350 -0.272 0.222 -0.936 55 64 55
-18.0741 32.3808 65.8265 0.305 -0.016 -0.952 60 70 61
-17.6750 32.3027 65.8824 -0.274 0.013 -0.962 64 71 64
-17.3815 32.1977 65.8240 -0.272 0.033 -0.962 65 70 66
-17.1103 32.1080 65.7852 0.279 0.182 -0.943 63 68 64
-8.1534 28.7411 63.6587 0.151 -0.646 -0.748 70 69 65
-4.7391 27.4641 62.8614 0.158 -0.190 -0.969 60 59 55
1.4533 25.6353 62.4366 0.032 -0.317 -0.948 68 64 65
5.4860 24.8117 62.9295 -0.606 -0.060 -0.793 49 47 48
6.7637 24.1233 62.1900 0.079 -0.154 -0.985 61 59 60
6.9531 24.0660 62.1742 0.653 -0.393 -0.647 68 66 64
10.4578 23.2495 62.3916 -0.069 -0.226 -0.972 74 64 63
10.6293 23.2043 62.3912 -0.092 -0.099 -0.991 87 75 75
12.1568 23.0491 62.9064 0.339 -0.041 -0.940 92 80 80
14.3360 22.4739 62.9001 0.531 -0.410 -0.742 87 77 76
17.6426 21.8326 63.3755 0.031 -0.526 -0.850 127 114 106
17.6941 21.9129 63.5720 0.450 -0.314 -0.836 148 135 127
17.8326 21.8957 63.6122 0.487 -0.282 -0.827 159 146 138
18.0024 21.8430 63.5953 0.417 -0.356 -0.836 142 129 123
18.1422 21.8241 63.6325 0.465 -0.310 -0.829 131 118 112
22.5510 21.1044 64.5500 0.086 -0.465 -0.881 136 119 112
24.1865 21.0587 65.3541 0.394 -0.560 -0.729 124 110 101
24.3431 21.0135 65.3455 0.089 -0.558 -0.825 128 114 105
29.1924 20.4188 66.7671 0.299 -0.528 -0.795 108 95 87
30.0571 20.4250 67.2558 0.365 -0.481 -0.797 118 105 96
31.5027 20.2898 67.7679 0.178 -0.405 -0.897 124 111 105
34.5570 20.4670 69.8191 0.402 -0.175 -0.899 127 117 107
34.6859 20.4626 69.8809 0.202 -0.096 -0.975 126 116 106
34.8214 20.4440 69.9165 0.454 -0.283 -0.845 114 104 94
34.9596 20.4192 69.9405 0.457 -0.302 -0.836 102 92 82
35.1021 20.3847 69.9467 0.369 -0.479 -0.797 91 78 69
38.3146 20.3354 71.6106 0.072 -0.516 -0.854 88 77 71
38.4448 20.3305 71.6720 0.107 -0.514 -0.851 95 84 78
39.1063 20.2777 71.9254 0.259 -0.250 -0.933 110 99 95
39.2463 20.2445 71.9326 0.237 -0.202 -0.950 115 104 100
39.5032 20.2462 72.0776 0.296 -0.226 -0.928 115 104 100
42.1490 20.5439 74.1568 0.599 -0.228 -0.768 150 146 134
42.2835 20.5319 74.2056 0.562 -0.441 -0.699 149 145 133
42.4956 20.7425 74.7634 0.301 0.563 -0.770 148 144 132
43.9046 20.3443 74.7044 0.548 -0.492 -0.677 149 147 132
44.0410 20.3212 74.7310 0.593 -0.411 -0.693 133 131 116
46.4481 21.1292 77.7481 0.436 0.455 -0.776 133 136 119
47.9274 21.3613 79.0481 0.651 -0.559 -0.513 119 136 117
48.0639 21.3758 79.1536 0.648 -0.570 -0.505 118 137 118
49.1752 21.2724 79.5483 0.311 -0.049 -0.949 132 149 143
50.1249 21.8462 81.2728 0.466 -0.495 -0.734 145 162 156
53.9840 22.2685 84.2804 0.002 -0.447 -0.895 64 81 75
54.1284 22.2661 84.3548 0.114 -0.291 -0.950 65 82 76
54.2761 22.3065 84.5209 0.076 0.079 -0.994 71 91 82
54.4210 22.3054 84.5982 0.381 0.208 -0.901 83 102 96
56.4378 23.2768 87.7428 -0.143 -0.439 -0.887 118 136 138
58.5909 23.5410 89.4808 0.631 -0.746 -0.210 156 182 192
58.7092 23.3606 89.1679 0.544 -0.553 -0.631 144 171 181
59.3221 23.3941 89.5753 0.178 -0.320 -0.931 27 47 60
-18.2865 32.5122 65.5731 -0.126 -0.139 -0.982 64 72 61
-18.0751 32.5651 65.7994 0.290 -0.074 -0.954 61 69 58
-17.9067 32.5478 65.8559 0.282 -0.077 -0.956 63 70 62
-16.6700 32.0814 65.5626 -0.282 0.069 -0.957 62 69 62
-14.9615 31.2721 64.8134 -0.117 -0.150 -0.982 57 69 57
-9.9302 29.5308 63.9461 -0.268 -0.339 -0.902 75 71 70
-8.0855 28.8632 63.5671 0.151 -0.646 -0.748 69 68 64
-2.4423 26.9662 62.7112 0.100 -0.333 -0.938 66 65 61
-1.9258 26.9728 63.0087 0.443 0.124 -0.888 51 50 48
-1.7901 26.9692 63.0759 0.443 0.124 -0.888 62 61 59
0.6301 25.6334 61.6196 0.404 -0.793 -0.456 73 72 68
1.8227 25.5991 62.2032 -0.020 -0.238 -0.971 68 64 65
12.3918 23.1012 62.8004 0.045 -0.700 -0.712 88 78 77
14.2187 22.6293 62.8199 0.603 -0.356 -0.714 80 70 69
14.3589 22.6121 62.8610 0.555 -0.375 -0.743 73 63 64
19.4799 21.4329 63.2153 0.264 -0.210 -0.941 128 114 105
26.3761 20.7470 65.5735 0.544 -0.395 -0.741 103 90 84
26.4952 20.9355 66.0319 0.646 -0.590 -0.484 119 106 100
30.0893 20.5472 67.1967 0.365 -0.481 -0.797 116 103 94
34.9823 20.5628 69.9174 0.454 -0.307 -0.836 106 96 86
35.1286 20.5197 69.9078 0.357 -0.543 -0.760 100 87 78
36.8613 20.3288 70.4617 0.278 -0.344 -0.897 60 48 48
36.9529 20.4187 70.6994 0.503 -0.451 -0.737 62 50 50
39.6785 20.3229 71.9970 0.304 -0.288 -0.908 114 103 99
39.9482 20.2843 72.0648 0.239 -0.187 -0.953 100 89 85
40.0793 20.6947 72.9927 0.387 -0.182 -0.904 102 91 87
42.3199 20.6365 74.1023 0.598 -0.270 -0.755 145 141 129
44.5865 20.5129 75.0898 0.389 -0.648 -0.655 136 135 119
48.0963 21.4933 79.0625 0.648 -0.570 -0.505 106 125 106
50.1574 21.9439 81.1346 0.536 -0.199 -0.821 141 158 152
51.0046 21.7380 81.1706 0.336 -0.791 -0.510 138 159 150
52.1292 21.7070 81.7239 0.300 -0.137 -0.944 109 136 117
52.4106 21.6894 81.8417 0.377 -0.182 -0.908 98 124 107
53.2912 22.3542 83.7120 0.329 -0.429 -0.841 65 89 75
53.4393 22.4306 83.9527 0.504 -0.468 -0.726 59 81 69
53.8655 22.3226 83.9616 0.718 -0.317 -0.619 65 82 74
54.0153 22.4038 84.2133 -0.131 -0.499 -0.857 65 82 74
54.1629 22.4450 84.3802 0.139 -0.329 -0.934 64 81 73
54.3056 22.4181 84.4025 0.176 -0.318 -0.931 63 80 72
-19.6656 33.3538 66.1547 -0.595 -0.251 -0.764 62 67 62
-18.7545 32.9217 65.7574 -0.564 -0.313 -0.764 73 79 69
-14.9570 31.4487 64.7829 -0.132 -0.142 -0.981 57 69 57
-14.6880 31.3569 64.7399 -0.133 -0.135 -0.982 63 75 63
-14.4327 31.2745 64.7090 -0.135 -0.131 -0.982 60 72 60
-13.1398 30.9476 64.7397 -0.065 -0.789 -0.611 66 71 65
-6.4392 28.7073 63.7652 0.101 -0.626 -0.773 65 65 57
-4.5230 27.7380 62.8041 0.417 -0.315 -0.852 65 64 60
-4.3672 27.7196 62.8515 0.408 -0.320 -0.855 73 72 70
-4.2396 27.7233 62.9292 0.146 -0.554 -0.819 92 90 91
-4.0483 27.6770 62.9380 0.149 -0.527 -0.836 62 61 59
-2.4148 27.1125 62.6622 0.100 -0.333 -0.938 82 78 75
-1.4635 27.0863 63.1299 0.462 0.510 -0.726 66 65 61
4.2979 25.1767 62.3264 -0.016 -0.562 -0.827 53 48 45
6.7556 24.4561 62.1789 0.054 -0.169 -0.984 51 47 46
7.7850 24.2054 62.2233 0.398 -0.277 -0.875 69 64 60
9.3998 23.9875 62.6569 0.488 -0.134 -0.863 66 58 56
11.3741 23.2868 62.2855 0.093 -0.223 -0.970 73 61 61
14.3007 22.7059 62.6852 0.576 -0.525 -0.627 74 64 63
14.4307 22.6991 62.7424 0.348 -0.528 -0.775 67 57 56
14.5427 22.7112 62.8290 0.321 -0.559 -0.764 68 58 59
14.7018 22.6738 62.8387 0.217 -0.368 -0.904 92 82 83
19.1414 21.9935 63.8623 0.194 -0.471 -0.861 116 102 92
19.2660 21.9921 63.9277 0.144 -0.340 -0.929 124 110 99
19.3848 21.9977 64.0044 0.369 -0.246 -0.897 130 116 107
22.4312 21.4321 64.5016 0.574 -0.525 -0.629 139 122 115
23.1686 21.2718 64.5735 0.186 -0.445 -0.876 135 121 112
24.4581 21.0228 64.7640 0.003 -0.156 -0.988 144 130 121
25.0800 21.0115 65.0817 0.568 -0.385 -0.728 157 144 135
27.7047 20.5826 65.6314 0.293 -0.173 -0.940 127 110 102
27.8196 20.5947 65.7196 0.243 -0.146 -0.959 132 115 107
27.9482 20.5857 65.7715 0.252 -0.166 -0.953 132 115 107
29.8934 20.4247 66.5045 0.448 -0.406 -0.797 106 93 84
32.6780 20.5590 68.3111 0.514 -0.487 -0.705 114 101 92
32.7774 20.6100 68.4716 0.391 -0.365 -0.845 141 128 119
32.8977 20.6203 68.5590 0.459 -0.395 -0.796 127 114 105
33.0310 20.6051 68.6006 0.375 -0.358 -0.855 110 97 88
38.1712 20.4436 71.0855 0.536 -0.267 -0.801 80 71 64
39.0223 20.5785 71.8325 0.363 -0.295 -0.884 84 73 67
39.1492 20.5846 71.9147 0.329 -0.277 -0.903 86 75 71
39.2751 20.5938 72.0029 0.329 -0.278 -0.902 78 67 63
39.4144 20.5625 72.0145 0.294 -0.503 -0.812 89 78 74
39.5499 20.5425 72.0472 0.283 -0.492 -0.823 103 92 88
39.6822 20.5323 72.0987 0.283 -0.492 -0.823 109 98 94
42.1146 20.6587 73.6956 0.201 -0.260 -0.944 134 132 120
42.2571 20.6118 73.6764 0.274 -0.253 -0.928 142 140 127
42.3597 20.7264 73.9707 0.583 -0.299 -0.756 147 145 132
42.6468 20.6241 73.9157 0.548 -0.279 -0.788 147 143 131
42.7473 20.7540 74.2405 0.440 -0.450 -0.777 145 141 129
44.4819 20.6563 74.9894 0.155 -0.631 -0.760 143 142 122
44.6221 20.6129 74.9764 0.427 -0.446 -0.786 136 135 117
47.9945 21.5699 78.8134 0.595 -0.576 -0.561 95 111 90
48.1307 21.5857 78.9211 0.583 -0.622 -0.522 93 111 90
50.1895 22.0517 81.0181 0.497 -0.270 -0.824 138 155 147
52.1596 21.8138 81.6051 0.184 -0.439 -0.879 111 134 120
52.2998 21.7908 81.6341 0.408 -0.326 -0.853 108 131 117
52.4409 21.8013 81.7334 0.433 -0.369 -0.822 103 125 112
53.4646 22.4550 83.6522 0.203 -0.382 -0.902 64 86 74
54.0451 22.5165 84.0983 -0.134 -0.539 -0.832 69 86 78
54.1909 22.5353 84.2174 0.293 -0.353 -0.888 65 82 74
59.2325 23.6693 89.3378 0.670 -0.614 -0.418 126 150 153
60.0085 23.7454 89.9214 0.257 -0.411 -0.875 72 94 105
61.9257 23.4784 90.4192 0.792 -0.303 -0.529 63 78 75
-18.1725 32.6991 65.2069 -0.498 -0.025 -0.867 80 88 77
-14.4455 31.4632 64.6950 -0.140 -0.425 -0.894 71 81 70
-13.8716 31.2515 64.5718 -0.225 -0.578 -0.784 75 82 74
-8.3631 29.2148 63.3812 0.892 -0.019 -0.451 77 76 72
-8.2271 29.2143 63.4547 0.922 -0.092 -0.375 54 53 49
-4.5262 27.9102 62.7875 0.415 -0.303 -0.858 66 65 61
-4.3633 27.8864 62.8274 0.417 -0.315 -0.852 72 71 69
-4.1759 27.8431 62.8406 -0.069 -0.198 -0.978 92 90 91
-2.2255 27.2340 62.6507 0.574 -0.197 -0.795 67 66 64
2.1754 25.7394 61.9732 0.159 -0.404 -0.901 70 66 65
4.8938 25.2655 62.4835 0.004 -0.104 -0.995 70 64 64
7.8048 24.3499 62.1864 0.398 -0.277 -0.875 59 54 50
7.9269 24.3533 62.2603 0.410 -0.291 -0.864 67 62 58
9.0372 23.9009 61.9339 0.198 -0.648 -0.735 66 61 58
8.9455 24.2239 62.5511 0.314 -0.053 -0.948 67 62 59
9.0231 24.2697 62.6882 0.388 -0.047 -0.921 68 60 57
9.5283 24.1482 62.7139 0.207 -0.107 -0.972 55 48 44
9.6667 24.1362 62.7649 0.207 -0.131 -0.969 57 49 45
9.7547 24.1727 62.8886 0.237 -0.125 -0.963 66 58 55
11.0065 23.5653 62.3192 -0.052 -0.313 -0.948 76 64 64
11.4119 23.4113 62.2232 0.126 -0.243 -0.962 67 57 56
11.8517 23.8446 63.3596 0.413 -0.264 -0.872 74 64 63
18.5103 22.3180 63.8533 0.518 -0.235 -0.823 134 120 107
19.4678 22.2111 64.1570 0.555 -0.070 -0.829 145 131 122
23.1863 21.4150 64.5492 0.186 -0.435 -0.881 127 113 104
26.5653 21.1739 65.9026 0.581 -0.264 -0.770 114 101 95
26.7088 21.1444 65.9203 0.154 -0.309 -0.938 130 117 111
26.8289 21.1501 65.9979 0.169 -0.255 -0.952 113 100 94
26.9432 21.1647 66.0906 0.620 -0.352 -0.701 70 57 51
27.0940 21.1237 66.0886 0.348 -0.178 -0.920 99 82 75
27.6963 20.7668 65.6810 0.238 -0.468 -0.851 106 89 81
27.8294 20.7511 65.7214 0.227 -0.471 -0.853 122 105 97
27.9623 20.7355 65.7620 0.267 -0.496 -0.826 116 99 91
28.0929 20.7234 65.8087 0.164 -0.473 -0.866 88 71 63
29.9239 20.5485 66.4505 0.453 -0.397 -0.798 124 111 102
32.6779 20.7441 68.3637 0.413 -0.321 -0.852 117 104 95
32.7903 20.7701 68.4792 0.259 -0.309 -0.915 123 110 101
33.5357 20.5326 68.3966 0.452 -0.338 -0.826 125 112 104
34.7426 20.9190 69.8565 0.199 0.073 -0.977 126 116 106
37.0396 20.6048 70.4658 0.507 -0.408 -0.760 95 84 82
38.2003 20.5728 71.0357 0.356 -0.500 -0.789 68 57 51
38.4125 20.6966 71.4078 0.362 -0.557 -0.747 121 110 104
38.7753 20.7630 71.7439 0.460 -0.379 -0.803 92 81 75
39.1803 20.7091 71.8545 0.072 -0.164 -0.984 94 83 77
40.9481 20.8650 73.1452 0.511 -0.275 -0.814 116 107 102
41.1929 20.9238 73.4010 0.516 -0.356 -0.779 110 105 97
41.5583 21.0270 73.8144 0.425 0.452 -0.784 121 117 108
41.7116 20.9437 73.7262 0.220 0.251 -0.943 129 126 117
42.0309 20.7208 73.4406 0.598 -0.228 -0.769 105 102 93
42.1468 20.7793 73.6249 0.212 -0.328 -0.921 102 100 88
42.2837 20.7546 73.6490 0.214 -0.276 -0.937 118 116 104
42.3909 20.8514 73.9077 0.599 -0.309 -0.739 130 127 115
42.7802 20.8716 74.1628 0.449 -0.421 -0.788 147 141 129
48.0297 21.6550 78.6583 0.331 -0.911 -0.244 95 109 86
49.8241 21.5889 79.5049 0.517 -0.326 -0.792 127 141 132
52.1903 21.9350 81.5168 -0.045 -0.407 -0.912 110 130 120
52.4699 21.8685 81.5326 -0.045 -0.407 -0.912 109 129 118
53.4940 22.5545 83.5113 0.201 -0.330 -0.922 69 89 78
53.6339 22.4896 83.4539 0.784 -0.083 -0.616 80 97 87
53.9284 22.5982 83.8397 0.804 -0.034 -0.594 81 98 88
54.0759 22.6444 84.0159 0.268 -0.449 -0.852 72 89 79
59.1614 24.0601 89.7283 0.726 -0.673 -0.142 135 159 159
62.5179 23.9883 91.4192 0.387 -0.808 -0.443 34 45 41
-19.7418 33.7789 66.1648 -0.463 -0.050 -0.885 55 61 56
-19.3932 33.6369 66.0633 -0.386 0.054 -0.921 64 71 62
-18.8777 33.5812 66.2309 0.664 0.217 -0.715 58 66 55
-13.5097 31.2693 64.4122 -0.285 -0.569 -0.771 61 66 60
-13.2139 31.2574 64.5496 -0.226 -0.321 -0.920 62 67 61
-8.2886 29.3317 63.2832 0.918 -0.099 -0.383 78 77 73
-8.2227 29.3844 63.4278 0.918 -0.099 -0.383 66 65 61
-6.3287 29.0728 63.8232 -0.329 -0.940 -0.086 60 60 50
-2.2354 27.4105 62.6433 0.589 -0.175 -0.789 68 67 65
-2.1049 27.4112 62.7161 0.646 -0.116 -0.755 71 70 66
1.2873 26.5488 62.7984 -0.586 -0.109 -0.803 72 70 71
4.5843 25.5918 62.6336 0.357 0.072 -0.931 69 63 63
11.0784 23.5350 61.9562 0.359 -0.686 -0.633 67 57 56
11.2315 23.5064 61.9811 0.317 -0.594 -0.740 78 68 67
11.3668 23.4952 62.0320 0.307 -0.592 -0.745 66 56 55
18.1411 22.4800 63.6507 0.108 -0.418 -0.902 102 89 80
18.3002 22.4390 63.6534 0.115 -0.432 -0.895 123 108 100
18.4317 22.4299 63.7066 0.120 -0.447 -0.886 117 103 93
18.8233 22.4061 63.8719 0.363 -0.635 -0.682 142 126 113
19.1110 22.3586 63.9318 0.579 -0.326 -0.748 124 108 95
19.5085 22.3276 64.0854 0.544 -0.151 -0.825 146 132 121
26.8337 21.3150 66.0110 0.172 -0.174 -0.970 134 121 115
26.9571 21.3160 66.0806 0.700 -0.408 -0.587 109 96 90
27.0943 21.2959 66.1142 0.531 -0.397 -0.748 71 54 47
27.2112 21.3071 66.2011 0.036 -0.515 -0.856 76 59 52
28.2553 20.8336 65.7984 0.188 -0.463 -0.866 82 65 58
29.6381 20.7902 66.4658 0.525 -0.482 -0.701 120 106 97
29.7896 20.7428 66.4513 0.359 -0.479 -0.801 124 110 101
29.9058 20.7552 66.5405 0.366 -0.473 -0.802 125 111 102
32.8161 20.9049 68.4410 0.259 -0.309 -0.915 108 95 86
33.0397 20.7094 68.1611 0.014 -0.348 -0.937 123 110 101
33.0881 20.8638 68.5052 0.192 -0.384 -0.903 143 130 121
33.4340 20.6712 68.2984 0.386 -0.501 -0.775 113 100 92
33.5696 20.6499 68.3288 0.441 -0.360 -0.822 101 88 80
34.3609 21.1126 69.7136 0.279 0.166 -0.946 107 94 86
34.5028 21.0806 69.7254 0.299 0.135 -0.945 114 104 95
34.6367 21.0660 69.7688 0.484 -0.255 -0.837 126 116 107
34.7740 21.0438 69.7983 0.450 -0.288 -0.845 123 113 104
36.6189 20.9036 70.5194 0.209 -0.168 -0.963 123 112 110
36.7815 20.8159 70.4281 0.253 -0.413 -0.875 95 84 82
38.7971 20.9153 71.7355 0.342 -0.142 -0.929 82 72 63
41.0923 21.0528 73.2745 0.753 -0.066 -0.655 117 109 103
41.7616 20.9969 73.5257 0.409 -0.391 -0.824 124 117 111
41.9036 20.9538 73.5148 0.307 -0.541 -0.783 129 123 115
42.0422 20.9235 73.5281 0.289 -0.542 -0.789 125 118 110
42.2966 20.9533 73.7288 0.554 -0.252 -0.793 96 89 79
42.4257 20.9616 73.8163 0.554 -0.252 -0.793 109 102 92
42.7040 20.8940 73.8298 0.530 -0.308 -0.790 142 135 125
47.7892 21.7541 78.3819 0.206 -0.889 -0.409 99 104 84
48.2000 21.7626 78.6242 0.341 -0.844 -0.415 104 116 92
52.2216 22.0836 81.4855 0.252 -0.607 -0.754 115 134 128
52.3628 22.1001 81.5966 0.273 -0.629 -0.728 115 134 128
53.5247 22.6782 83.4217 0.326 -0.727 -0.605 79 96 86
53.6691 22.6898 83.5247 0.418 -0.646 -0.639 80 97 87
53.8214 22.8234 83.8829 0.859 -0.403 -0.316 81 98 88
55.3251 23.3789 85.8487 0.171 0.643 -0.747 33 41 43
55.4585 23.2460 85.6482 0.320 0.364 -0.875 36 46 45
56.3640 23.4264 86.5148 0.715 0.284 -0.639 118 133 128
59.7256 24.5622 90.6912 -0.234 -0.280 -0.931 141 161 172
62.5344 24.0766 91.2292 0.511 -0.694 -0.507 24 35 31
62.7104 24.1543 91.4853 0.938 -0.175 -0.300 29 41 37
63.1505 24.6061 92.6558 0.936 0.035 -0.351 81 92 88
64.1070 23.2131 90.3133 0.193 -0.708 -0.679 90 109 113
64.2509 23.1895 90.3435 0.675 -0.286 -0.680 90 109 113
-19.7877 33.9975 66.1767 -0.459 -0.042 -0.887 49 56 51
-19.2179 33.6996 65.8780 -0.458 -0.038 -0.888 60 70 61
-14.3953 31.6847 64.3871 -0.040 -0.600 -0.799 51 64 51
-14.1989 31.6440 64.4111 -0.028 -0.608 -0.793 55 68 55
-6.3862 28.6643 62.5786 0.530 -0.280 -0.801 69 68 64
-3.5833 28.1337 63.0239 -0.132 -0.001 -0.991 69 68 64
-2.6074 27.5615 62.3853 0.247 -0.413 -0.877 67 63 60
-2.4594 27.5479 62.4384 0.250 -0.415 -0.875 65 61 58
-2.3053 27.5294 62.4847 0.355 -0.252 -0.900 65 61 58
7.1579 24.8084 62.0839 0.395 -0.493 -0.775 65 61 59
7.3254 24.7701 62.0971 0.412 -0.420 -0.809 66 62 59
11.0455 23.7289 61.9978 0.185 -0.443 -0.877 79 69 68
14.0082 23.2396 62.6149 0.372 -0.583 -0.722 76 66 64
14.4502 23.1654 62.7046 -0.062 -0.349 -0.935 90 79 75
16.1962 22.7479 62.8038 0.144 -0.635 -0.759 64 59 55
17.1618 22.7731 63.3832 0.065 -0.451 -0.890 99 89 80
17.4582 22.7177 63.4317 0.160 -0.349 -0.923 96 83 74
17.6077 22.6884 63.4534 0.221 -0.322 -0.921 122 110 99
18.1588 22.6238 63.6224 0.132 -0.061 -0.989 107 95 84
18.4763 22.5422 63.6288 0.225 -0.129 -0.966 94 80 69
18.6071 22.5339 63.6832 0.500 -0.429 -0.752 91 75 60
18.8530 22.5358 63.8216 0.332 -0.475 -0.815 140 124 110
18.9827 22.5290 63.8783 0.332 -0.475 -0.815 150 134 120
20.3925 21.8688 63.2968 0.483 -0.559 -0.674 122 108 99
20.6471 21.8563 63.4105 0.380 -0.407 -0.831 137 123 114
20.4546 22.2451 64.1015 0.373 -0.612 -0.698 139 125 116
20.7364 22.2023 64.1678 0.497 -0.466 -0.732 143 129 120
23.6267 21.6534 64.6234 0.238 -0.348 -0.907 129 115 106
26.8724 21.4285 65.9366 0.208 -0.560 -0.802 110 97 91
27.1101 21.4446 66.0995 0.543 -0.418 -0.728 97 81 74
27.2289 21.4531 66.1817 0.093 -0.611 -0.786 66 50 43
28.4161 20.9461 65.7922 0.296 -0.420 -0.858 74 59 52
29.5631 20.8838 66.2917 0.218 -0.213 -0.952 106 92 83
29.6802 20.8947 66.3779 0.447 -0.568 -0.691 114 100 91
29.8339 20.8431 66.3563 0.352 -0.392 -0.850 118 104 95
32.1357 20.9493 67.8318 0.212 -0.457 -0.864 84 71 63
32.8430 21.0377 68.3993 0.303 -0.285 -0.909 126 113 105
32.9809 21.0133 68.4248 0.366 -0.330 -0.870 133 120 113
33.1170 20.9925 68.4565 0.192 -0.384 -0.903 141 128 121
34.1443 20.9513 68.9336 0.125 -0.495 -0.860 114 101 93
34.2913 20.9063 68.9218 0.275 -0.272 -0.922 108 95 87
34.5484 20.8956 69.0405 0.537 -0.212 -0.816 126 112 104
38.0832 20.9632 71.1107 0.321 -0.576 -0.752 108 97 89
38.5875 20.9908 71.4430 0.593 -0.428 -0.682 102 92 83
38.8327 21.0271 71.6513 0.446 -0.479 -0.756 83 73 64
39.0965 21.0097 71.7598 0.310 -0.141 -0.940 90 80 71
39.2335 20.9857 71.7855 0.064 -0.108 -0.992 73 62 56
39.5056 20.9423 71.8453 0.166 -0.349 -0.922 74 63 57
41.9416 21.0518 73.4010 0.340 -0.429 -0.837 116 107 102
42.0808 21.0183 73.4084 0.276 -0.490 -0.827 122 113 106
42.7356 21.0168 73.7631 0.517 -0.314 -0.796 131 122 115
42.8300 21.1759 74.1407 0.582 0.010 -0.813 128 119 112
43.4878 21.1831 74.5150 0.534 -0.223 -0.815 128 123 115
43.5385 21.5731 75.3415 0.336 -0.354 -0.873 132 128 119
47.6782 21.9361 78.3474 0.035 -0.753 -0.657 106 108 94
47.8177 21.9122 78.3746 0.074 -0.745 -0.663 106 110 91
47.9602 21.8528 78.3309 0.365 -0.804 -0.470 107 114 92
48.0963 21.8639 78.4280 0.352 -0.808 -0.473 105 114 91
48.2185 22.0441 78.8639 0.158 0.151 -0.976 104 116 90
51.9712 22.2149 81.2647 0.292 -0.580 -0.761 137 156 152
52.1113 22.1888 81.2877 0.435 -0.510 -0.742 137 156 152
52.2518 22.1879 81.3626 0.532 -0.457 -0.713 121 140 136
52.5342 22.2193 81.5812 0.299 -0.519 -0.801 121 140 134
53.5577 22.8441 83.4203 0.333 -0.704 -0.627 84 101 91
53.8541 22.9801 83.8608 0.735 -0.019 -0.678 80 98 86
54.1370 22.8947 83.8405 0.398 -0.291 -0.870 81 98 88
55.1655 23.0649 84.7512 0.751 -0.581 -0.314 23 31 34
56.4075 23.6580 86.6447 0.688 0.273 -0.673 125 140 135
57.6679 23.1727 86.3397 0.546 -0.298 -0.783 119 143 147
58.8464 23.9483 88.5721 0.454 -0.778 -0.434 104 128 128
62.5581 24.1905 91.0968 0.511 -0.694 -0.507 29 40 36
62.7522 24.3331 91.4951 0.889 0.074 -0.452 57 69 65
64.4841 23.4819 90.6982 0.822 0.041 -0.567 91 109 111
-19.1080 33.8077 65.7511 -0.498 -0.074 -0.864 38 49 37
-13.6300 31.6127 64.2660 -0.044 0.112 -0.993 54 59 52
-6.3370 28.7971 62.5063 0.593 -0.090 -0.801 64 63 59
-2.2978 27.6919 62.4578 0.367 -0.342 -0.865 49 44 41
2.6832 26.1284 61.9888 0.129 -0.409 -0.903 74 73 69
2.9023 26.0497 61.9479 0.612 -0.400 -0.682 71 72 67
3.1659 26.0431 62.0784 0.565 -0.431 -0.704 71 70 66
3.2813 26.0542 62.1641 0.565 -0.431 -0.704 71 67 64
3.4175 26.0473 62.2242 0.571 -0.427 -0.701 69 65 62
3.5406 26.0518 62.3007 0.415 -0.562 -0.716 62 58 55
3.7034 26.0215 62.3278 0.432 -0.595 -0.678 59 55 52
7.2481 24.8884 61.9524 0.489 -0.484 -0.726 65 61 58
