ply
format ascii 1.0
element vertex 876
property float x
property float y
property float z
property float nx
property float ny
property float nz
property uchar diffuse_red
property uchar diffuse_green
property uchar diffuse_blue
end_header
20.0997 21.0350 64.4342 -0.037 -0.509 -0.860 130 116 105
20.2475 21.0440 64.4868 -0.123 -0.434 -0.892 125 111 102
20.3863 21.0190 64.4837 0.087 -0.343 -0.935 118 104 95
20.5272 21.0019 64.4936 0.121 -0.396 -0.910 119 104 97
22.7666 21.1366 65.2875 -0.156 -0.186 -0.970 128 116 104
22.8993 21.0912 65.2509 -0.107 -0.113 -0.988 128 116 104
23.0483 21.0951 65.2959 0.317 -0.179 -0.931 139 127 115
23.6387 21.0907 65.4425 0.505 -0.145 -0.851 123 113 101
24.2626 21.1741 65.7357 -0.068 -0.523 -0.850 115 105 93
24.4117 21.1744 65.7750 -0.024 -0.523 -0.852 124 114 102
24.5499 21.1449 65.7646 -0.036 -0.550 -0.834 135 125 113
25.2888 21.1246 65.9252 0.244 -0.556 -0.794 119 109 97
25.4354 21.1170 65.9514 0.282 -0.423 -0.861 97 87 75
25.5871 21.1219 65.9986 0.282 -0.423 -0.861 96 86 74
27.3358 21.3381 66.7925 0.370 -0.402 -0.837 105 90 83
27.4751 21.3094 66.7839 0.164 -0.390 -0.906 103 89 80
27.6543 21.3710 66.9270 0.091 -0.714 -0.694 112 98 89
27.8033 21.3636 66.9542 0.091 -0.714 -0.694 122 108 99
27.9517 21.3549 66.9792 0.233 -0.639 -0.733 88 75 67
28.2450 21.3293 67.0154 0.092 -0.622 -0.778 83 68 61
28.3867 21.3058 67.0155 0.126 -0.591 -0.797 82 67 62
28.8285 21.2710 67.0758 0.032 -0.478 -0.878 102 87 82
29.4572 21.3051 67.2930 0.110 -0.686 -0.719 104 94 84
29.6179 21.3200 67.3582 0.224 -0.656 -0.720 110 102 91
29.7731 21.3232 67.4035 0.224 -0.656 -0.720 122 114 103
29.9212 21.3119 67.4243 0.218 -0.664 -0.715 125 117 106
30.0791 21.3201 67.4783 0.287 -0.672 -0.682 126 116 106
30.2514 21.3564 67.5800 0.256 -0.688 -0.680 134 124 114
32.7503 21.6643 68.7131 0.269 -0.058 -0.961 112 105 95
32.9148 21.6773 68.7762 0.247 -0.036 -0.968 110 106 95
33.3250 21.5693 68.7137 0.146 -0.207 -0.967 115 111 100
33.4865 21.5764 68.7669 0.252 -0.243 -0.937 115 111 100
33.6325 21.5567 68.7740 0.401 -0.378 -0.835 120 113 103
33.8008 21.5751 68.8465 0.401 -0.378 -0.835 121 114 104
34.8554 22.0114 69.8048 0.482 -0.179 -0.858 110 103 95
35.0141 22.0094 69.8430 0.164 -0.110 -0.980 81 77 68
35.1733 22.0079 69.8821 0.146 -0.120 -0.982 95 90 84
38.5917 22.5206 71.5753 0.623 -0.386 -0.680 111 109 97
39.0102 22.6488 71.8852 0.624 -0.386 -0.679 113 111 99
39.4267 22.7705 72.1844 0.576 -0.379 -0.724 118 116 103
39.5909 22.7679 72.2231 0.427 -0.534 -0.729 116 114 101
39.7808 22.8011 72.3245 0.374 -0.573 -0.729 109 107 94
40.4394 22.7899 72.4783 0.032 -0.534 -0.845 98 96 83
41.6179 22.7989 72.7991 0.171 -0.301 -0.938 89 88 83
41.7807 22.7921 72.8309 0.171 -0.301 -0.938 97 96 91
41.9778 22.8303 72.9420 0.372 -0.448 -0.813 97 96 92
42.1640 22.8537 73.0271 0.493 -0.479 -0.726 96 95 91
43.8295 23.6805 74.7564 0.827 -0.157 -0.540 80 79 74
46.7103 24.0067 76.0174 0.678 -0.158 -0.718 93 94 86
46.9694 24.1041 76.2376 0.672 -0.154 -0.724 90 91 83
47.2295 24.2016 76.4581 0.672 -0.154 -0.724 87 90 81
-27.5593 32.0486 68.9913 -0.405 -0.301 -0.863 132 156 158
-24.3058 30.7176 67.7580 0.117 -0.238 -0.964 63 87 73
-22.8843 30.0911 67.1489 -0.639 -0.270 -0.720 134 152 165
-22.7410 30.0925 67.1885 -0.342 -0.198 -0.919 147 166 171
-23.9116 32.8824 71.2398 0.751 -0.153 -0.642 137 156 154
-18.5961 28.4467 65.6951 0.403 -0.072 -0.912 55 54 50
-18.4763 28.4851 65.7861 0.440 -0.264 -0.858 60 59 55
-18.4999 28.7762 66.2344 -0.538 -0.667 -0.515 67 66 62
-17.4882 28.2418 65.6628 -0.187 -0.285 -0.940 48 48 46
-17.4471 28.4245 65.9587 -0.188 -0.575 -0.796 58 58 56
-16.8783 28.4277 66.1113 0.331 -0.451 -0.829 69 66 61
-3.2330 24.3867 63.3450 0.130 -0.484 -0.866 66 56 57
-2.9496 24.3676 63.3886 0.108 -0.501 -0.858 72 63 64
-2.8081 24.3587 63.4116 0.108 -0.501 -0.858 69 60 61
4.6369 22.3858 62.2641 -0.216 -0.172 -0.961 71 61 60
5.8931 22.2532 62.3833 -0.170 -0.297 -0.940 71 59 59
6.5887 22.2184 62.5096 0.453 -0.256 -0.854 62 52 50
8.2657 22.0510 62.6835 0.021 -0.381 -0.924 81 71 70
8.6854 21.9937 62.7030 0.124 -0.590 -0.798 82 72 71
8.8250 21.9972 62.7447 0.193 -0.593 -0.782 100 90 89
8.9648 21.9964 62.7798 0.193 -0.593 -0.782 95 85 84
9.1047 21.9957 62.8149 0.193 -0.593 -0.782 88 78 77
9.2446 21.9973 62.8537 0.196 -0.606 -0.771 84 74 73
9.3846 21.9702 62.8477 -0.004 -0.513 -0.858 78 66 66
10.9233 21.7688 62.9328 0.400 -0.229 -0.887 79 71 68
11.0583 21.6386 62.7645 -0.231 -0.475 -0.849 91 83 80
11.1981 21.6290 62.7858 -0.259 -0.409 -0.875 92 82 80
11.3363 21.5867 62.7557 -0.241 -0.402 -0.883 92 82 80
11.4841 21.7315 63.0201 -0.049 -0.624 -0.780 93 83 81
12.0433 21.6613 63.0556 0.034 -0.833 -0.553 96 85 83
12.1852 21.6736 63.1118 0.142 -0.596 -0.790 96 85 83
12.3210 21.5995 63.0313 0.251 0.148 -0.957 96 85 83
12.8842 21.5834 63.1523 0.071 -0.231 -0.970 90 79 73
13.0241 21.5669 63.1630 0.093 -0.261 -0.961 94 83 76
13.1644 21.5545 63.1799 0.093 -0.261 -0.961 108 98 91
13.3039 21.5348 63.1855 0.095 -0.261 -0.961 116 105 99
14.1408 21.4162 63.2176 -0.008 -0.367 -0.930 79 74 68
14.2840 21.4289 63.2746 0.005 -0.480 -0.877 81 76 72
14.5627 21.3883 63.2835 0.239 -0.521 -0.820 89 84 80
14.7040 21.3832 63.3122 0.205 -0.523 -0.827 88 83 79
14.8475 21.3935 63.3655 0.006 -0.365 -0.931 94 89 85
14.9872 21.3758 63.3742 -0.013 -0.363 -0.932 116 111 105
15.1272 21.3595 63.3850 -0.031 -0.383 -0.923 121 116 110
15.2702 21.3645 63.4299 0.100 -0.349 -0.932 82 77 73
15.5501 21.3315 63.4511 0.226 -0.269 -0.936 75 70 66
16.1172 21.3099 63.5645 0.022 -0.253 -0.967 119 110 102
16.2570 21.2917 63.5725 0.022 -0.253 -0.967 107 96 89
16.6758 21.2344 63.5917 0.162 -0.281 -0.946 126 117 109
16.8115 21.1945 63.5647 0.229 -0.204 -0.952 133 122 116
16.9622 21.2358 63.6682 0.117 -0.470 -0.875 140 127 120
17.1063 21.2406 63.7132 -0.004 -0.573 -0.820 174 159 152
17.2486 21.2351 63.7416 -0.005 -0.574 -0.819 163 148 141
17.5301 21.2070 63.7708 0.016 -0.564 -0.825 126 112 103
17.6672 21.1755 63.7571 0.187 -0.594 -0.782 132 118 109
17.8138 21.1902 63.8181 -0.009 -0.540 -0.842 114 100 91
17.9822 21.3075 64.0449 -0.184 -0.364 -0.913 123 109 100
18.1195 21.2752 64.0301 -0.184 -0.364 -0.913 120 105 98
18.2359 21.1466 63.8596 -0.196 -0.411 -0.891 119 104 97
18.3727 21.1142 63.8446 -0.196 -0.411 -0.891 113 96 89
18.5084 21.0779 63.8231 -0.193 -0.420 -0.887 108 91 84
18.6398 21.0228 63.7711 -0.218 -0.419 -0.882 119 102 95
18.7830 21.0204 63.8047 -0.111 -0.483 -0.869 131 114 107
18.9289 21.0288 63.8556 0.039 -0.349 -0.936 132 115 108
19.6925 21.1973 64.3169 0.255 -0.403 -0.879 139 125 114
19.8382 21.1995 64.3582 0.255 -0.403 -0.879 145 131 120
19.9735 21.1608 64.3328 0.137 -0.319 -0.938 147 133 122
20.1194 21.1634 64.3748 0.142 -0.319 -0.937 144 130 121
20.4079 21.1547 64.4360 0.087 -0.343 -0.935 146 131 124
20.5499 21.1414 64.4522 0.149 -0.321 -0.935 144 129 122
21.1284 21.1255 64.5775 0.215 -0.327 -0.920 135 118 111
21.2737 21.1229 64.6111 0.235 -0.308 -0.922 136 119 111
21.4238 21.1364 64.6712 0.275 -0.396 -0.876 135 118 109
23.0767 21.2502 65.2779 0.319 -0.314 -0.894 141 128 119
24.2960 21.3412 65.7363 -0.195 -0.500 -0.844 123 111 99
24.4379 21.3214 65.7423 -0.227 -0.507 -0.832 128 116 104
24.5738 21.2856 65.7217 -0.191 -0.537 -0.822 143 131 119
25.0751 21.4263 66.0714 0.227 -0.279 -0.933 147 139 126
25.3131 21.2658 65.8827 0.269 -0.401 -0.876 142 134 123
27.3611 21.4811 66.7505 0.376 -0.421 -0.826 83 70 61
27.4972 21.4451 66.7295 0.164 -0.390 -0.906 95 82 73
27.8094 21.4635 66.8393 0.233 -0.639 -0.733 120 107 98
27.9633 21.4672 66.8850 0.233 -0.639 -0.733 90 77 68
28.1173 21.4709 66.9307 0.088 -0.556 -0.826 90 77 69
28.2541 21.4365 66.9126 0.126 -0.608 -0.784 83 68 61
28.4077 21.4389 66.9562 0.277 -0.489 -0.827 81 66 61
28.8580 21.4224 67.0473 0.069 -0.460 -0.885 102 87 82
29.5005 21.4845 67.3111 0.407 -0.308 -0.860 94 84 74
29.6630 21.5027 67.3816 0.407 -0.308 -0.860 99 89 79
29.8110 21.4910 67.4018 0.425 -0.296 -0.855 117 107 97
29.9637 21.4887 67.4378 0.070 -0.457 -0.887 119 109 99
30.1216 21.4965 67.4909 0.110 -0.437 -0.893 119 109 99
30.4476 21.5312 67.6297 0.241 -0.472 -0.848 156 146 134
31.6633 21.7781 68.3307 0.123 0.010 -0.992 108 98 89
31.8109 21.7619 68.3437 0.128 0.003 -0.992 100 91 82
31.9634 21.7550 68.3726 0.140 -0.020 -0.990 107 97 88
32.6007 21.7747 68.5688 0.294 -0.269 -0.917 120 111 102
32.7712 21.7988 68.6506 0.310 -0.289 -0.906 112 106 95
33.3574 21.7237 68.6855 0.146 -0.207 -0.967 115 111 100
33.6715 21.7222 68.7648 0.282 -0.393 -0.875 120 113 103
33.8320 21.7272 68.8143 0.282 -0.393 -0.875 120 113 103
34.2248 22.1253 69.5377 0.052 -0.449 -0.892 120 113 103
34.6754 22.0789 69.5822 0.531 -0.504 -0.681 129 122 112
34.8614 22.1226 69.6987 0.536 -0.487 -0.690 136 132 123
35.0557 22.1790 69.8372 0.191 -0.169 -0.967 122 118 109
35.2129 22.1742 69.8704 0.174 -0.167 -0.970 113 108 102
35.6724 22.1392 69.9351 0.176 -0.070 -0.982 93 88 82
38.4204 22.6176 71.3952 0.520 -0.262 -0.813 112 110 98
38.6110 22.6560 71.5046 0.520 -0.262 -0.813 106 104 92
38.8095 22.7052 71.6329 0.607 -0.332 -0.722 100 98 86
38.9819 22.7160 71.6946 0.367 -0.430 -0.825 107 105 93
39.1579 22.7317 71.7647 0.367 -0.430 -0.825 111 109 97
39.4330 22.8884 72.0808 0.619 -0.363 -0.696 111 109 96
42.1912 23.0015 72.9733 0.287 0.126 -0.950 90 89 85
42.5093 23.1964 73.3602 0.450 -0.007 -0.893 85 84 80
42.8171 23.3758 73.7201 0.738 -0.163 -0.654 85 84 80
43.5073 23.6045 74.2562 0.825 -0.071 -0.560 77 76 71
43.8999 23.8853 74.7965 0.802 -0.049 -0.595 78 77 72
50.1239 25.3687 78.7277 0.446 0.151 -0.882 78 95 79
50.3312 25.3960 78.8242 0.201 0.363 -0.910 81 98 82
-28.1545 32.6467 69.4679 -0.297 -0.186 -0.936 119 145 154
-27.1336 32.0378 68.7854 -0.447 -0.311 -0.839 139 161 158
-24.2893 30.8665 67.7006 0.129 -0.252 -0.959 56 80 66
-22.8748 30.2494 67.1073 -0.627 -0.294 -0.721 155 173 184
-24.0778 33.0877 71.2090 0.214 -0.507 -0.835 155 171 169
-23.8644 32.9910 71.1138 0.779 -0.450 -0.436 118 136 136
-18.4516 28.6148 65.7108 0.441 -0.275 -0.855 58 57 53
-17.1137 28.5108 65.8955 0.254 -0.710 -0.657 56 57 52
-16.9748 28.5175 65.9419 0.254 -0.710 -0.657 61 60 56
-3.2098 24.5033 63.2640 0.127 -0.483 -0.866 68 59 60
-2.7975 24.0137 62.6095 -0.122 0.070 -0.990 82 73 74
-0.5663 23.3267 62.1189 -0.233 -0.005 -0.973 66 56 57
-0.4217 23.2926 62.1033 -0.220 -0.416 -0.882 65 56 57
-0.3431 23.5569 62.5347 0.070 -0.365 -0.929 65 56 57
2.9484 22.9134 62.3861 -0.145 -0.427 -0.893 76 68 66
3.0908 22.8838 62.3771 -0.145 -0.427 -0.893 72 64 62
3.3755 22.8231 62.3564 -0.136 -0.432 -0.892 79 71 69
3.9405 22.7279 62.3545 -0.030 -0.616 -0.787 87 75 75
4.0792 22.7233 62.3833 0.011 -0.612 -0.791 86 74 74
6.5909 22.6119 62.8603 -0.335 -0.125 -0.934 69 57 57
6.8922 22.2292 62.3433 0.154 -0.773 -0.615 70 58 58
8.0043 22.2391 62.6466 0.004 -0.408 -0.913 83 74 73
8.1446 22.2098 62.6373 0.003 -0.410 -0.912 72 63 62
8.2844 22.1993 62.6573 -0.017 -0.402 -0.915 78 68 67
8.7048 22.1069 62.6224 0.124 -0.590 -0.798 79 69 68
8.8442 22.1277 62.6908 0.170 -0.529 -0.831 94 84 83
8.9840 22.1234 62.7203 0.242 -0.515 -0.822 91 81 80
9.8211 21.8369 62.4916 0.110 -0.467 -0.878 85 73 73
9.9610 21.8577 62.5601 0.074 -0.518 -0.852 89 77 77
11.0867 21.9826 63.0459 0.465 -0.180 -0.867 82 72 70
12.7600 21.6839 63.0146 0.058 -0.496 -0.866 94 85 81
12.9017 21.6891 63.0593 0.094 -0.480 -0.872 94 85 81
13.1835 21.6798 63.1178 0.093 -0.489 -0.867 100 91 87
14.3015 21.5404 63.1905 0.035 -0.402 -0.915 95 90 86
14.7232 21.5089 63.2507 0.137 -0.448 -0.884 110 105 101
14.8672 21.5233 63.3103 -0.027 -0.323 -0.946 134 129 125
15.0066 21.5031 63.3150 -0.040 -0.336 -0.941 126 121 115
15.2902 21.4965 63.3783 0.089 -0.341 -0.936 84 79 73
15.4277 21.4629 63.3616 0.226 -0.369 -0.902 91 86 80
15.5717 21.4736 63.4154 0.226 -0.269 -0.936 102 97 91
16.1373 21.4417 63.5123 0.008 -0.300 -0.954 134 126 115
16.2770 21.4227 63.5190 0.013 -0.309 -0.951 132 122 112
16.4158 21.3990 63.5180 -0.044 -0.281 -0.959 153 143 133
16.6976 21.3750 63.5537 0.162 -0.281 -0.946 151 143 133
16.9806 21.3576 63.5999 0.126 -0.471 -0.873 138 125 116
17.1251 21.3644 63.6478 0.173 -0.460 -0.871 144 130 120
17.2655 21.3494 63.6609 0.021 -0.554 -0.832 169 154 147
17.4066 21.3376 63.6790 0.016 -0.564 -0.825 155 141 132
17.5471 21.3226 63.6921 0.016 -0.564 -0.825 120 106 97
17.6838 21.2889 63.6750 0.187 -0.594 -0.782 117 103 94
17.8319 21.3108 63.7475 0.176 -0.427 -0.887 124 110 101
17.9987 21.4211 63.9622 0.120 -0.621 -0.774 131 117 108
18.1395 21.4054 63.9742 -0.184 -0.364 -0.913 130 116 107
18.2768 21.3732 63.9597 0.096 -0.637 -0.765 116 101 94
18.4177 21.3582 63.9728 0.099 -0.630 -0.770 107 90 82
18.5603 21.3504 63.9976 0.099 -0.630 -0.770 115 98 91
19.0941 21.1634 63.8450 -0.090 -0.393 -0.915 125 108 100
19.2322 21.1385 63.8421 -0.090 -0.393 -0.915 130 113 105
20.0022 21.3242 64.3302 0.195 -0.126 -0.973 152 138 127
20.1445 21.3124 64.3487 0.201 -0.132 -0.971 148 134 125
20.2849 21.2934 64.3554 -0.061 -0.264 -0.963 130 116 107
20.4282 21.2854 64.3802 -0.032 -0.260 -0.965 143 128 121
20.7079 21.2437 64.3877 0.227 -0.317 -0.921 145 128 120
20.8505 21.2327 64.4076 0.168 -0.337 -0.927 141 124 116
20.9961 21.2323 64.4446 0.177 -0.343 -0.922 131 114 106
21.1436 21.2383 64.4921 0.197 -0.351 -0.916 132 115 107
21.2928 21.2494 64.5480 0.203 -0.373 -0.905 131 114 106
21.4447 21.2691 64.6179 0.275 -0.396 -0.876 147 130 120
22.3610 21.3867 65.0381 -0.073 -0.172 -0.982 140 126 115
23.1005 21.3915 65.2368 0.319 -0.314 -0.894 135 121 112
23.2214 21.3109 65.1429 0.410 -0.428 -0.806 126 112 103
23.3797 21.3420 65.2322 0.400 -0.439 -0.805 134 120 111
24.3042 21.4389 65.6222 0.294 -0.286 -0.912 140 126 117
24.4464 21.4201 65.6299 -0.197 -0.513 -0.836 114 101 92
25.9446 21.4266 66.0278 0.092 -0.342 -0.935 85 75 66
27.5209 21.5845 66.6813 0.160 -0.389 -0.907 65 52 43
27.6701 21.5783 66.7103 0.160 -0.389 -0.907 97 85 73
27.8198 21.5729 66.7406 0.154 -0.469 -0.870 116 104 92
27.9731 21.5755 66.7844 0.237 -0.500 -0.833 96 83 74
28.1237 21.5718 66.8177 0.296 -0.401 -0.867 94 81 73
28.4259 21.5661 66.8870 0.277 -0.489 -0.827 82 67 62
28.6011 21.6151 67.0086 -0.172 -0.372 -0.912 100 85 80
28.7250 21.5530 66.9442 0.107 -0.451 -0.886 103 88 83
28.8732 21.5431 66.9671 0.107 -0.451 -0.886 102 87 82
29.3547 21.5902 67.1649 0.425 -0.374 -0.825 97 84 76
29.9639 21.5802 67.3072 0.006 -0.134 -0.991 114 104 94
30.1345 21.6138 67.4036 -0.008 -0.254 -0.967 113 103 93
30.3066 21.6497 67.5039 0.174 -0.448 -0.877 137 124 115
30.4666 21.6610 67.5628 0.241 -0.472 -0.848 161 151 139
31.3558 21.8813 68.1356 0.539 -0.208 -0.817 130 120 110
31.7223 21.9838 68.3898 0.353 -0.247 -0.902 126 116 107
31.8750 21.9768 68.4185 0.249 -0.148 -0.957 109 99 90
32.0048 21.9271 68.3749 0.140 -0.020 -0.990 119 109 100
32.6470 21.9548 68.5842 0.080 -0.518 -0.851 112 103 94
33.5753 21.9268 68.7809 -0.072 -0.793 -0.605 112 108 97
33.7240 21.9112 68.7952 -0.081 -0.798 -0.598 118 114 103
33.8684 21.8882 68.7968 -0.072 -0.793 -0.605 131 124 114
34.2231 22.2225 69.4084 0.046 -0.492 -0.869 125 118 108
34.8784 22.2517 69.6235 0.547 -0.486 -0.682 120 116 107
35.0753 22.3127 69.7693 0.255 -0.308 -0.916 118 114 105
35.2448 22.3280 69.8370 0.166 -0.182 -0.969 103 98 92
35.5570 22.3141 69.8962 0.151 -0.092 -0.984 66 61 55
35.8725 22.3049 69.9635 0.360 -0.114 -0.926 65 62 55
37.0285 22.5964 70.7161 0.216 -0.448 -0.867 108 105 98
37.1972 22.6058 70.7744 0.231 -0.394 -0.889 95 92 85
38.3027 22.7932 71.3519 0.378 -0.534 -0.756 119 117 105
38.4543 22.7745 71.3622 0.514 -0.232 -0.826 117 115 103
38.6676 22.8460 71.5285 0.275 -0.493 -0.825 123 121 109
38.8303 22.8430 71.5659 0.303 -0.478 -0.825 113 111 99
38.9933 22.8403 71.6039 0.290 -0.464 -0.837 107 105 93
39.1305 22.8004 71.5774 -0.036 -0.596 -0.802 112 110 98
39.4135 22.9692 71.9131 0.483 -0.311 -0.819 111 109 97
40.8566 23.1246 72.5284 0.273 -0.211 -0.939 97 97 85
42.5732 23.3928 73.3898 0.449 -0.014 -0.893 85 84 80
42.9083 23.6079 73.8110 0.724 -0.125 -0.678 85 84 80
42.9987 23.5042 73.6731 0.783 -0.202 -0.588 86 85 81
44.0235 24.1585 74.9558 0.846 -0.201 -0.493 97 96 91
44.2712 23.8162 74.4876 -0.171 0.161 -0.972 85 84 79
46.2351 24.3061 75.7578 -0.105 -0.900 -0.424 93 94 86
50.1254 25.4948 78.6132 0.157 0.433 -0.888 81 98 82
50.3461 25.5373 78.7363 0.167 0.453 -0.876 81 98 82
-24.7511 31.0793 67.6184 0.001 -0.178 -0.984 69 91 79
-24.4356 31.0419 67.6420 0.168 -0.256 -0.952 58 80 68
-22.8849 30.4388 67.1085 -0.491 -0.202 -0.848 156 176 185
-23.8330 33.1245 71.0229 0.782 -0.437 -0.445 90 109 106
-18.3642 28.8849 65.8692 -0.216 -0.502 -0.837 55 54 50
-18.1899 28.8283 65.8266 -0.253 -0.386 -0.887 63 62 58
-17.8538 28.7363 65.7710 -0.253 -0.386 -0.887 63 63 61
-17.6535 28.6317 65.6606 0.236 -0.634 -0.737 57 57 55
-17.5921 28.7784 65.9036 0.487 0.018 -0.873 49 49 47
-3.1891 24.6292 63.1969 0.127 -0.483 -0.866 67 60 60
-1.3856 24.0951 62.8355 0.126 0.399 -0.908 59 47 47
-0.8490 23.5755 62.1693 -0.236 0.082 -0.968 76 64 64
-0.5525 23.4776 62.0942 -0.260 0.076 -0.962 67 57 56
-0.3251 23.6910 62.4834 0.070 -0.365 -0.929 65 56 57
-0.0430 23.6620 62.5113 0.074 -0.406 -0.911 63 54 55
4.1027 22.8149 62.2699 0.013 -0.625 -0.780 84 73 71
4.5298 22.7053 62.2104 0.210 -0.691 -0.691 67 56 54
4.6720 22.6677 62.1889 0.275 -0.566 -0.777 67 56 54
4.8085 22.6824 62.2470 0.262 -0.574 -0.775 67 56 54
5.8033 22.3812 62.0374 0.310 -0.814 -0.492 65 53 55
5.9400 22.3971 62.0973 0.310 -0.814 -0.492 70 58 60
6.0775 22.4048 62.1448 0.351 -0.795 -0.495 66 54 54
6.3583 22.3455 62.1254 0.108 -0.878 -0.467 64 52 52
6.4640 22.8379 62.9152 -0.340 -0.148 -0.929 64 52 52
8.3034 22.3344 62.6103 -0.063 -0.490 -0.870 78 66 66
8.8634 22.2576 62.6361 0.209 -0.525 -0.825 83 71 71
9.0032 22.2471 62.6559 0.196 -0.542 -0.817 82 70 70
9.1431 22.2384 62.6786 0.238 -0.511 -0.826 83 71 71
9.2831 22.2268 62.6968 0.267 -0.482 -0.834 83 71 71
9.4230 22.2226 62.7263 0.098 -0.510 -0.855 85 75 73
9.5617 21.9931 62.4067 -0.405 -0.097 -0.909 84 74 72
9.9801 21.9799 62.4944 0.098 -0.531 -0.841 85 75 73
10.5384 21.9442 62.5833 0.435 -0.554 -0.710 78 68 67
11.5157 21.8565 62.6997 0.354 -0.198 -0.914 97 87 86
12.6444 21.8883 63.0404 0.014 -0.510 -0.860 86 76 75
12.7844 21.8726 63.0523 -0.005 -0.495 -0.869 86 76 78
12.9238 21.8491 63.0518 0.006 -0.507 -0.862 88 79 81
13.2036 21.8158 63.0725 -0.006 -0.479 -0.878 86 77 79
13.3438 21.8019 63.0872 -0.003 -0.486 -0.874 68 59 61
13.4843 21.7916 63.1076 0.010 -0.480 -0.877 49 40 42
13.6243 21.7752 63.1182 0.010 -0.480 -0.877 51 42 44
13.7643 21.7596 63.1302 -0.011 -0.469 -0.883 52 43 44
13.9012 21.7158 63.0978 -0.166 -0.427 -0.889 45 40 37
14.0395 21.6855 63.0866 -0.166 -0.427 -0.889 44 39 36
15.1703 21.6455 63.3166 0.188 -0.156 -0.970 80 77 70
15.3131 21.6480 63.3573 0.266 -0.223 -0.938 93 88 82
15.4523 21.6261 63.3593 0.226 -0.294 -0.929 100 97 92
15.5931 21.6143 63.3774 0.240 -0.332 -0.912 107 104 97
15.7385 21.6324 63.4431 0.040 -0.363 -0.931 116 112 105
16.8598 21.5009 63.5289 0.124 -0.484 -0.867 152 142 132
16.9994 21.4819 63.5355 0.126 -0.471 -0.873 142 132 122
17.1429 21.4832 63.5746 0.199 -0.491 -0.848 142 129 120
17.2827 21.4651 63.5826 0.028 -0.556 -0.830 158 145 136
17.4237 21.4530 63.6004 0.016 -0.564 -0.825 152 139 130
17.5642 21.4381 63.6134 0.016 -0.564 -0.825 134 121 112
17.7031 21.4155 63.6144 0.163 -0.535 -0.829 127 114 105
17.8515 21.4393 63.6895 0.176 -0.427 -0.887 129 116 107
17.9943 21.4350 63.7197 -0.018 -0.090 -0.996 132 118 109
18.2774 21.4138 63.7600 0.014 -0.099 -0.995 118 101 93
20.3093 21.4400 64.3252 -0.029 -0.210 -0.977 150 136 127
20.4488 21.4172 64.3260 -0.029 -0.210 -0.977 140 123 115
20.7289 21.3767 64.3355 0.262 -0.158 -0.952 139 122 114
20.8726 21.3697 64.3618 0.168 -0.337 -0.927 129 112 104
21.1655 21.3744 64.4447 0.197 -0.351 -0.916 100 83 75
21.3123 21.3773 64.4872 0.182 -0.388 -0.904 98 81 73
21.4614 21.3877 64.5417 0.291 -0.378 -0.879 121 107 96
23.1226 21.5276 65.1873 0.308 -0.311 -0.899 125 111 102
23.3845 21.4272 65.0995 0.365 -0.150 -0.919 126 112 103
23.5525 21.4861 65.2340 0.409 -0.432 -0.804 130 116 105
23.7585 21.6531 65.5458 0.405 -0.352 -0.844 121 109 97
24.3679 21.6900 65.7603 0.302 -0.438 -0.847 135 123 111
24.5192 21.6952 65.8074 0.379 -0.494 -0.782 119 107 95
24.6012 21.5115 65.5441 -0.248 -0.055 -0.967 119 107 95
26.2717 21.5732 66.0710 0.340 -0.283 -0.897 90 77 69
27.0565 21.6464 66.3871 0.213 -0.463 -0.861 126 113 104
27.2102 21.6520 66.4354 0.232 -0.444 -0.865 100 87 78
27.3939 21.7264 66.5980 0.160 -0.389 -0.907 70 57 48
27.5430 21.7202 66.6270 0.160 -0.389 -0.907 86 73 64
27.6923 21.7141 66.6560 0.160 -0.389 -0.907 93 80 71
27.8327 21.6880 66.6518 0.128 -0.475 -0.871 112 99 90
27.9893 21.6982 66.7081 0.247 -0.508 -0.825 98 85 77
28.1356 21.6849 66.7253 0.264 -0.520 -0.812 97 82 75
28.3142 21.7428 66.8611 0.491 -0.339 -0.802 85 70 65
29.2566 21.7955 67.1859 0.082 -0.216 -0.973 99 86 78
29.4005 21.7754 67.1920 0.137 -0.213 -0.967 104 94 85
29.5582 21.7839 67.2460 0.396 -0.296 -0.869 112 102 92
29.7365 21.8344 67.3702 0.576 -0.473 -0.667 118 108 98
29.8945 21.8426 67.4236 0.534 -0.412 -0.738 112 102 92
30.0066 21.7575 67.3209 0.016 -0.297 -0.955 116 106 96
31.3752 22.0126 68.0692 0.604 -0.184 -0.776 124 114 102
31.7493 22.1296 68.3471 0.349 -0.252 -0.902 127 117 107
31.9032 22.1248 68.3793 0.375 -0.197 -0.906 119 109 100
32.2296 22.1488 68.5007 0.015 -0.373 -0.928 136 126 117
32.3791 22.1352 68.5184 0.017 -0.371 -0.928 132 122 113
33.7177 21.9989 68.6529 -0.082 -0.797 -0.599 118 114 102
33.8636 21.9789 68.6595 -0.082 -0.797 -0.599 132 128 116
34.2720 22.4056 69.4258 -0.001 -0.444 -0.896 127 121 109
34.6164 22.4485 69.5811 0.493 -0.127 -0.861 120 114 102
34.7889 22.4698 69.6586 0.467 -0.139 -0.873 120 113 103
35.1227 22.4924 69.7799 0.146 -0.121 -0.982 113 108 102
35.2769 22.4823 69.8041 0.146 -0.121 -0.982 103 98 92
37.0357 22.7122 70.6143 0.083 -0.714 -0.696 94 91 86
38.1108 22.8584 71.1182 0.498 -0.560 -0.662 108 105 96
38.3096 22.9101 71.2496 0.475 -0.452 -0.755 125 122 113
38.4956 22.9422 71.3474 0.475 -0.452 -0.755 125 123 111
38.6820 22.9744 71.4454 0.475 -0.452 -0.755 147 145 133
38.8648 23.0009 71.5337 0.487 -0.411 -0.771 129 125 113
39.0731 23.0638 71.6848 0.557 -0.391 -0.733 109 107 95
39.2716 23.1116 71.8101 0.557 -0.391 -0.733 111 108 99
39.4527 23.1339 71.8914 0.487 -0.458 -0.744 112 110 98
39.8893 23.0474 71.8702 0.246 -0.460 -0.853 107 108 92
42.4336 23.5449 73.2975 0.326 0.512 -0.795 81 81 73
44.1420 24.4258 75.1029 0.848 -0.398 -0.351 96 93 86
43.8376 23.8178 74.0827 -0.226 -0.243 -0.943 89 86 79
44.3175 23.9899 74.4731 -0.016 0.200 -0.980 89 86 77
44.3183 23.7749 74.1403 0.778 -0.356 -0.518 75 74 63
44.5665 23.8701 74.3519 0.739 -0.613 -0.279 94 92 81
46.1698 24.5576 75.8306 -0.169 -0.889 -0.425 97 98 90
46.2217 24.4082 75.6126 -0.072 -0.896 -0.439 90 91 83
-25.9460 31.9454 68.3551 -0.130 -0.523 -0.842 40 67 51
-24.7337 31.2269 67.5590 0.137 -0.290 -0.947 68 88 77
-24.5821 31.2176 67.5837 0.137 -0.290 -0.947 68 88 79
-19.8865 29.4714 66.0994 -0.407 -0.278 -0.870 51 53 47
-9.4721 26.4601 64.1364 -0.521 -0.701 -0.487 71 60 64
-9.2965 26.3718 64.0454 -0.538 -0.660 -0.523 70 59 63
-1.6772 24.3626 62.9084 0.114 0.377 -0.919 55 43 45
-1.5343 24.3458 62.9192 0.114 0.377 -0.919 60 48 48
-1.3914 24.3289 62.9300 0.114 0.377 -0.919 65 53 53
-1.2131 24.1628 62.7198 -0.059 0.022 -0.998 59 47 47
-0.3102 23.8390 62.4527 0.269 -0.382 -0.884 65 56 57
-0.1813 23.8808 62.5505 0.337 -0.396 -0.854 66 57 58
-0.0450 23.8901 62.5999 0.337 -0.396 -0.854 70 61 62
2.5540 23.2892 62.3424 -0.137 -0.841 -0.524 68 58 56
4.1156 22.9937 62.2887 -0.109 -0.823 -0.557 83 72 70
4.9514 22.9535 62.4418 0.138 -0.611 -0.780 66 54 54
5.2569 22.6596 62.0673 -0.138 0.143 -0.980 65 53 55
6.7908 22.5007 62.2172 0.044 -0.191 -0.981 63 51 51
6.9279 22.5289 62.2959 0.068 -0.477 -0.876 63 51 51
7.0687 22.4912 62.2740 0.029 -0.483 -0.875 63 51 51
7.2034 22.5764 62.4401 -0.249 -0.234 -0.940 66 54 58
7.6242 22.5029 62.4352 0.297 -0.337 -0.893 90 78 82
8.3174 22.6875 62.8985 0.219 0.039 -0.975 71 59 60
8.6034 22.3747 62.4895 -0.314 -0.341 -0.886 71 59 59
8.8824 22.3969 62.5957 0.201 -0.480 -0.854 76 64 64
9.0222 22.4099 62.6518 0.141 -0.317 -0.938 76 64 64
9.1622 22.4040 62.6787 0.136 -0.290 -0.947 76 64 64
9.3023 22.3754 62.6707 0.124 -0.303 -0.945 76 64 64
10.5580 22.0867 62.5486 0.374 -0.465 -0.802 78 68 67
10.6996 22.1333 62.6570 0.172 -0.592 -0.788 78 68 67
10.9842 22.2321 62.8827 -0.394 -0.284 -0.874 78 68 67
12.5220 22.0090 62.9347 0.162 -0.596 -0.787 81 71 69
12.6624 21.9995 62.9562 0.113 -0.575 -0.810 70 60 58
12.8026 21.9867 62.9724 0.015 -0.537 -0.844 59 50 50
13.0835 21.9655 63.0122 0.004 -0.529 -0.848 100 91 92
13.2235 21.9492 63.0230 0.004 -0.529 -0.848 107 98 99
13.3630 21.9285 63.0271 0.006 -0.537 -0.844 88 79 80
13.5030 21.9125 63.0384 0.006 -0.537 -0.844 65 56 57
13.6435 21.9016 63.0577 0.014 -0.528 -0.849 59 50 51
13.7832 21.8827 63.0646 -0.011 -0.469 -0.883 55 47 47
13.9215 21.8524 63.0534 -0.186 -0.439 -0.879 45 40 37
14.0590 21.8143 63.0301 -0.150 -0.422 -0.894 45 40 37
14.2001 21.8095 63.0590 -0.041 -0.336 -0.941 41 36 33
15.0492 21.7860 63.2415 -0.016 -0.305 -0.952 68 63 57
15.3333 21.7814 63.3075 0.281 -0.335 -0.899 102 97 91
15.4714 21.7510 63.2962 0.238 -0.287 -0.928 111 106 102
16.4581 21.6737 63.4311 -0.027 -0.290 -0.957 114 104 94
16.5991 21.6621 63.4494 -0.047 -0.280 -0.959 112 102 92
16.7433 21.6687 63.4969 0.129 -0.298 -0.946 134 124 114
17.0118 21.5713 63.4157 0.134 -0.635 -0.761 140 127 118
17.4429 21.5790 63.5386 0.144 -0.599 -0.788 150 137 128
17.5844 21.5694 63.5602 0.122 -0.566 -0.816 151 138 129
17.7239 21.5495 63.5654 0.213 -0.471 -0.856 142 129 120
17.8717 21.5704 63.6358 0.170 -0.428 -0.888 137 124 115
22.1467 21.7770 65.0553 0.228 -0.241 -0.943 138 124 113
22.2895 21.7616 65.0683 0.204 -0.406 -0.891 141 127 116
22.4479 21.7957 65.1618 0.168 -0.380 -0.910 140 126 115
22.5816 21.7512 65.1276 -0.174 -0.328 -0.929 140 126 117
23.1478 21.6732 65.1530 0.304 -0.323 -0.896 120 106 97
23.4146 21.5867 65.0883 0.356 -0.261 -0.897 111 97 88
23.7853 21.8030 65.5174 0.398 -0.361 -0.843 85 73 61
23.9391 21.8171 65.5787 0.168 -0.450 -0.877 71 59 47
24.0865 21.8123 65.6094 0.168 -0.450 -0.877 86 74 62
24.2375 21.8173 65.6560 0.197 -0.446 -0.873 103 91 79
24.3859 21.8150 65.6906 0.197 -0.446 -0.873 121 109 97
26.3332 21.8056 66.1777 0.127 -0.436 -0.891 93 80 72
26.9248 21.7760 66.2844 0.232 -0.447 -0.864 97 84 76
27.0822 21.7905 66.3473 0.252 -0.481 -0.839 93 80 71
27.2349 21.7936 66.3913 0.252 -0.481 -0.839 91 78 69
27.3814 21.7821 66.4112 0.226 -0.447 -0.866 83 70 61
27.5279 21.7704 66.4310 0.209 -0.448 -0.869 79 66 57
27.6828 21.7780 66.4825 0.160 -0.509 -0.846 93 80 71
27.8283 21.7637 66.4979 0.173 -0.488 -0.856 91 78 69
28.0043 21.8178 66.6268 0.244 -0.518 -0.820 92 79 71
28.1780 21.8657 66.7454 0.126 -0.489 -0.863 90 75 68
31.7325 22.1930 68.1656 0.444 -0.449 -0.775 116 106 96
31.9233 22.2577 68.3145 0.381 -0.199 -0.903 114 104 95
32.0869 22.2707 68.3768 0.107 -0.080 -0.991 113 103 94
32.2482 22.2792 68.4314 0.099 -0.066 -0.993 115 105 96
33.8571 22.0663 68.5173 -0.117 -0.730 -0.673 134 127 117
34.2612 22.4872 69.2707 0.040 -0.498 -0.866 128 121 111
34.7622 22.5259 69.4594 0.507 -0.423 -0.751 120 113 103
35.2680 22.5693 69.6566 0.124 -0.355 -0.927 104 99 93
35.4369 22.5835 69.7220 0.189 -0.301 -0.935 103 98 92
35.5944 22.5788 69.7553 0.189 -0.301 -0.935 91 87 80
37.0572 22.8502 70.5505 0.139 -0.604 -0.785 98 98 90
38.0695 22.9028 70.8924 0.653 -0.321 -0.686 111 108 99
38.3001 23.0027 71.1059 0.596 -0.349 -0.723 126 123 114
38.8888 23.1434 71.4745 0.553 -0.399 -0.732 131 129 116
39.0860 23.1904 71.5978 0.553 -0.399 -0.732 114 112 100
39.2766 23.2271 71.7035 0.545 -0.407 -0.733 113 110 101
39.4720 23.2701 71.8201 0.487 -0.458 -0.744 114 112 99
40.0033 23.3174 72.0300 -0.128 -0.613 -0.780 101 102 84
40.1626 23.3076 72.0559 -0.149 -0.608 -0.780 105 107 88
40.2795 23.2382 71.9790 0.517 -0.349 -0.782 108 110 90
40.8007 23.2684 72.1598 0.419 -0.365 -0.831 106 104 92
42.7601 23.8640 73.5831 0.269 0.213 -0.939 91 91 83
43.8688 23.9722 74.0355 -0.226 -0.243 -0.943 89 86 79
44.1566 24.1197 74.3371 -0.106 -0.041 -0.994 89 86 79
44.4050 24.2159 74.5494 -0.002 0.214 -0.977 88 85 76
44.6585 24.1007 74.4370 0.784 -0.381 -0.490 100 98 86
45.8432 24.4917 75.3452 -0.048 -0.896 -0.442 105 107 96
46.1655 24.4586 75.3771 -0.048 -0.896 -0.442 89 90 82
-24.7394 31.4096 67.5474 0.019 -0.156 -0.988 53 73 62
-24.5840 31.3947 67.5644 -0.349 -0.234 -0.907 56 73 65
-23.2664 30.9309 67.1903 -0.638 -0.220 -0.738 145 165 164
-23.0379 30.7996 67.0472 -0.607 -0.205 -0.768 161 181 182
-17.2482 28.7588 65.3988 -0.260 -0.422 -0.869 59 61 58
-9.4038 26.4724 63.9009 -0.254 -0.728 -0.638 68 57 61
-1.6642 24.5180 62.8861 0.309 0.314 -0.898 63 53 54
-0.4246 23.9478 62.3284 -0.092 -0.475 -0.875 68 59 60
-0.0031 23.9114 62.3808 -0.045 -0.685 -0.727 75 66 67
0.2505 24.0215 62.6151 0.404 -0.802 -0.440 72 63 64
2.5807 23.3687 62.2106 -0.045 -0.745 -0.665 82 72 70
4.9718 23.0686 62.3638 0.176 -0.425 -0.888 69 57 57
5.2594 22.9634 62.2760 0.289 -0.610 -0.738 64 52 54
5.3974 22.9713 62.3235 0.289 -0.610 -0.738 64 52 54
6.3957 22.6090 62.0234 0.167 -0.246 -0.955 76 64 64
8.4847 22.4164 62.2640 -0.177 -0.255 -0.951 65 53 53
8.6243 22.3932 62.2642 -0.146 -0.204 -0.968 65 53 53
8.7639 22.3667 62.2593 -0.136 -0.213 -0.968 65 53 53
8.9034 22.3404 62.2547 0.417 -0.402 -0.815 70 58 58
9.0414 22.5446 62.6040 0.168 -0.265 -0.950 70 58 58
9.1814 22.5384 62.6305 0.168 -0.265 -0.950 70 58 58
9.3215 22.5139 62.6288 0.124 -0.303 -0.945 70 58 58
10.0216 22.4214 62.6664 0.136 -0.360 -0.923 73 63 61
10.7179 22.2326 62.5552 0.146 -0.566 -0.811 79 69 68
11.4199 22.2299 62.7313 -0.025 -0.623 -0.781 88 78 77
11.5572 22.1663 62.6689 -0.031 -0.570 -0.821 88 78 77
11.6959 22.1337 62.6545 0.202 -0.322 -0.925 79 68 66
12.9629 22.1096 62.9428 -0.122 -0.435 -0.892 75 67 65
13.1020 22.0837 62.9389 0.120 -0.408 -0.905 76 68 66
13.2427 22.0750 62.9615 0.120 -0.408 -0.905 88 80 78
13.3810 22.0414 62.9455 0.031 -0.442 -0.897 87 79 77
13.5226 22.0427 62.9839 0.061 -0.395 -0.917 57 49 47
13.6632 22.0321 63.0037 0.047 -0.381 -0.924 45 37 35
13.8034 22.0181 63.0181 -0.073 -0.316 -0.946 49 41 39
13.9424 21.9932 63.0156 -0.073 -0.316 -0.946 55 50 46
14.0810 21.9655 63.0086 -0.041 -0.336 -0.941 69 64 60
14.2202 21.9433 63.0104 -0.041 -0.336 -0.941 82 77 74
14.9279 21.9252 63.1643 -0.077 -0.384 -0.920 100 95 91
15.0696 21.9208 63.1940 -0.000 -0.331 -0.944 83 78 72
15.2106 21.9111 63.2153 0.007 -0.329 -0.944 88 81 75
15.3541 21.9182 63.2630 0.281 -0.335 -0.899 105 98 92
15.6639 22.0815 63.5935 0.075 -0.446 -0.892 114 109 103
15.8008 22.0393 63.5638 0.130 -0.396 -0.909 111 106 100
16.4790 21.8099 63.3855 -0.094 -0.496 -0.863 119 109 99
16.6178 21.7858 63.3842 -0.094 -0.496 -0.863 112 102 92
16.7584 21.7719 63.3989 -0.134 -0.532 -0.836 131 121 111
16.8929 21.7243 63.3603 -0.169 -0.546 -0.820 143 133 123
17.1817 21.7378 63.4552 0.036 -0.281 -0.959 141 128 119
17.4672 21.7316 63.5191 0.294 -0.237 -0.926 150 137 128
18.4753 21.7371 63.7865 0.198 -0.752 -0.629 152 135 127
18.6218 21.7470 63.8392 0.326 -0.495 -0.806 158 141 133
18.7647 21.7406 63.8662 0.389 -0.400 -0.830 156 139 131
18.9070 21.7308 63.8877 0.256 -0.334 -0.907 144 127 119
19.0493 21.7211 63.9093 0.306 -0.236 -0.923 133 116 108
19.1954 21.7272 63.9562 0.306 -0.236 -0.923 121 107 98
19.3180 21.6348 63.8457 -0.199 -0.095 -0.975 119 105 96
20.3546 21.7194 64.2420 -0.208 -0.737 -0.643 124 110 101
20.6968 21.9067 64.6176 -0.192 -0.136 -0.972 137 120 112
21.1080 21.8053 64.5674 0.064 0.105 -0.992 141 122 115
22.1720 21.9244 65.0237 0.228 -0.241 -0.943 124 110 99
22.3178 21.9184 65.0520 0.082 -0.272 -0.959 131 117 106
22.4636 21.9123 65.0800 0.160 -0.375 -0.913 137 123 112
22.5962 21.8640 65.0398 0.161 -0.186 -0.969 143 129 120
22.7095 21.7565 64.9039 -0.196 -0.236 -0.952 136 122 113
22.8483 21.7297 64.8983 0.293 -0.374 -0.880 132 118 109
23.1381 21.7135 64.9478 0.357 -0.373 -0.856 124 110 101
23.8079 21.9408 65.4691 0.398 -0.361 -0.843 87 75 63
23.9609 21.9524 65.5263 0.180 -0.468 -0.865 66 54 42
24.1088 21.9490 65.5589 0.180 -0.468 -0.865 94 82 70
24.2573 21.9471 65.5942 0.197 -0.446 -0.873 104 92 80
24.4110 21.9593 65.6524 0.215 -0.431 -0.876 108 96 84
24.7180 21.9811 65.7648 0.436 -0.447 -0.781 130 120 108
25.1003 21.8028 65.5891 0.281 -0.275 -0.919 139 131 120
26.0136 21.8403 65.8812 -0.037 -0.470 -0.882 110 100 90
26.1726 21.8619 65.9552 0.035 -0.347 -0.937 108 95 87
26.3494 21.9268 66.1004 0.160 -0.411 -0.897 100 87 79
27.2670 21.9527 66.3758 0.197 -0.469 -0.861 93 80 71
27.4067 21.9251 66.3694 0.182 -0.469 -0.864 91 78 69
27.5553 21.9183 66.3971 0.213 -0.465 -0.859 88 75 66
27.8490 21.8962 66.4386 0.132 -0.196 -0.972 86 73 64
28.0171 21.9326 66.5377 0.265 -0.130 -0.955 86 73 65
28.8442 22.0740 66.9673 0.254 -0.148 -0.956 84 69 64
28.9899 22.0579 66.9800 0.133 -0.172 -0.976 105 90 85
29.1452 22.0625 67.0270 0.141 -0.172 -0.975 111 96 91
29.2988 22.0628 67.0669 0.103 0.025 -0.994 108 95 87
31.7854 22.3878 68.2049 0.349 -0.585 -0.732 123 113 103
31.9549 22.4123 68.2861 0.353 -0.449 -0.821 130 120 111
32.1007 22.3921 68.2925 0.128 -0.421 -0.898 134 124 115
32.2573 22.3919 68.3324 0.129 -0.431 -0.893 118 108 99
32.4157 22.3948 68.3776 -0.009 -0.429 -0.903 119 109 100
32.9221 22.4581 68.6049 0.287 0.062 -0.956 113 106 96
33.0834 22.4648 68.6566 0.463 -0.269 -0.845 113 109 98
33.6295 22.5922 68.9926 0.597 -0.475 -0.647 123 116 106
33.8636 22.1759 68.4131 -0.103 -0.739 -0.666 135 128 118
34.2828 22.6238 69.2090 0.070 -0.434 -0.898 126 119 109
35.0963 22.6511 69.4599 0.584 -0.088 -0.807 107 103 94
35.8419 22.8216 69.9133 0.327 -0.370 -0.869 100 98 87
36.9244 23.0005 70.4662 0.425 -0.332 -0.842 94 94 84
37.0810 22.9915 70.4927 0.135 -0.527 -0.839 119 119 109
37.9604 23.0903 70.8704 0.455 -0.594 -0.663 113 110 101
38.3359 23.1624 71.0775 0.561 -0.386 -0.732 111 108 99
38.7294 23.2586 71.3264 0.576 -0.366 -0.731 123 121 109
38.9126 23.2857 71.4150 0.553 -0.399 -0.732 123 121 109
39.1229 23.3519 71.5708 0.555 -0.321 -0.767 119 117 105
39.3207 23.3990 71.6940 0.555 -0.321 -0.767 115 112 103
40.3641 23.4662 72.0652 0.273 -0.455 -0.848 112 116 93
40.5123 23.4406 72.0639 -0.100 -0.775 -0.624 113 115 95
40.8470 23.4422 72.1524 0.439 -0.421 -0.794 111 109 96
42.8347 24.0755 73.6359 0.273 -0.064 -0.960 93 90 81
44.0290 24.2916 74.2747 0.488 -0.122 -0.864 89 86 79
44.2313 24.3299 74.3855 -0.050 0.050 -0.998 89 86 79
44.4443 24.3812 74.5190 -0.011 0.202 -0.979 92 89 80
44.5474 24.2934 74.4106 0.579 0.045 -0.814 105 102 93
45.5614 24.4774 74.9538 0.335 -0.432 -0.837 105 105 95
45.8174 24.5778 75.1737 0.257 -0.382 -0.888 105 106 98
45.9730 24.5547 75.1783 -0.077 -0.838 -0.540 96 97 89
46.1596 24.5692 75.2485 0.232 -0.348 -0.908 90 91 83
51.7924 26.0910 79.0333 0.717 -0.476 -0.509 92 105 95
-24.4759 31.6268 67.6571 -0.367 -0.152 -0.918 61 78 70
-23.4768 31.2075 67.2714 -0.550 -0.233 -0.802 74 94 93
-23.2601 31.0954 67.1554 -0.550 -0.233 -0.802 178 198 198
-23.0707 31.0254 67.0968 -0.446 -0.215 -0.869 148 168 167
-16.5832 28.7522 65.2800 -0.118 -0.572 -0.812 67 66 61
-9.3679 26.5649 63.7812 -0.254 -0.728 -0.638 68 57 61
-1.6640 24.1645 62.0815 -0.364 -0.453 -0.814 69 60 61
-1.5226 24.1479 62.0923 -0.350 -0.379 -0.857 72 62 61
-0.8370 24.1567 62.2814 -0.321 0.166 -0.932 76 64 64
-0.2575 24.0294 62.2351 -0.272 -0.564 -0.780 76 67 68
-0.1178 24.0208 62.2577 -0.131 -0.613 -0.780 76 67 68
0.0252 23.9967 62.2574 -0.126 -0.632 -0.765 83 74 75
0.1631 23.9968 62.2929 0.140 -0.583 -0.801 77 68 69
0.3033 23.9864 62.3129 0.156 -0.561 -0.813 70 61 64
5.2771 23.1058 62.2396 0.284 -0.577 -0.766 63 51 53
6.4147 22.7355 61.9643 0.193 -0.151 -0.970 72 60 60
8.7840 22.4112 62.0750 0.178 -0.692 -0.699 67 55 55
8.9218 22.5416 62.3098 0.395 -0.408 -0.823 76 64 64
9.2008 22.6061 62.4799 0.200 -0.539 -0.819 68 56 56
9.3407 22.6102 62.5222 0.004 -0.648 -0.761 66 54 54
9.4806 22.5793 62.5106 0.137 -0.487 -0.863 77 67 65
9.6204 22.5536 62.5071 0.037 -0.446 -0.894 72 62 60
9.7605 22.5539 62.5435 -0.018 -0.454 -0.891 66 56 54
9.9005 22.5433 62.5632 0.005 -0.448 -0.894 62 52 50
10.0402 22.5150 62.5557 0.023 -0.433 -0.901 64 54 52
10.7368 22.3500 62.4816 0.151 -0.553 -0.819 78 68 67
12.2798 22.2840 62.7758 0.177 -0.268 -0.947 77 66 64
12.4215 22.2921 62.8245 0.422 -0.330 -0.844 72 61 59
12.5593 22.2473 62.7913 0.187 -0.367 -0.911 65 55 53
13.6836 22.1703 62.9616 0.077 -0.128 -0.989 88 79 80
13.8245 22.1618 62.9847 0.006 -0.340 -0.941 95 86 86
13.9639 22.1405 62.9877 -0.092 -0.365 -0.927 98 93 90
14.1019 22.1065 62.9711 0.047 -0.393 -0.918 99 94 91
14.2426 22.0969 62.9924 0.187 -0.424 -0.886 99 94 91
14.3869 22.1169 63.0600 0.122 -0.505 -0.855 84 79 76
14.5281 22.1094 63.0847 0.122 -0.505 -0.855 85 80 77
14.6678 22.0903 63.0912 0.054 -0.452 -0.890 105 100 97
14.8051 22.0525 63.0685 0.053 -0.494 -0.868 127 122 118
15.6823 22.2023 63.5225 0.070 -0.455 -0.888 93 88 82
15.8208 22.1706 63.5095 0.130 -0.396 -0.909 93 88 82
15.9471 22.0628 63.3769 -0.126 -0.366 -0.922 96 88 80
16.0855 22.0339 63.3682 -0.016 -0.165 -0.986 112 102 93
16.2234 22.0027 63.3557 0.001 -0.200 -0.980 112 102 92
16.3630 21.9822 63.3601 0.001 -0.200 -0.980 112 102 92
16.5026 21.9616 63.3643 -0.038 -0.268 -0.963 111 101 91
17.9187 21.8647 63.5788 0.068 -0.342 -0.937 143 130 121
18.0652 21.8773 63.6356 -0.057 -0.610 -0.790 142 129 120
18.2036 21.8509 63.6306 -0.071 -0.628 -0.775 147 133 124
18.4859 21.8246 63.6627 0.415 -0.395 -0.820 154 137 129
19.2194 21.8742 63.9266 0.306 -0.236 -0.923 121 104 96
20.2932 22.0951 64.5397 0.203 -0.448 -0.871 131 117 108
20.8536 22.0015 64.5401 -0.132 -0.559 -0.819 134 117 109
22.2763 21.8495 64.6719 0.049 -0.182 -0.982 126 112 101
22.4180 21.8324 64.6820 -0.073 -0.294 -0.953 133 119 110
22.5616 21.8217 64.7024 0.178 -0.246 -0.953 138 124 115
22.7168 21.8466 64.7803 0.229 -0.245 -0.942 149 135 126
22.8605 21.8354 64.8000 0.208 -0.253 -0.945 143 129 120
23.1630 21.8581 64.9122 0.355 -0.363 -0.862 133 119 110
23.8305 22.0787 65.4207 0.398 -0.361 -0.843 132 120 108
23.9800 22.0800 65.4611 0.180 -0.468 -0.865 117 105 93
24.1278 22.0766 65.4938 0.180 -0.468 -0.865 135 123 111
24.2775 22.0780 65.5342 0.203 -0.358 -0.911 130 118 106
24.4259 22.0754 65.5683 0.203 -0.358 -0.911 92 80 66
26.2211 22.0634 66.0098 0.235 -0.011 -0.972 122 109 100
26.3336 21.9690 65.8942 0.062 -0.223 -0.973 115 102 94
26.5515 22.1340 66.2024 0.483 -0.282 -0.829 107 94 86
26.9945 22.1081 66.2763 0.265 -0.570 -0.778 108 95 86
27.1155 22.0361 66.1971 0.211 -0.494 -0.844 91 78 69
27.2705 22.0449 66.2504 0.198 -0.470 -0.860 93 80 71
27.4253 22.0528 66.3021 0.192 -0.413 -0.890 98 85 76
28.8774 22.2340 66.9515 0.254 -0.148 -0.956 123 108 103
29.0222 22.2159 66.9608 0.143 -0.173 -0.975 88 73 66
29.1746 22.2139 66.9967 0.136 -0.164 -0.977 103 88 81
29.3367 22.2322 67.0662 0.150 -0.205 -0.967 128 115 107
29.4909 22.2334 67.1076 0.322 -0.339 -0.884 131 121 112
29.6439 22.2319 67.1445 0.346 -0.346 -0.872 137 127 117
31.2903 22.4306 67.8705 0.209 -0.358 -0.910 122 112 100
31.4701 22.4767 67.9871 0.448 -0.579 -0.681 129 119 109
31.6481 22.5186 68.0968 0.493 -0.620 -0.610 133 123 113
31.7996 22.5096 68.1218 0.366 -0.568 -0.737 133 123 114
31.9752 22.5456 68.2219 0.353 -0.449 -0.821 137 128 119
32.1313 22.5446 68.2603 0.133 -0.452 -0.882 137 127 118
32.2825 22.5344 68.2834 0.034 -0.486 -0.874 129 119 110
32.4307 22.5184 68.2969 0.011 -0.489 -0.872 131 121 112
32.9729 22.6469 68.6324 0.287 0.062 -0.956 109 102 92
33.1106 22.6109 68.6126 0.457 -0.263 -0.850 112 105 95
33.6087 22.6541 68.8063 0.377 -0.577 -0.725 115 108 100
33.7939 22.7012 68.9259 0.392 -0.592 -0.704 108 101 93
34.1533 22.7741 69.1295 0.050 -0.574 -0.817 124 117 109
34.2812 22.7207 69.0806 0.320 -0.554 -0.769 126 117 110
36.1012 23.0826 70.1006 0.190 -0.091 -0.978 105 105 93
36.3753 23.0043 70.0510 0.532 -0.491 -0.690 102 104 91
36.7674 23.1129 70.3177 0.447 -0.310 -0.839 101 103 90
36.9155 23.0908 70.3218 0.436 -0.378 -0.817 96 98 87
37.0196 23.0004 70.2101 -0.004 -0.245 -0.970 117 119 108
37.9227 23.1392 70.6538 0.663 -0.236 -0.710 100 97 88
38.3642 23.3110 71.0300 0.564 -0.391 -0.727 100 97 88
38.7184 23.3494 71.1794 0.391 -0.652 -0.649 124 122 110
38.8988 23.3727 71.2613 0.405 -0.643 -0.650 124 122 110
39.0946 23.4182 71.3811 0.400 -0.534 -0.745 117 114 105
39.2978 23.4738 71.5183 0.529 -0.587 -0.612 115 113 103
40.2228 23.6111 71.9652 0.150 -0.453 -0.879 115 119 96
40.3993 23.6252 72.0321 0.266 -0.417 -0.869 120 124 101
40.5551 23.6099 72.0486 0.248 -0.482 -0.840 120 123 102
41.2221 23.6090 72.2181 0.568 0.390 -0.725 110 106 97
41.7722 23.9010 72.8059 0.712 0.226 -0.665 115 111 102
44.6747 24.5698 74.5729 0.472 -0.035 -0.881 109 106 97
44.8565 24.5807 74.6361 0.504 -0.007 -0.864 116 114 102
45.7919 24.6638 75.0030 -0.075 -0.834 -0.547 103 103 95
48.3934 25.4528 76.8768 0.607 -0.698 -0.380 86 94 81
48.6999 25.6007 77.1818 0.727 -0.474 -0.496 86 94 81
51.7917 26.2160 78.9153 0.717 -0.476 -0.509 90 106 93
-24.4728 31.7972 67.6277 -0.435 -0.242 -0.867 71 88 79
-23.4547 31.3474 67.2023 -0.573 -0.290 -0.767 108 126 126
-23.2364 31.2324 67.0828 -0.573 -0.290 -0.767 174 194 193
-23.0606 31.1839 67.0537 -0.416 -0.235 -0.878 133 153 152
-22.0573 30.7351 66.6260 -0.637 -0.273 -0.721 73 88 81
-17.0343 28.9743 65.2256 -0.173 -0.571 -0.803 81 83 78
-16.8743 28.9406 65.2151 -0.173 -0.571 -0.803 101 103 98
-16.7144 28.9069 65.2045 -0.173 -0.571 -0.803 68 70 65
-16.5580 28.8796 65.2029 -0.120 -0.567 -0.815 64 65 59
-1.9333 24.3487 62.0334 -0.151 -0.591 -0.792 66 57 58
-1.7889 24.3203 62.0270 -0.151 -0.591 -0.792 66 57 58
-1.6447 24.2920 62.0207 -0.151 -0.591 -0.792 70 60 61
-1.5004 24.2636 62.0144 -0.151 -0.591 -0.792 73 63 62
-1.1317 24.4492 62.3915 -0.201 0.114 -0.973 76 64 64
1.0344 24.0058 62.2690 -0.279 -0.461 -0.843 77 67 68
1.1848 23.9395 62.2065 -0.304 -0.518 -0.799 78 68 69
3.2004 23.4215 61.9319 -0.034 -0.390 -0.920 72 64 62
4.3322 23.1948 61.8755 -0.030 -0.671 -0.741 96 85 83
4.6056 23.2180 61.9807 0.110 -0.445 -0.889 89 78 76
4.7432 23.2240 62.0250 0.038 0.132 -0.991 89 78 76
4.8826 23.2140 62.0453 0.025 0.114 -0.993 89 78 76
8.8030 22.5461 62.0291 -0.229 -0.528 -0.818 67 55 55
8.9402 22.7658 62.3990 -0.251 -0.528 -0.811 79 67 67
9.2200 22.7208 62.4019 0.070 -0.651 -0.756 68 56 56
9.3599 22.7168 62.4316 0.004 -0.648 -0.761 63 51 51
9.6396 22.6790 62.4454 0.037 -0.446 -0.894 64 54 52
9.7796 22.6676 62.4639 0.025 -0.444 -0.896 68 58 56
9.9194 22.6487 62.4707 0.038 -0.454 -0.890 70 60 58
11.0311 22.3442 62.2906 0.035 -0.687 -0.725 81 71 70
12.5794 22.3848 62.7481 0.015 -0.416 -0.909 67 57 55
13.1441 22.3761 62.8791 0.105 -0.162 -0.981 84 75 76
13.2847 22.3657 62.8992 0.080 -0.121 -0.989 89 80 81
13.9845 22.2791 62.9461 -0.078 -0.362 -0.929 96 90 90
14.1216 22.2372 62.9173 0.081 -0.423 -0.903 96 90 90
14.2643 22.2440 62.9641 0.253 -0.424 -0.870 96 90 90
14.4102 22.2763 63.0506 0.176 -0.570 -0.803 93 87 87
14.5475 22.2371 63.0259 0.077 -0.515 -0.854 96 90 90
14.6878 22.2226 63.0397 0.075 -0.519 -0.851 108 103 100
14.8278 22.2050 63.0486 0.052 -0.409 -0.911 121 116 113
14.9694 22.2007 63.0783 -0.015 -0.401 -0.916 101 96 92
15.1108 22.1933 63.1031 -0.010 -0.394 -0.919 101 98 92
15.2522 22.1864 63.1287 0.231 -0.404 -0.885 107 102 96
15.7058 22.3567 63.5042 -0.158 -0.440 -0.884 93 89 83
15.8408 22.3019 63.4551 0.130 -0.396 -0.909 92 89 82
15.9634 22.1706 63.2863 -0.094 -0.403 -0.910 94 89 80
16.2452 22.1449 63.3191 -0.001 -0.194 -0.981 93 83 73
17.0827 22.0218 63.3454 0.198 -0.283 -0.938 140 127 118
17.3703 22.0264 63.4261 0.201 -0.269 -0.942 142 129 120
17.9397 21.9998 63.5310 0.068 -0.342 -0.937 131 118 109
18.3585 21.9389 63.5451 -0.071 -0.628 -0.775 149 132 124
18.5083 21.9651 63.6234 0.428 -0.383 -0.819 148 131 123
18.8057 22.0050 63.7602 0.428 -0.383 -0.819 145 128 120
18.9534 22.0188 63.8190 0.414 -0.275 -0.868 140 123 115
19.5420 22.0568 64.0272 0.190 -0.357 -0.915 140 126 117
20.3764 21.9098 64.0164 -0.208 -0.737 -0.643 146 132 123
20.7119 22.0746 64.3534 -0.012 -0.453 -0.891 138 124 115
20.8720 22.1255 64.4718 -0.119 -0.536 -0.835 133 116 108
21.9425 22.2698 64.9654 -0.052 -0.322 -0.945 126 112 101
22.0878 22.2617 64.9901 -0.216 -0.260 -0.941 120 106 95
22.4428 21.9777 64.6479 -0.025 -0.288 -0.957 126 112 101
23.9978 22.2041 65.3903 0.234 -0.196 -0.952 133 121 109
24.1437 22.1951 65.4139 0.227 -0.375 -0.899 160 148 136
24.2972 22.2074 65.4719 0.229 -0.361 -0.904 166 154 140
25.4548 22.1038 65.6097 0.290 -0.611 -0.736 111 103 92
25.6123 22.1235 65.6800 0.336 -0.562 -0.756 116 108 97
25.9018 22.0967 65.7131 -0.058 -0.420 -0.906 148 138 128
26.1795 22.0403 65.6981 -0.083 -0.428 -0.900 132 119 110
26.3282 22.0366 65.7305 -0.095 -0.452 -0.887 125 112 103
27.1396 22.1765 66.1511 0.355 -0.317 -0.879 121 108 99
27.2958 22.1881 66.2086 0.212 -0.438 -0.873 126 113 104
27.4444 22.1815 66.2366 0.297 -0.467 -0.833 133 120 111
27.5985 22.1873 66.2848 0.290 -0.447 -0.846 135 122 113
28.6000 22.3847 66.8416 0.255 -0.459 -0.851 124 109 102
28.8985 22.3677 66.8920 0.256 -0.455 -0.853 135 120 113
29.0423 22.3474 66.8977 0.193 -0.470 -0.861 82 67 60
29.2013 22.3597 66.9571 0.153 -0.437 -0.886 88 73 66
29.3625 22.3759 67.0230 0.213 -0.459 -0.862 122 109 100
30.6660 22.5180 67.5726 0.444 -0.421 -0.791 114 104 94
31.1402 22.5347 67.7193 0.277 -0.319 -0.906 126 114 102
31.3026 22.5481 67.7811 0.301 -0.305 -0.904 126 113 104
31.9856 22.6605 68.1270 0.405 -0.508 -0.760 134 125 116
32.2997 22.6620 68.2095 0.183 -0.424 -0.887 129 120 111
32.4522 22.6540 68.2364 0.073 -0.437 -0.896 141 132 123
34.1714 22.9047 69.0578 0.289 -0.563 -0.774 125 116 109
34.2853 22.8271 68.9687 0.367 -0.520 -0.771 125 116 109
36.1535 23.2698 70.1208 0.181 -0.008 -0.984 112 112 100
38.0134 23.3820 70.7670 0.559 -0.189 -0.807 108 105 96
38.1955 23.4100 70.8561 0.544 -0.178 -0.820 108 105 96
38.7517 23.5055 71.1439 0.545 -0.524 -0.655 124 122 110
38.9161 23.5054 71.1857 0.371 -0.337 -0.865 125 123 111
39.0988 23.5319 71.2728 0.380 -0.269 -0.885 116 113 104
39.2665 23.5361 71.3221 0.400 -0.284 -0.871 114 114 103
39.4832 23.6109 71.4916 0.430 -0.267 -0.862 113 114 100
40.2545 23.7653 71.9239 0.154 -0.449 -0.880 117 121 96
40.4329 23.7819 71.9949 0.334 -0.371 -0.866 118 124 98
40.5679 23.7376 71.9618 0.257 -0.469 -0.845 118 122 100
42.7626 24.4326 73.5820 0.262 -0.094 -0.961 109 106 97
42.9110 24.4031 73.5749 0.238 -0.071 -0.969 100 97 88
44.1541 24.6823 74.3181 0.339 -0.506 -0.793 85 82 75
44.8078 24.8541 74.7470 -0.100 -0.027 -0.995 105 102 93
45.7783 24.7643 74.8580 0.211 0.009 -0.977 103 103 95
47.6891 25.5849 76.5972 0.294 -0.775 -0.559 90 93 87
-28.4975 33.7734 69.3132 0.089 0.081 -0.993 126 149 156
-28.3625 33.7941 69.3790 0.060 -0.150 -0.987 132 155 162
-25.8452 32.4978 68.0526 0.149 -0.541 -0.828 48 77 57
-25.6755 32.4638 68.0441 0.044 -0.555 -0.831 49 81 58
-23.2143 31.3719 67.0136 -0.567 -0.323 -0.757 161 181 179
-22.0390 30.8796 66.5656 -0.628 -0.270 -0.730 72 87 82
-21.8134 30.7468 66.4215 -0.608 -0.258 -0.751 70 85 80
-21.3342 30.6695 66.4264 0.039 -0.066 -0.997 78 91 81
-17.0057 29.0957 65.1400 -0.051 -0.531 -0.846 126 128 123
-16.8468 29.0639 65.1322 -0.124 -0.565 -0.816 117 119 114
-16.5323 29.0060 65.1245 -0.124 -0.565 -0.816 63 66 59
-14.5047 28.3601 64.6606 -0.324 -0.642 -0.695 70 66 65
-11.2676 27.4513 64.1056 -0.675 -0.558 -0.482 73 65 63
-3.8063 25.3502 62.8172 0.287 -0.196 -0.938 71 62 63
-3.6556 25.3088 62.7928 0.112 -0.142 -0.983 71 62 63
-3.5180 25.3129 62.8341 -0.051 -0.373 -0.927 71 62 63
-3.4378 25.5232 63.1738 0.390 -0.759 -0.522 71 62 63
-1.8968 24.4078 61.8730 0.232 -0.816 -0.529 66 57 58
3.7794 23.4875 61.9225 -0.158 -0.666 -0.729 81 73 71
3.9235 23.4388 61.8852 -0.140 -0.690 -0.710 81 70 68
4.2176 23.2858 61.7278 0.277 -0.133 -0.952 90 79 77
4.3581 23.2612 61.7263 0.113 -0.315 -0.942 96 85 83
4.4985 23.2377 61.7264 0.164 -0.379 -0.911 92 81 79
4.7564 23.4075 62.0499 0.038 0.132 -0.991 89 78 76
4.8973 23.3841 62.0504 0.140 0.093 -0.986 89 78 76
5.5640 23.7017 62.7025 0.797 -0.164 -0.581 97 85 87
8.8214 22.7323 62.0608 0.060 -0.470 -0.881 68 56 56
8.9603 22.7761 62.1627 -0.077 -0.588 -0.805 79 67 67
9.6588 22.8055 62.3853 0.109 -0.543 -0.832 55 45 43
9.7988 22.7931 62.4022 0.025 -0.444 -0.896 65 55 53
9.9389 22.7931 62.4380 0.151 -0.531 -0.833 70 60 58
