ply
format ascii 1.0
element vertex 890
property float x
property float y
property float z
property float nx
property float ny
property float nz
property uchar diffuse_red
property uchar diffuse_green
property uchar diffuse_blue
end_header
48.3938 36.7015 70.5234 0.691 0.500 -0.522 51 71 37
48.9137 38.2934 73.2623 -0.251 -0.883 -0.397 57 69 51
49.9637 37.5221 72.2873 0.312 -0.786 -0.534 35 49 32
50.1096 37.5247 72.3310 0.309 -0.786 -0.536 33 46 29
50.2453 37.4707 72.2796 0.343 -0.787 -0.512 43 56 39
52.0069 38.2348 74.0032 0.139 -0.161 -0.977 70 88 74
52.2842 38.1530 73.9447 0.163 -0.105 -0.981 63 81 67
52.4325 38.1570 73.9912 0.164 -0.142 -0.976 56 74 60
56.3283 38.8506 76.1771 -0.107 -0.393 -0.913 106 110 95
58.7169 37.6087 74.7962 -0.133 0.493 -0.860 94 97 80
58.8671 37.6213 74.8573 -0.068 0.440 -0.895 97 100 83
59.7234 39.1302 77.5517 0.803 0.334 -0.493 94 97 81
60.7779 40.7006 80.4001 0.825 0.328 -0.459 97 103 89
-22.8632 44.3685 63.4363 -0.080 0.497 -0.864 54 83 81
-18.4197 42.6238 61.8015 -0.131 -0.091 -0.987 78 92 95
-18.1880 42.5658 61.7698 -0.125 -0.083 -0.989 70 85 88
-18.0640 42.5977 61.8553 -0.255 0.040 -0.966 61 78 80
-17.7620 42.4803 61.7460 -0.253 0.068 -0.965 82 100 102
-8.7871 39.8327 59.8688 0.496 -0.442 -0.748 64 78 76
-8.1367 39.6524 59.7517 -0.168 -0.609 -0.775 56 61 65
-5.9430 39.1493 59.5270 0.175 -0.293 -0.940 88 99 93
-4.3101 38.7232 59.2758 0.603 -0.247 -0.758 87 93 91
-4.0553 38.7681 59.4178 0.251 0.291 -0.923 61 65 64
-1.6686 37.9940 58.8048 0.220 -0.543 -0.810 71 76 72
-1.5086 37.9807 58.8264 0.605 -0.420 -0.677 74 79 75
-1.3815 38.0020 58.8953 0.536 -0.330 -0.777 89 94 90
-0.9532 38.0164 59.0346 0.253 -0.487 -0.836 64 71 64
7.3836 35.5147 57.2220 0.508 -0.170 -0.844 26 28 27
8.1926 35.7274 57.7866 0.253 -0.236 -0.938 33 33 31
9.9568 35.9918 58.6938 0.187 0.005 -0.982 94 89 85
10.0982 35.9908 58.7305 0.170 -0.029 -0.985 71 66 62
10.2433 35.9848 58.7599 0.065 -0.156 -0.986 69 64 60
11.6308 35.6110 58.5274 0.587 -0.164 -0.793 89 90 85
12.0182 35.6558 58.7050 0.390 -0.351 -0.851 84 85 80
14.9651 35.1881 58.7418 0.541 0.087 -0.837 97 95 83
15.5012 35.2142 58.9291 0.454 -0.309 -0.836 97 97 85
15.6592 35.1818 58.9192 0.294 -0.480 -0.827 93 93 81
15.7941 35.1870 58.9641 0.294 -0.480 -0.827 92 92 80
15.9328 35.1858 58.9997 0.289 -0.505 -0.813 92 92 80
16.0678 35.1909 59.0445 0.289 -0.505 -0.813 92 92 82
16.3713 35.1450 59.0520 0.154 -0.181 -0.971 103 103 93
16.7613 35.1852 59.2228 0.206 -0.045 -0.978 91 91 81
18.5632 34.4280 58.4790 0.268 -0.168 -0.949 95 88 80
27.2230 34.8519 61.5107 0.757 -0.201 -0.622 69 73 53
27.3368 34.9185 61.6497 0.806 -0.093 -0.585 73 77 57
27.6787 35.1241 62.0765 0.612 -0.162 -0.774 54 57 40
27.8953 35.3024 62.4249 0.808 -0.360 -0.466 50 53 36
28.0125 35.3666 62.5611 0.406 -0.749 -0.524 49 52 35
28.4177 35.3985 62.7225 0.561 -0.780 -0.278 61 68 50
37.8377 35.3420 65.1787 0.520 0.605 -0.603 27 36 17
37.9681 35.4231 65.3458 0.626 0.557 -0.546 29 41 21
41.9822 35.4583 66.4887 0.828 -0.558 -0.049 36 56 21
43.7976 35.8505 67.6174 0.180 -0.391 -0.903 39 64 23
48.9621 37.6846 71.9966 0.742 0.457 -0.491 52 65 48
49.1535 37.9834 72.5340 0.739 0.453 -0.499 51 64 47
49.6869 37.6681 72.1657 0.177 -0.719 -0.672 38 51 34
49.7945 37.4446 71.8314 0.778 0.208 -0.592 36 50 33
49.9684 37.6134 72.1529 0.244 -0.790 -0.562 36 50 33
50.1085 37.5841 72.1432 0.262 -0.810 -0.525 35 49 32
50.2502 37.5647 72.1499 -0.142 -0.880 -0.453 57 71 54
52.2991 38.3026 73.9040 0.175 -0.130 -0.976 63 81 67
53.3916 39.8062 76.6443 0.962 -0.150 -0.229 61 78 59
56.5039 39.0363 76.2343 0.078 -0.414 -0.907 112 116 101
57.6481 36.7327 72.7983 0.640 0.528 -0.558 94 96 82
61.0362 41.0812 80.7851 0.627 0.463 -0.627 112 120 107
60.9175 40.3756 79.6057 0.343 0.591 -0.730 114 122 109
-20.9314 43.3835 62.0374 -0.326 -0.318 -0.890 74 105 103
-19.4878 43.0054 61.8156 -0.394 0.112 -0.912 41 66 63
-18.9182 42.9385 61.8612 0.065 -0.715 -0.696 57 74 74
-18.0136 42.7255 61.7609 -0.245 -0.714 -0.656 64 83 84
-17.8324 42.7094 61.7839 -0.238 -0.709 -0.663 78 98 99
-8.9644 40.0172 59.8222 -0.095 -0.216 -0.972 80 97 91
-8.7695 39.9783 59.8118 -0.095 -0.216 -0.972 75 90 85
-8.1137 39.9376 59.9233 -0.047 -0.243 -0.969 49 54 58
-7.8650 39.8463 59.8427 -0.145 -0.478 -0.866 49 54 58
-6.0808 39.2966 59.4351 0.364 -0.386 -0.848 112 127 120
-5.9235 39.2905 59.4677 0.361 -0.397 -0.843 105 116 112
-4.5860 38.8590 59.1305 0.554 -0.704 -0.445 65 71 69
-4.4819 38.9046 59.2326 0.564 -0.708 -0.424 56 62 60
-4.0284 38.9004 59.3484 0.024 0.218 -0.976 61 65 64
-1.6210 38.1013 58.7054 0.178 -0.532 -0.828 60 65 61
8.2112 35.8559 57.7281 0.282 -0.621 -0.732 38 38 36
8.0639 36.2278 58.2905 -0.106 -0.058 -0.993 54 53 51
8.2301 36.1950 58.2824 -0.101 -0.050 -0.994 75 74 72
8.3626 36.2060 58.3361 0.542 0.005 -0.840 75 74 72
10.2441 36.1384 58.7355 0.065 -0.156 -0.986 53 48 44
11.9169 35.7547 58.5666 0.442 -0.349 -0.826 74 75 70
12.0317 35.7905 58.6557 0.390 -0.351 -0.851 73 74 69
12.1509 35.8203 58.7361 -0.056 -0.449 -0.892 74 75 70
13.6179 35.2909 58.2755 0.126 -0.280 -0.952 92 92 84
14.4579 35.4880 58.8219 0.418 0.124 -0.900 100 98 86
14.5891 35.4996 58.8762 0.409 0.120 -0.905 97 95 83
14.7280 35.4992 58.9132 0.387 0.118 -0.914 97 95 83
15.2217 35.1530 58.4860 -0.195 -0.418 -0.887 98 96 84
15.3253 35.2075 58.6022 0.013 -0.443 -0.896 100 98 86
16.2388 35.2914 58.9852 0.015 -0.055 -0.998 94 94 84
16.3819 35.2827 59.0098 0.227 -0.224 -0.948 91 91 81
16.7811 35.3073 59.1578 0.189 -0.117 -0.975 79 79 69
19.0342 34.7143 58.8066 0.698 -0.256 -0.669 107 100 92
23.3700 34.7525 60.0415 0.503 -0.080 -0.861 65 63 51
23.5224 34.7152 60.0222 0.334 -0.658 -0.675 75 73 61
23.6967 34.6268 59.9262 0.460 -0.098 -0.882 96 94 82
26.4658 34.1143 59.8452 0.530 -0.293 -0.796 117 119 98
26.6919 34.2290 60.0920 0.350 -0.180 -0.919 109 111 90
26.8748 35.2315 61.7653 0.542 -0.450 -0.710 59 63 40
26.9921 35.2893 61.8906 0.686 -0.217 -0.694 62 66 43
27.4431 35.1786 61.8333 0.882 -0.140 -0.450 69 71 50
27.6860 35.2741 62.0537 0.588 -0.261 -0.766 61 61 43
27.7704 35.4349 62.3370 -0.027 -0.765 -0.643 57 57 39
28.0513 35.4212 62.3908 0.360 -0.820 -0.445 64 63 45
28.5661 34.2509 60.6344 0.184 0.067 -0.981 63 64 46
31.9156 34.2946 61.6113 -0.216 -0.566 -0.795 72 85 67
33.5540 34.1756 61.8618 0.335 -0.090 -0.938 48 66 47
34.1192 34.0249 61.7705 0.592 -0.457 -0.664 95 109 86
36.2480 34.0889 62.4500 -0.112 -0.288 -0.951 55 64 47
36.3808 34.0964 62.4982 -0.123 -0.243 -0.962 48 57 40
37.9471 35.9124 65.8632 0.599 0.587 -0.544 28 40 20
41.9952 35.4956 66.2831 0.828 -0.558 -0.049 35 55 20
43.9630 36.2945 68.1094 0.962 -0.090 -0.258 39 65 21
44.2303 36.0011 67.7065 -0.376 -0.545 -0.749 37 62 20
48.5987 38.2511 72.5324 0.767 0.455 -0.453 48 64 35
49.8492 37.8301 72.1889 0.798 -0.108 -0.593 36 50 33
49.9795 37.7421 72.0815 -0.153 -0.854 -0.497 36 50 33
50.1157 37.6903 72.0345 -0.171 -0.852 -0.494 35 49 32
50.2512 37.6370 71.9848 -0.191 -0.852 -0.487 59 73 56
51.8747 38.4671 73.7684 0.707 -0.626 -0.328 70 88 74
52.1642 38.4417 73.8056 0.255 -0.131 -0.958 69 87 73
56.4935 39.1029 76.0477 -0.197 -0.550 -0.812 112 116 99
-20.8552 43.4932 61.9172 -0.338 -0.497 -0.799 77 111 110
-20.9167 43.6777 62.1983 0.095 0.193 -0.977 84 116 113
-20.8277 43.7397 62.3225 0.632 -0.568 -0.527 85 116 111
-20.5591 43.6546 62.2577 -0.100 0.082 -0.992 85 116 110
-19.6028 43.2714 61.8982 -0.404 0.091 -0.910 47 75 71
-19.3573 43.2033 61.8546 -0.409 -0.023 -0.912 57 79 77
-18.8274 43.0333 61.7237 -0.276 -0.700 -0.658 55 75 74
-14.7946 41.7850 60.8006 0.349 -0.115 -0.930 77 95 99
-14.4570 41.6284 60.6392 0.043 -0.340 -0.939 71 90 96
-13.5833 41.5547 60.7565 0.365 -0.766 -0.529 115 131 130
-13.4346 41.5628 60.8099 0.360 -0.768 -0.529 84 100 99
-13.2973 41.5812 60.8767 0.360 -0.768 -0.529 90 106 105
-11.5047 40.8141 60.1240 -0.407 -0.538 -0.738 91 102 104
-9.8233 40.4074 59.9225 0.128 -0.169 -0.977 84 99 96
-9.2175 40.2730 59.8695 -0.151 0.090 -0.984 85 101 93
-8.9753 40.1897 59.8008 -0.217 0.108 -0.970 84 101 93
-8.7159 40.0899 59.7097 -0.282 0.003 -0.959 113 129 123
-8.4771 40.0088 59.6436 -0.025 -0.204 -0.979 60 72 70
-8.3129 39.9980 59.6706 0.728 -0.393 -0.561 61 69 71
-6.1058 39.4815 59.4343 0.113 -0.307 -0.945 112 127 122
-5.8985 39.4263 59.4012 0.478 -0.337 -0.811 124 135 131
-4.4285 39.0102 59.1275 0.564 -0.708 -0.424 53 59 57
-4.0546 39.0865 59.3517 0.350 -0.467 -0.812 62 68 66
-3.7327 39.0638 59.4022 -0.305 -0.417 -0.856 61 65 64
-1.6007 38.2372 58.6452 0.172 -0.529 -0.831 45 47 44
8.2280 35.9867 57.6728 0.279 -0.624 -0.730 45 45 43
8.3447 36.0168 57.7529 0.292 -0.607 -0.739 51 50 48
8.2428 36.3323 58.2344 -0.136 -0.055 -0.989 55 54 52
12.0395 35.9335 58.6181 0.375 -0.344 -0.861 67 68 63
12.1714 35.9448 58.6720 -0.056 -0.449 -0.892 75 76 71
14.7512 35.6173 58.8415 0.277 0.060 -0.959 97 95 83
15.4864 35.3240 58.5671 -0.057 -0.667 -0.743 99 97 85
15.9669 35.2125 58.5172 0.378 -0.540 -0.752 79 79 67
16.2341 35.4545 58.9799 0.046 -0.057 -0.997 82 82 72
16.3926 35.4200 58.9672 0.240 -0.223 -0.945 77 77 67
16.8047 35.4229 59.0833 0.339 -0.196 -0.920 85 85 75
18.5429 34.7734 58.5055 0.202 -0.049 -0.978 116 112 103
21.5292 35.3463 60.2378 0.010 -0.228 -0.974 92 89 82
23.5220 34.8773 60.0200 0.368 -0.140 -0.919 81 78 69
23.6703 34.8489 60.0143 0.552 -0.086 -0.829 95 92 83
26.4792 34.2420 59.7949 0.497 -0.288 -0.819 97 99 77
26.7143 34.3323 60.0042 0.252 -0.133 -0.959 95 97 75
26.9340 35.2333 61.5175 0.117 -0.057 -0.991 71 75 52
27.5773 35.3596 61.8953 0.805 -0.100 -0.584 69 68 48
27.6932 35.4246 62.0314 0.598 -0.267 -0.756 71 70 50
28.5757 34.3903 60.6014 0.121 -0.124 -0.985 86 86 66
28.7067 34.4012 60.6544 0.021 -0.202 -0.979 85 87 66
28.9032 34.2039 60.3893 -0.146 -0.181 -0.973 96 99 78
29.1778 34.1816 60.4275 0.134 -0.243 -0.961 103 108 88
29.2912 34.2483 60.5659 0.221 -0.261 -0.940 103 108 88
31.5230 34.4312 61.4647 0.795 0.160 -0.585 83 93 68
31.6884 34.3067 61.3086 -0.191 -0.015 -0.982 82 94 70
31.8255 34.2946 61.3261 -0.208 -0.051 -0.977 80 93 73
31.9355 34.3945 61.5171 -0.260 -0.535 -0.804 72 86 69
34.1238 34.1956 61.7880 0.408 -0.076 -0.910 52 65 42
34.2645 34.1583 61.7659 0.611 -0.436 -0.661 40 52 30
34.3931 34.1858 61.8452 0.374 -0.466 -0.802 33 47 24
34.5203 34.2220 61.9380 0.683 -0.270 -0.679 38 50 28
47.9061 37.4645 70.7908 0.629 0.405 -0.664 58 73 46
48.4828 38.5220 72.6531 0.768 0.453 -0.453 45 64 35
49.9822 37.8209 71.9275 -0.233 -0.689 -0.686 35 49 32
50.1214 37.7881 71.9122 -0.227 -0.692 -0.685 36 50 33
50.2497 37.6947 71.7962 -0.560 -0.632 -0.536 61 75 58
52.0973 38.8992 74.2395 0.173 -0.502 -0.848 62 80 66
56.4418 39.5268 76.4274 -0.502 -0.249 -0.828 112 116 99
-20.7656 43.5915 61.7830 -0.543 -0.372 -0.753 88 120 119
-20.5980 43.7234 62.0402 0.689 -0.527 -0.498 94 123 119
-20.4162 43.7090 62.0663 0.484 -0.192 -0.854 94 123 119
-20.2754 43.7284 62.1356 0.459 -0.177 -0.870 87 116 112
-19.4245 43.4302 61.8865 -0.525 -0.288 -0.801 64 89 86
-10.9410 40.7467 59.8680 -0.105 0.056 -0.993 80 92 92
-10.7424 40.7064 59.8570 -0.104 0.045 -0.994 95 109 109
-9.6189 40.5233 59.8668 0.247 0.020 -0.969 53 65 63
-9.2272 40.4448 59.8464 -0.136 0.121 -0.983 83 98 92
-8.4294 40.1253 59.5487 0.083 0.069 -0.994 60 72 70
-8.2516 40.1015 59.5585 0.095 0.064 -0.993 56 64 66
-7.2118 39.9815 59.6470 -0.270 -0.503 -0.821 68 78 76
-7.0010 39.9246 59.6125 -0.270 -0.503 -0.821 137 149 144
-5.8847 39.5730 59.3495 0.431 -0.208 -0.878 115 126 122
-5.7326 39.5719 59.3888 0.494 -0.307 -0.814 69 76 74
-4.5784 39.1697 59.0545 0.363 -0.386 -0.848 45 51 49
-4.0516 39.2431 59.3151 0.271 -0.514 -0.814 63 69 67
-3.8206 39.1601 59.2441 -0.268 -0.505 -0.820 61 67 65
-3.6951 39.1849 59.3180 -0.348 -0.674 -0.651 61 65 64
-1.4242 38.3634 58.6118 0.530 -0.568 -0.630 46 48 45
1.7353 38.4503 59.6063 0.328 -0.744 -0.583 45 50 42
8.5104 36.5052 58.3127 0.702 -0.391 -0.594 44 43 41
12.0472 36.0768 58.5809 0.221 0.015 -0.975 80 81 76
13.0289 35.8605 58.4988 0.026 -0.120 -0.992 105 104 99
15.4106 35.3781 58.3677 -0.050 -0.674 -0.737 91 89 77
15.7387 35.2908 58.3162 -0.038 -0.544 -0.838 88 86 74
16.0004 35.0859 58.0576 -0.049 0.159 -0.986 85 85 73
19.1977 34.9743 58.7432 0.274 -0.538 -0.797 106 99 91
19.3047 35.0289 58.8598 0.682 -0.179 -0.709 96 89 81
21.2936 35.4243 60.0334 0.541 -0.169 -0.824 101 98 91
21.4266 35.4335 60.0843 0.327 -0.193 -0.925 101 98 91
21.5432 35.4773 60.1862 0.009 -0.232 -0.973 100 97 92
23.5253 35.0309 60.0049 -0.224 -0.208 -0.952 77 74 65
23.6595 35.0354 60.0483 0.301 -0.744 -0.597 71 68 59
26.9484 35.3617 61.4627 0.311 0.024 -0.950 92 96 73
27.8316 35.5950 62.0765 -0.218 -0.854 -0.473 85 84 64
31.7036 34.4258 61.2447 0.226 -0.244 -0.943 92 104 80
31.9557 34.4926 61.4204 -0.427 -0.594 -0.682 99 113 96
47.9578 36.7976 69.4544 0.250 0.621 -0.743 51 65 40
48.1059 36.8479 69.5752 -0.237 0.266 -0.934 47 63 36
48.2477 36.8498 69.6167 0.822 0.178 -0.541 48 64 37
49.9892 37.9257 71.8172 -0.227 -0.692 -0.685 42 56 39
50.1285 37.8936 71.8034 -0.227 -0.692 -0.685 38 52 35
54.0802 41.0274 77.9096 0.522 0.433 -0.735 44 62 41
59.6596 39.3951 76.7953 0.929 0.057 -0.366 100 106 92
60.5122 40.4578 78.7340 0.552 0.254 -0.794 95 103 90
60.6402 40.3932 78.6649 -0.281 -0.390 -0.877 101 109 96
-21.0466 43.9939 62.0359 -0.381 -0.219 -0.898 89 121 119
-20.3229 43.9400 62.1455 0.391 -0.424 -0.817 99 128 124
-20.1952 43.9706 62.2291 0.394 -0.422 -0.816 60 89 85
-20.0910 44.0210 62.3380 0.425 -0.391 -0.816 35 63 59
-19.0679 43.4394 61.6835 -0.506 -0.323 -0.800 59 79 78
-14.3116 41.6945 60.1762 -0.354 0.272 -0.895 87 105 109
-10.7508 40.8774 59.8311 -0.069 0.263 -0.962 89 101 99
-10.0224 40.7752 59.8646 0.109 0.135 -0.985 77 89 87
-9.4769 40.5530 59.6563 0.158 -0.177 -0.971 92 104 102
-9.2537 40.6324 59.8439 -0.165 0.149 -0.975 77 89 87
-8.7492 40.4457 59.6814 -0.301 0.097 -0.949 74 86 84
-8.4351 40.2925 59.5211 0.078 0.184 -0.980 63 75 73
-8.2512 40.2628 59.5233 0.025 -0.059 -0.998 48 59 58
-6.1320 39.8287 59.4014 -0.054 -0.174 -0.983 113 128 121
-5.8713 39.7202 59.2983 0.510 -0.352 -0.785 113 126 119
-5.7190 39.7189 59.3373 0.494 -0.312 -0.812 81 90 87
-5.5183 39.6693 59.3122 -0.307 -0.133 -0.942 34 40 38
-4.5468 39.2971 58.9791 0.421 -0.273 -0.865 45 51 49
-3.7721 39.2698 59.1450 -0.213 -0.476 -0.853 80 86 84
-1.7310 38.5339 58.5189 0.056 -0.457 -0.888 55 60 56
-1.5676 38.5167 58.5354 0.068 -0.456 -0.888 56 57 54
-1.4109 38.5065 58.5615 0.485 -0.565 -0.668 40 43 40
1.4646 38.4139 59.1913 0.288 -0.888 -0.357 46 54 43
1.7744 38.5641 59.5156 0.483 -0.855 -0.188 44 52 41
6.2974 36.7794 57.8815 0.100 0.079 -0.992 38 38 36
12.9067 35.9895 58.4048 -0.163 -0.082 -0.983 81 81 73
14.9653 35.5851 58.3141 -0.127 -0.535 -0.836 87 85 73
15.4266 35.5064 58.3128 -0.145 -0.559 -0.816 96 94 82
15.7386 35.4451 58.2992 -0.020 -0.553 -0.833 100 98 86
18.7342 34.9817 58.3676 -0.168 -0.079 -0.983 129 125 116
19.2190 35.0901 58.6723 0.274 -0.538 -0.797 114 107 99
19.3063 35.1820 58.8430 0.656 -0.151 -0.739 117 110 102
21.4147 35.6188 60.1129 0.295 -0.013 -0.956 130 127 120
23.6709 35.1705 60.0056 0.295 -0.745 -0.598 71 68 59
23.8024 35.1816 60.0588 0.319 -0.769 -0.554 80 77 68
25.4640 35.1110 60.3953 0.727 0.165 -0.666 100 99 79
27.7049 35.7340 61.9991 -0.225 -0.860 -0.458 89 88 68
27.8616 35.6764 61.9494 -0.215 -0.858 -0.466 91 90 70
29.6931 36.0158 62.9883 0.890 -0.451 0.067 80 89 68
29.9025 36.2617 63.4387 -0.195 -0.968 -0.159 62 75 55
30.0431 36.2577 63.4704 -0.190 -0.968 -0.166 59 71 51
30.1967 36.2057 63.4287 -0.186 -0.968 -0.167 60 69 50
30.5667 35.8603 62.9756 0.051 -0.424 -0.904 62 72 51
30.7115 35.8352 62.9746 -0.226 -0.379 -0.897 72 84 60
32.4247 34.3896 61.1233 0.063 -0.694 -0.717 63 77 62
36.5444 34.5412 62.4807 0.488 0.105 -0.866 39 48 31
36.9426 34.5720 62.6377 0.477 0.140 -0.868 40 49 32
37.0700 34.6283 62.7624 0.476 0.095 -0.874 40 49 30
37.5958 34.7336 63.0733 0.244 -0.685 -0.686 26 35 16
49.9983 38.0421 71.7265 -0.216 -0.693 -0.687 47 61 44
50.1358 37.9999 71.6960 -0.225 -0.695 -0.683 43 57 40
51.6434 38.2944 72.5755 -0.581 0.283 -0.763 59 75 62
54.0021 41.4366 78.2452 0.494 0.532 -0.688 41 58 39
53.2442 37.6947 72.0484 -0.139 -0.953 -0.270 42 59 40
56.3516 37.9863 73.3559 -0.680 0.346 -0.647 107 112 90
57.4163 38.1451 73.8983 0.759 -0.641 0.115 99 103 89
58.7253 38.5611 74.9185 -0.187 0.704 -0.685 82 86 71
60.3801 40.6242 78.6699 0.878 -0.324 -0.353 93 101 90
60.6512 40.5340 78.5987 -0.281 -0.390 -0.877 91 99 86
61.6959 39.7360 77.6037 0.430 -0.853 -0.297 101 107 95
-20.9708 44.2397 62.1329 -0.134 -0.011 -0.991 90 120 118
-20.1974 44.1449 62.1909 0.300 -0.356 -0.885 73 102 98
-20.0697 44.1759 62.2749 0.425 -0.391 -0.816 43 70 67
-11.6144 41.2644 59.9182 -0.027 -0.168 -0.985 58 68 67
-10.7839 41.0714 59.8350 -0.223 0.009 -0.975 76 88 86
-10.5104 40.9614 59.7335 0.093 0.168 -0.981 91 103 101
-10.0849 40.9969 59.9053 0.026 0.015 -1.000 82 94 92
-9.6713 40.8987 59.8605 0.298 -0.007 -0.954 97 109 107
-9.2923 40.8319 59.8565 -0.251 -0.003 -0.968 79 91 89
-9.0493 40.7474 59.7875 -0.286 -0.036 -0.957 75 87 85
-8.8238 40.6791 59.7395 -0.320 0.078 -0.944 68 78 77
-8.5024 40.5188 59.5707 0.097 0.065 -0.993 59 69 68
-8.3068 40.4780 59.5585 0.069 0.037 -0.997 48 58 57
-8.1559 40.4799 59.6025 0.152 -0.072 -0.986 48 56 58
-7.3593 40.3000 59.5310 -0.232 -0.367 -0.901 45 53 55
-7.1575 40.2517 59.5086 -0.139 -0.380 -0.914 38 48 47
-6.1778 40.0349 59.4277 -0.188 -0.282 -0.941 113 128 121
-5.8677 39.8771 59.2599 0.515 -0.353 -0.781 114 127 120
-5.7341 39.8944 59.3238 0.520 -0.362 -0.774 85 95 91
-5.5799 39.8914 59.3606 0.056 -0.294 -0.954 36 42 40
-4.2536 39.3104 58.7927 0.665 -0.004 -0.747 49 55 53
-3.8940 39.4008 59.0341 0.144 -0.795 -0.589 84 90 88
-3.5421 39.3461 59.0421 -0.332 -0.710 -0.621 66 72 70
-3.0417 39.2912 59.0900 -0.133 -0.416 -0.899 60 66 64
-1.6226 38.7327 58.5829 0.253 -0.367 -0.895 55 55 53
6.1930 36.8869 57.7532 0.376 -0.041 -0.926 45 45 43
6.2923 37.1174 58.1477 0.228 -0.434 -0.871 41 41 39
6.4909 37.0463 58.0880 0.264 -0.379 -0.887 40 40 38
9.5232 36.7801 58.4838 -0.027 -0.403 -0.915 70 66 63
9.7494 36.8572 58.6680 0.112 -0.061 -0.992 70 66 63
13.4069 35.8059 57.9806 0.040 -0.347 -0.937 97 96 91
13.5445 35.8064 58.0185 0.054 -0.357 -0.933 90 89 84
13.7182 35.7514 57.9778 0.146 -0.486 -0.862 88 85 79
13.8785 35.7166 57.9656 0.155 -0.495 -0.855 87 84 75
13.7423 36.3577 58.9515 -0.264 -0.478 -0.838 88 85 76
14.7226 36.1289 58.8518 -0.019 -0.455 -0.890 71 69 57
15.1652 35.6388 58.1897 -0.163 -0.536 -0.828 83 81 69
15.3244 35.6033 58.1761 -0.200 -0.505 -0.840 84 82 70
15.4534 35.6167 58.2325 -0.145 -0.559 -0.816 91 89 77
15.6135 35.5794 58.2163 0.018 -0.558 -0.830 100 98 86
15.7604 35.5633 58.2304 0.018 -0.558 -0.830 110 108 96
15.9228 35.5214 58.2074 -0.090 -0.432 -0.897 106 103 94
16.1371 35.6212 58.4247 0.530 -0.340 -0.776 90 90 80
16.0700 35.9652 58.9552 -0.051 -0.091 -0.995 84 84 74
18.8426 35.1871 58.4642 0.416 -0.495 -0.763 114 110 101
18.9339 35.2701 58.6212 0.016 -0.365 -0.931 106 102 91
19.6003 35.2974 58.8451 -0.068 -0.004 -0.998 97 90 82
20.2051 36.2739 60.5665 -0.172 -0.159 -0.972 94 90 79
20.9756 35.8331 60.0716 0.103 0.054 -0.993 102 98 89
21.5509 35.7824 60.1464 -0.016 -0.175 -0.985 105 102 95
23.7105 35.2395 59.8647 0.343 -0.182 -0.922 92 89 80
25.3026 35.3408 60.4571 0.308 -0.280 -0.909 94 93 73
30.7259 35.9630 62.9170 -0.226 -0.379 -0.897 71 84 59
30.8685 35.9455 62.9276 0.211 -0.242 -0.947 84 96 72
31.7085 36.4846 64.0149 -0.199 0.636 -0.746 75 89 74
33.5065 34.5144 61.3585 0.109 -0.171 -0.979 45 62 43
36.5486 34.7343 62.5323 0.475 0.082 -0.876 36 47 30
36.8180 34.7256 62.5914 -0.102 -0.241 -0.965 38 47 30
37.7787 35.8577 64.6572 0.396 -0.687 -0.610 28 37 18
37.9167 35.8549 64.6901 -0.249 -0.614 -0.749 29 38 19
60.3832 40.7439 78.5675 0.878 -0.324 -0.353 93 101 88
61.7713 40.0323 77.8080 0.716 -0.618 -0.326 107 113 103
-21.3555 44.3217 61.8438 -0.408 0.267 -0.873 96 126 124
-21.1503 44.2883 61.8463 -0.346 0.294 -0.891 94 126 125
-21.0949 44.3786 62.0047 -0.287 0.226 -0.931 93 125 122
-20.1346 44.2649 62.0839 0.520 -0.397 -0.756 86 115 111
-20.0117 44.2999 62.1727 0.507 -0.408 -0.759 47 76 72
-19.3305 43.8650 61.6660 -0.516 -0.282 -0.809 60 84 82
-12.4194 41.8791 60.3800 -0.188 -0.309 -0.932 54 68 68
-10.7939 41.2444 59.8111 0.026 0.056 -0.998 69 81 79
-10.2799 41.1982 59.8769 0.086 0.083 -0.993 75 87 85
-10.1432 41.2152 59.9408 0.014 -0.027 -1.000 84 96 94
-9.9500 41.1790 59.9356 0.032 -0.012 -0.999 92 104 102
-9.7674 41.1527 59.9431 0.428 -0.042 -0.903 85 97 95
-9.6456 41.1838 60.0256 0.148 0.096 -0.984 84 96 94
-9.3868 41.0849 59.9384 0.139 -0.134 -0.981 63 73 72
-9.2007 41.0547 59.9407 0.136 -0.131 -0.982 62 72 71
-8.9089 40.9232 59.8108 -0.379 -0.363 -0.851 67 77 76
-8.7763 40.9436 59.8790 -0.451 -0.295 -0.842 62 72 71
-7.0218 40.2803 59.2997 0.638 -0.098 -0.764 48 58 57
-6.9101 40.3198 59.3927 0.655 -0.102 -0.749 59 71 67
-6.6088 40.3224 59.4783 0.140 -0.164 -0.976 119 134 129
-6.0967 40.1152 59.2876 -0.285 -0.276 -0.918 113 128 123
-5.8370 40.0070 59.1859 -0.281 -0.406 -0.870 115 127 123
-4.1895 39.5565 58.9158 0.117 -0.652 -0.749 57 63 59
-4.0529 39.5698 58.9740 0.100 -0.626 -0.773 64 70 68
-3.8806 39.5464 58.9833 0.291 -0.751 -0.593 71 77 75
-2.0213 39.1580 58.8692 -0.217 0.179 -0.960 56 60 59
-1.4036 38.8135 58.4888 -0.204 -0.165 -0.965 46 48 45
-1.2015 38.7544 58.4496 -0.252 -0.213 -0.944 43 46 43
-0.7976 38.6352 58.3695 0.057 -0.615 -0.787 45 46 43
-0.6416 38.6249 58.3954 0.050 -0.603 -0.796 44 45 40
-0.4233 38.5467 58.3300 -0.022 -0.605 -0.796 53 57 50
-0.3185 38.5921 58.4306 -0.129 -0.603 -0.787 50 57 49
1.3554 38.6871 59.0345 -0.218 -0.898 -0.382 52 60 47
3.3303 37.7449 58.0715 0.557 -0.013 -0.831 53 60 53
5.9503 37.1668 57.8617 0.608 -0.132 -0.783 52 52 50
6.0321 37.2418 58.0030 0.431 -0.071 -0.900 53 53 51
6.1614 37.2579 58.0636 0.431 -0.071 -0.900 48 48 46
6.2669 37.3041 58.1655 0.460 -0.165 -0.873 49 49 47
6.4222 37.2876 58.1815 0.547 -0.123 -0.828 48 48 46
6.8757 37.0721 57.9617 0.239 0.375 -0.896 50 50 48
6.9934 37.1026 58.0420 0.061 0.440 -0.896 49 49 47
7.0992 37.1488 58.1439 -0.048 0.411 -0.910 49 49 47
10.3641 36.9429 58.7002 0.106 -0.100 -0.989 57 53 50
14.7344 36.2655 58.8062 -0.031 -0.469 -0.883 64 61 52
15.1935 35.7469 58.1063 -0.202 -0.515 -0.833 71 69 57
15.3489 35.7175 58.1016 -0.200 -0.505 -0.840 72 70 58
15.4872 35.7155 58.1359 -0.133 -0.578 -0.805 72 69 60
15.9170 35.6851 58.2039 0.044 -0.500 -0.865 100 97 88
16.1267 35.7934 58.4327 0.488 -0.371 -0.790 98 95 86
16.2052 35.8929 58.6120 0.456 -0.428 -0.780 97 97 87
16.8216 36.0180 58.9777 -0.128 -0.473 -0.872 115 112 103
18.7644 35.2359 58.2604 0.219 -0.443 -0.869 99 95 84
18.9404 35.4138 58.5908 0.022 -0.308 -0.951 99 95 84
21.5523 35.9405 60.1344 0.079 -0.145 -0.986 88 85 78
23.7299 35.3556 59.7942 0.456 0.127 -0.881 101 98 89
23.8657 35.3559 59.8314 0.510 -0.068 -0.858 123 120 111
26.3861 34.7863 59.6082 0.437 -0.469 -0.768 99 101 79
26.5187 34.7905 59.6507 0.428 -0.485 -0.762 109 111 89
27.1188 34.9914 60.1324 0.174 -0.240 -0.955 90 94 71
29.7930 35.0606 60.9659 0.049 -0.570 -0.820 79 87 66
30.4534 36.1312 62.8459 0.125 -0.367 -0.922 85 94 73
30.5933 36.1247 62.8734 0.131 -0.372 -0.919 72 83 62
30.7397 36.0933 62.8632 0.147 -0.261 -0.954 70 84 61
30.8801 36.0843 62.8869 0.327 -0.014 -0.945 79 91 67
30.9769 36.2479 63.1731 0.766 0.203 -0.611 87 99 75
47.8103 37.9861 70.4901 0.669 0.018 -0.743 38 57 27
47.9554 37.9965 70.5458 0.421 -0.675 -0.606 38 57 29
48.5943 37.4345 69.8255 0.852 0.280 -0.442 60 75 53
51.1461 39.6516 74.0394 0.637 -0.659 -0.399 43 57 42
53.6516 42.1182 78.6371 0.840 0.247 -0.483 45 64 42
56.4779 39.5524 75.3244 -0.278 -0.897 -0.345 95 100 80
59.7060 39.8459 76.6643 0.933 -0.119 -0.339 106 110 95
60.6188 40.6725 78.2248 0.549 0.506 -0.665 94 100 86
60.7270 40.5583 78.0727 -0.423 0.653 -0.627 91 99 84
61.7554 40.1064 77.6328 0.716 -0.618 -0.326 110 118 107
63.9611 44.6916 85.5161 0.637 0.397 -0.661 109 117 106
-19.9802 44.4460 62.0988 0.480 -0.470 -0.741 61 90 86
-19.8432 44.4693 62.1728 0.480 -0.470 -0.741 61 86 83
-19.0995 43.9789 61.5976 -0.313 -0.285 -0.906 52 72 71
-10.0255 41.4141 59.9924 -0.287 -0.003 -0.958 75 85 84
-9.7610 41.3103 59.8997 0.267 0.080 -0.960 83 93 92
-9.7685 41.4644 60.1417 0.111 0.336 -0.935 86 96 95
-8.8693 41.0482 59.7261 -0.359 0.143 -0.922 63 73 72
-8.7449 41.0765 59.8045 -0.483 -0.054 -0.874 67 77 76
-8.4508 40.9412 59.6699 -0.404 -0.062 -0.913 58 68 67
-8.2557 40.9009 59.6589 -0.394 -0.295 -0.870 48 59 55
-5.9765 40.3072 59.3358 -0.017 0.044 -0.999 113 127 122
-5.7729 40.2549 59.3080 0.195 0.036 -0.980 107 118 112
-4.9709 40.0545 59.2077 -0.297 0.101 -0.950 53 62 57
-4.1116 39.6359 58.7776 0.409 -0.499 -0.764 54 60 56
-4.0087 39.6838 58.8812 0.307 -0.498 -0.811 54 60 56
-3.8379 39.6617 58.8924 0.374 -0.461 -0.805 61 67 63
-3.0526 39.6213 59.0410 -0.068 -0.204 -0.977 70 80 76
0.5515 38.4327 58.1345 -0.009 0.113 -0.994 59 67 56
2.6415 38.7129 59.1435 0.021 -0.637 -0.771 58 65 58
5.5738 36.9127 57.0870 0.092 -0.610 -0.787 49 54 50
6.6428 37.3427 58.0570 0.267 -0.042 -0.963 55 55 53
6.7717 37.3594 58.1183 0.191 -0.505 -0.841 56 56 54
6.9193 37.3522 58.1469 -0.205 -0.323 -0.924 55 55 53
7.0652 37.3473 58.1785 -0.182 -0.309 -0.934 54 54 52
8.6426 37.1353 58.2699 -0.122 -0.514 -0.849 67 66 64
13.9509 35.9110 57.7679 0.364 -0.104 -0.926 80 77 72
14.1092 35.8783 57.7590 -0.044 -0.015 -0.999 71 68 63
14.7614 36.3776 58.7259 -0.023 -0.465 -0.885 74 71 62
16.1399 35.9260 58.3841 0.292 -0.285 -0.913 93 90 81
16.2242 36.0161 58.5494 0.236 -0.480 -0.845 93 90 81
16.8429 36.1374 58.9089 -0.112 -0.457 -0.882 97 94 85
19.6270 35.5592 58.7468 -0.031 -0.362 -0.932 124 117 111
20.5323 35.9331 59.5838 0.084 -0.525 -0.847 107 103 92
23.5429 35.6368 59.9293 -0.097 0.058 -0.994 104 102 90
23.7193 35.5423 59.8275 0.443 0.104 -0.890 108 106 94
23.8654 35.5185 59.8293 0.503 -0.080 -0.860 123 124 111
24.7955 35.2348 59.6319 0.087 -0.064 -0.994 112 109 92
30.3309 36.2541 62.7434 0.171 -0.419 -0.892 111 119 98
30.4667 36.2635 62.7950 0.125 -0.367 -0.922 121 129 108
30.6054 36.2618 62.8299 0.158 -0.385 -0.909 92 102 80
34.4691 34.7559 61.4911 0.021 -0.516 -0.856 44 58 33
35.2790 34.6992 61.6206 0.141 -0.887 -0.440 65 80 57
47.8291 38.1708 70.5127 0.660 -0.001 -0.752 41 56 31
47.9640 38.0997 70.4366 0.421 -0.675 -0.606 41 55 32
48.4726 37.6247 69.8221 0.926 -0.163 -0.342 54 69 48
50.5123 39.5060 73.3525 0.618 -0.626 -0.476 43 60 42
51.6314 39.9208 74.3120 -0.024 -0.446 -0.895 56 70 55
56.7045 37.5820 71.9821 -0.508 0.042 -0.860 110 116 102
58.3717 39.5471 75.5442 0.562 -0.775 -0.291 92 94 80
58.5124 39.5259 75.5487 0.716 -0.666 -0.207 92 94 80
59.3534 39.8050 76.2182 0.317 0.409 -0.855 108 115 99
60.7404 41.1037 78.6497 0.609 0.440 -0.660 88 95 79
60.9374 41.2186 78.8848 -0.440 0.639 -0.631 86 94 79
61.6751 40.3912 77.7744 0.803 -0.452 -0.389 110 117 109
62.6423 41.2640 79.4180 0.409 -0.813 -0.415 101 111 100
-19.9048 44.5549 61.9783 0.466 -0.465 -0.753 46 75 71
-19.1187 44.1663 61.5782 -0.259 -0.280 -0.924 54 76 74
-13.6135 42.2959 60.1178 -0.444 -0.330 -0.833 89 107 111
-13.3339 42.1855 60.0194 -0.270 0.055 -0.961 78 96 98
-13.2202 42.2247 60.1119 0.464 -0.112 -0.879 74 92 92
-10.2065 41.6027 59.9465 -0.314 -0.020 -0.949 65 77 75
-10.0027 41.5565 59.9288 -0.427 -0.251 -0.869 66 76 75
-9.7755 41.4878 59.8819 0.305 0.008 -0.952 66 76 75
-9.6757 41.5401 59.9915 0.060 0.104 -0.993 71 81 80
-9.4359 41.4589 59.9283 0.128 0.121 -0.984 66 76 75
-9.2543 41.4330 59.9366 0.075 0.172 -0.982 57 67 66
-8.9466 41.2856 59.7874 -0.345 0.125 -0.930 61 71 70
-8.7964 41.2894 59.8339 -0.450 -0.106 -0.887 73 83 82
-8.5039 41.1554 59.7017 -0.450 -0.106 -0.887 67 76 75
-7.2574 40.6851 59.2973 -0.004 -0.268 -0.963 49 58 57
-7.0373 40.6182 59.2513 0.575 -0.225 -0.786 47 58 57
-5.9875 40.4794 59.3165 0.024 0.043 -0.999 112 127 120
-5.5209 40.3140 59.1819 0.072 -0.119 -0.990 90 100 92
-4.1095 39.7929 58.7419 0.326 -0.484 -0.812 61 67 63
-3.9813 39.8148 58.8111 0.307 -0.498 -0.811 62 68 64
-3.8137 39.7960 58.8268 0.374 -0.461 -0.805 62 68 64
-2.4926 39.6614 58.9720 0.150 -0.341 -0.928 73 88 77
-2.2846 39.5982 58.9286 -0.291 -0.027 -0.956 71 85 75
-1.1060 38.9657 58.2500 -0.266 -0.150 -0.952 49 60 52
-1.0206 39.0325 58.3784 0.053 0.043 -0.998 52 64 54
-0.7929 38.9443 58.3010 0.848 -0.061 -0.526 55 67 57
2.4044 38.9781 59.2195 -0.069 -0.569 -0.820 56 63 55
5.5948 37.3880 57.5749 0.800 -0.119 -0.588 59 64 60
6.0472 37.8925 58.4931 -0.006 -0.050 -0.999 59 59 57
6.7091 37.5946 58.2024 -0.169 -0.201 -0.965 58 58 56
6.9122 37.5162 58.1336 -0.143 -0.266 -0.953 65 65 63
7.5474 37.4286 58.1674 0.257 0.013 -0.966 54 54 52
8.6944 37.2203 58.1492 -0.161 -0.522 -0.838 67 66 64
10.1707 37.3279 58.7184 0.265 0.224 -0.938 71 71 69
10.3490 37.2756 58.6841 -0.039 0.011 -0.999 65 63 64
10.4974 37.2654 58.7082 -0.043 0.101 -0.994 59 57 58
10.6867 37.1965 58.6508 -0.029 0.127 -0.991 76 75 73
13.9421 36.0781 57.7677 0.423 -0.282 -0.861 79 75 72
14.9756 35.9632 57.8663 0.216 -0.830 -0.515 86 83 76
14.7818 36.5003 58.6609 -0.023 -0.465 -0.885 81 77 68
15.5296 35.9541 58.0017 0.150 -0.262 -0.953 65 61 52
15.6900 35.9154 57.9841 0.367 -0.334 -0.868 71 67 58
15.8224 35.9230 58.0320 0.340 -0.333 -0.879 77 73 64
15.9441 35.9485 58.1052 0.337 -0.312 -0.888 87 83 72
16.0921 35.9301 58.1162 0.205 -0.217 -0.954 94 90 79
18.8097 35.4618 58.1130 0.461 -0.550 -0.696 113 109 97
20.6269 35.8998 59.2955 0.296 -0.687 -0.663 84 80 69
20.5533 36.3311 59.9558 0.152 -0.769 -0.621 92 88 77
23.7068 35.7340 59.8674 0.543 -0.021 -0.840 100 98 84
27.7353 35.0960 59.9513 0.028 -0.040 -0.999 117 118 101
27.8808 35.0618 59.9367 0.513 0.083 -0.855 102 100 84
27.8527 36.3971 62.0352 0.494 0.106 -0.863 97 96 76
28.8919 35.2631 60.5278 0.341 -0.089 -0.936 102 105 86
30.3926 35.1940 60.8249 0.530 0.007 -0.848 94 99 79
30.4723 36.4250 62.7880 -0.021 -0.276 -0.961 118 122 103
30.6191 36.3926 62.7766 -0.117 -0.271 -0.955 107 114 93
30.7628 36.3711 62.7816 -0.107 -0.322 -0.941 97 107 86
30.9216 36.2899 62.6964 -0.006 -0.386 -0.923 91 103 81
30.6742 38.9962 66.8979 0.010 0.295 -0.955 83 95 71
36.9897 35.1131 62.4825 0.367 -0.929 -0.053 49 63 40
38.4494 35.2977 63.1686 -0.396 -0.822 -0.409 42 50 29
49.5876 38.4231 71.1121 -0.195 -0.791 -0.581 44 58 43
50.0564 38.6339 71.5714 0.575 -0.723 -0.382 39 56 37
50.2091 38.6787 71.6834 0.587 -0.769 -0.253 42 59 40
51.5128 40.1533 74.3619 0.693 -0.531 -0.487 50 64 49
51.6438 40.0592 74.2490 0.015 -0.433 -0.901 56 73 57
57.7080 39.4337 74.9034 0.824 0.334 -0.458 85 89 74
58.3730 39.6555 75.4333 0.201 -0.946 -0.253 80 82 69
58.5108 39.6259 75.4239 0.666 -0.726 -0.170 80 82 68
58.6555 39.6167 75.4485 0.728 -0.402 -0.555 82 86 71
58.8514 39.7534 75.7172 0.545 -0.684 -0.485 91 95 80
59.3733 39.5578 75.5499 -0.545 -0.047 -0.837 109 116 100
62.6273 41.3437 79.2470 0.409 -0.813 -0.415 97 107 96
-19.8798 44.7061 61.9113 0.290 -0.164 -0.943 55 84 80
-19.1817 44.3913 61.6056 -0.248 -0.223 -0.943 61 83 81
-17.8668 43.9612 61.2855 -0.441 -0.123 -0.889 77 97 98
-13.8696 42.5507 60.1509 0.257 0.035 -0.966 95 113 117
-13.5984 42.4481 60.0631 -0.157 0.047 -0.986 95 113 115
-13.3565 42.3715 60.0082 -0.266 0.061 -0.962 100 118 120
-13.2925 42.4560 60.1583 0.448 -0.126 -0.885 104 119 122
-13.0824 42.4079 60.1397 0.271 -0.164 -0.948 99 114 117
-9.4290 41.3210 59.4204 -0.042 -0.708 -0.705 56 66 65
-9.6421 41.6721 59.9144 0.004 -0.395 -0.919 44 54 53
-9.4267 41.6139 59.8813 0.106 -0.315 -0.943 46 56 55
-9.1838 41.5290 59.8136 -0.214 -0.447 -0.869 52 62 61
-8.7315 41.3899 59.7174 -0.397 -0.161 -0.904 80 90 89
-8.1830 41.1554 59.4974 -0.561 -0.279 -0.780 61 71 70
-7.8484 40.9781 59.3094 -0.580 -0.306 -0.755 48 58 57
-6.3153 40.6654 59.2329 0.051 -0.301 -0.952 112 129 123
-6.0224 40.6759 59.3287 -0.047 0.011 -0.999 113 128 121
-5.6443 40.4468 59.0710 -0.040 -0.162 -0.986 121 132 126
-5.4480 40.4008 59.0519 -0.034 -0.175 -0.984 101 112 104
-5.2659 40.3690 59.0512 -0.034 -0.175 -0.984 49 60 52
-3.6198 39.9088 58.7736 0.365 0.066 -0.929 64 70 66
-3.4827 39.9216 58.8308 0.317 0.037 -0.948 54 62 57
-3.0003 39.8850 58.9039 0.212 -0.328 -0.921 69 84 73
-2.4793 39.8064 58.9214 -0.075 -0.397 -0.915 68 86 72
-1.1407 39.1607 58.2690 -0.287 -0.199 -0.937 63 80 69
-0.6930 39.1529 58.3779 0.656 -0.070 -0.751 67 83 72
-0.2299 39.1279 58.4639 -0.099 -0.012 -0.995 62 69 61
1.8130 38.9711 58.7704 0.809 -0.001 -0.588 52 59 51
2.7159 38.9409 58.9672 -0.022 -0.640 -0.768 58 64 60
3.9926 38.4551 58.5495 -0.420 -0.267 -0.868 67 72 68
5.5839 37.5555 57.5665 0.612 -0.001 -0.791 66 71 67
5.5820 38.0929 58.4105 -0.218 0.140 -0.966 69 69 67
6.9182 37.6635 58.0973 0.191 -0.076 -0.979 61 61 59
7.5680 37.5565 58.1051 0.492 -0.458 -0.741 61 61 59
8.3384 37.6647 58.4835 0.414 -0.333 -0.847 69 68 66
8.6704 37.4076 58.1694 -0.153 -0.111 -0.982 70 69 67
8.6685 37.6023 58.4748 0.119 0.042 -0.992 69 68 66
10.0055 37.5173 58.7032 0.036 -0.442 -0.896 84 83 81
10.1592 37.5002 58.7178 0.036 -0.442 -0.896 75 75 73
10.3213 37.4710 58.7158 -0.167 -0.304 -0.938 69 67 68
10.4879 37.4350 58.7043 -0.156 -0.314 -0.936 66 64 65
10.6716 37.3740 58.6581 -0.236 -0.182 -0.955 67 66 64
13.9278 36.2539 57.7794 0.448 -0.238 -0.862 80 76 73
14.7326 36.2875 58.0500 0.436 0.147 -0.888 82 79 72
14.9688 36.1279 57.8632 0.516 -0.643 -0.566 94 89 83
16.1514 35.9845 57.9579 0.400 -0.153 -0.904 93 89 78
16.2098 36.1175 58.1827 0.448 -0.461 -0.766 94 90 79
18.7137 35.5436 57.9585 0.465 -0.584 -0.665 112 108 96
18.8374 35.5653 58.0260 0.465 -0.584 -0.665 115 111 99
18.9262 35.6528 58.1875 0.327 -0.278 -0.903 118 114 102
19.0204 35.7310 58.3359 -0.134 -0.384 -0.914 116 112 100
19.1945 35.6585 58.2691 0.252 -0.570 -0.782 117 113 102
20.6716 35.9673 59.1540 -0.006 -0.047 -0.999 90 86 75
20.8435 35.8948 59.0866 -0.048 0.032 -0.998 82 78 67
20.9371 35.9834 59.2512 -0.209 -0.517 -0.830 87 83 72
23.7214 35.8618 59.8135 0.443 -0.393 -0.806 92 93 75
30.3966 35.3558 60.8249 0.623 0.001 -0.782 101 104 83
30.7629 36.5548 62.8081 -0.111 0.098 -0.989 94 103 82
33.4621 35.5032 61.8861 -0.035 -0.626 -0.779 143 156 136
37.0169 35.1187 62.2440 0.367 -0.928 -0.056 45 58 38
38.4639 35.4039 63.0837 -0.384 -0.812 -0.440 59 67 46
38.6015 35.3681 63.0647 0.175 -0.729 -0.662 55 63 42
47.7991 37.9949 69.6812 0.882 -0.425 -0.204 48 56 41
48.0774 37.9430 69.6750 -0.181 -0.164 -0.970 55 61 51
49.3017 39.4442 72.3651 0.365 -0.552 -0.749 30 42 30
49.7582 38.6427 71.2293 0.416 -0.286 -0.863 38 55 36
50.0496 38.6566 71.3299 0.285 -0.831 -0.478 40 57 38
51.3663 40.2437 74.1800 0.106 -0.492 -0.864 41 58 42
51.5138 40.2335 74.2039 0.106 -0.492 -0.864 46 63 47
51.6489 40.1611 74.1268 0.017 -0.315 -0.949 48 65 47
58.4962 39.6879 75.2362 0.713 -0.685 -0.150 81 83 70
58.8603 39.8843 75.6434 0.581 -0.684 -0.441 92 96 81
58.9282 39.6572 75.3049 0.335 -0.890 -0.310 99 106 90
61.0968 40.6764 77.4932 0.029 -0.974 -0.224 79 87 74
61.2451 40.6705 77.5240 0.164 -0.957 -0.241 82 90 77
61.3639 40.5902 77.4300 0.136 -0.948 -0.287 97 105 94
-19.9126 44.9065 61.9057 0.185 -0.186 -0.965 62 91 87
-19.7255 44.8873 61.9262 0.216 -0.151 -0.965 64 90 87
-19.3520 44.7085 61.7474 -0.261 -0.088 -0.961 61 83 81
-18.5592 44.3087 61.3361 0.402 0.240 -0.884 55 70 73
-17.8334 44.1026 61.2098 -0.444 -0.108 -0.890 84 105 106
-13.8065 42.8025 60.2645 -0.317 0.020 -0.948 97 115 117
-13.5107 42.6772 60.1485 -0.265 0.123 -0.956 99 117 119
-9.7173 41.7599 59.7391 0.005 -0.371 -0.928 57 67 66
-9.5884 41.7846 59.8126 0.011 -0.414 -0.910 45 55 54
-9.3643 41.7177 59.7686 0.120 -0.334 -0.935 43 53 52
-6.4169 40.9289 59.3315 0.374 0.134 -0.918 114 129 124
-5.8297 40.7957 59.2820 0.170 0.127 -0.977 107 118 112
-5.4394 40.5527 59.0071 0.054 -0.009 -0.999 122 133 125
-5.2561 40.5195 59.0048 0.030 -0.015 -0.999 61 72 64
-3.6456 40.0953 58.7765 0.348 0.049 -0.936 87 93 89
-3.4755 40.0735 58.7885 0.096 -0.134 -0.986 68 74 71
-3.2991 40.0450 58.7915 -0.029 -0.241 -0.970 49 60 51
-3.0275 40.0734 58.9095 0.450 -0.530 -0.719 68 84 73
-2.8671 40.0616 58.9345 -0.087 -0.412 -0.907 66 85 73
-2.6898 40.0316 58.9355 -0.108 -0.423 -0.900 58 78 66
-0.8002 39.2670 58.2499 0.780 -0.099 -0.618 57 79 63
-0.7099 39.3291 58.3717 0.656 -0.029 -0.754 57 77 62
-0.1758 39.3892 58.6103 0.372 0.134 -0.919 55 60 53
1.3760 38.6258 57.8353 0.091 -0.081 -0.993 49 51 45
3.2242 38.1515 57.5930 0.091 -0.735 -0.672 51 56 50
2.6486 39.0052 58.7736 0.174 -0.814 -0.555 51 56 52
2.7587 39.0479 58.8702 0.195 -0.827 -0.527 54 58 57
5.5730 37.7231 57.5580 0.612 -0.001 -0.791 53 59 57
5.4392 38.2480 58.3435 0.320 0.092 -0.943 49 51 48
6.7092 37.9050 58.1502 0.189 0.028 -0.982 57 57 55
6.8856 37.8609 58.1290 0.363 -0.028 -0.931 53 53 51
8.6412 37.7952 58.5011 0.532 -0.031 -0.846 63 62 60
9.7979 37.5671 58.4572 -0.327 0.533 -0.781 64 63 61
10.0120 37.6643 58.6673 0.142 -0.150 -0.979 78 77 75
10.4925 37.5844 58.6723 -0.179 -0.306 -0.935 82 81 79
13.9539 36.3665 57.7025 0.462 -0.169 -0.871 68 65 60
16.2176 36.7316 58.8866 0.341 0.377 -0.861 92 88 77
18.8394 35.7165 58.0072 0.425 -0.106 -0.899 115 111 99
18.9113 35.8362 58.2140 0.398 -0.236 -0.886 103 99 87
19.0271 35.8743 58.3049 -0.135 -0.385 -0.913 94 90 79
19.2173 35.7709 58.1946 0.212 -0.517 -0.829 86 82 71
20.8357 36.0695 59.1000 -0.052 0.027 -0.998 73 69 58
20.9411 36.1341 59.2297 -0.354 -0.661 -0.661 88 84 73
21.8308 35.6917 58.7780 0.317 0.229 -0.920 93 86 78
22.9131 36.0017 59.5562 0.050 -0.336 -0.941 89 83 71
23.1835 36.0067 59.6371 0.389 -0.104 -0.915 108 102 90
23.6240 36.5860 60.6632 0.373 -0.316 -0.872 86 87 69
26.9225 36.2294 60.9976 0.079 -0.550 -0.831 91 92 76
27.3647 36.5470 61.6145 0.419 -0.252 -0.873 105 103 88
30.3861 35.5715 60.9051 0.661 -0.005 -0.751 119 122 101
30.9113 36.6999 62.8136 -0.113 0.055 -0.992 84 96 74
31.0398 36.7398 62.9108 0.055 -0.504 -0.862 91 103 81
30.7739 39.5889 67.2989 -0.308 0.564 -0.766 84 96 74
31.0040 39.2380 66.8119 -0.212 0.628 -0.749 85 99 76
33.4800 35.6069 61.7978 -0.026 -0.627 -0.779 75 88 68
36.5168 36.1217 63.4256 -0.456 0.550 -0.700 43 61 39
36.8647 35.5033 62.5517 -0.439 0.309 -0.844 46 59 39
37.0080 35.4289 62.4740 0.406 -0.326 -0.854 44 56 36
37.1666 35.2173 62.1856 0.631 -0.747 -0.208 44 56 34
37.2978 35.2395 62.2559 -0.497 -0.791 -0.359 46 55 34
49.3121 39.5662 72.2803 0.365 -0.552 -0.749 23 35 25
49.6273 38.7857 71.1438 0.510 0.181 -0.841 45 59 43
49.7762 38.8124 71.2261 0.517 0.198 -0.833 36 53 34
51.6880 40.4346 74.2827 0.483 -0.739 -0.470 42 59 41
57.7388 39.7318 74.8201 0.650 0.536 -0.539 90 94 79
58.8251 39.8891 75.3603 0.590 -0.805 -0.069 93 97 82
58.9861 39.5110 74.8121 0.794 -0.607 -0.024 107 114 98
60.1492 40.6688 76.9392 0.941 -0.317 -0.117 101 108 90
60.6636 40.8362 77.3406 -0.036 -0.425 -0.904 96 105 88
-20.0103 45.1626 61.9688 0.167 0.143 -0.976 59 88 84
-19.8720 45.1853 62.0417 0.192 0.169 -0.967 58 84 81
-19.5733 45.0705 61.9435 -0.217 0.113 -0.969 54 76 77
-18.6438 44.5525 61.3872 0.378 0.265 -0.887 55 70 73
-17.8806 44.3139 61.2216 -0.368 0.053 -0.928 74 95 96
-16.8997 44.0218 61.0316 0.160 0.486 -0.859 90 111 112
-14.1281 42.9741 60.1479 0.620 0.270 -0.737 87 105 107
-13.9767 42.9801 60.1982 -0.249 -0.194 -0.949 80 98 100
-13.8801 43.0360 60.3114 -0.235 0.187 -0.954 89 107 109
-13.5440 42.8737 60.1493 -0.293 0.201 -0.935 94 112 112
-11.4502 42.3885 59.9593 -0.407 -0.065 -0.911 51 63 59
-9.3886 41.9050 59.7632 0.136 -0.415 -0.900 57 67 66
-7.4839 41.0932 59.0126 -0.548 -0.300 -0.781 55 65 64
-6.9776 41.1951 59.3086 0.774 -0.152 -0.614 56 69 65
-6.4716 41.1458 59.3686 0.744 -0.246 -0.621 116 131 126
-5.8435 40.9713 59.2665 0.161 0.102 -0.982 113 125 118
-5.6781 40.9572 59.2892 0.270 0.018 -0.963 124 135 127
-3.8319 39.9821 58.2682 -0.051 0.223 -0.973 56 65 60
-3.6430 40.2522 58.7405 -0.001 -0.280 -0.960 105 111 109
-3.4795 40.2372 58.7615 -0.048 -0.260 -0.964 91 98 95
-3.3004 40.2058 58.7610 -0.048 -0.260 -0.964 72 82 75
-3.1571 40.2121 58.8096 0.266 -0.510 -0.818 59 71 62
-2.9969 40.2005 58.8348 0.450 -0.530 -0.719 50 66 56
-2.8397 40.1920 58.8641 0.004 -0.507 -0.862 62 79 69
-1.1409 39.6373 58.4588 -0.033 -0.006 -0.999 66 87 70
-0.8846 39.5174 58.3412 0.052 0.161 -0.986 58 81 63
-0.6172 39.5472 58.4600 -0.019 -0.030 -0.999 48 60 50
-0.4531 39.5283 58.4750 0.388 -0.351 -0.852 49 55 48
0.4122 39.2159 58.2219 -0.456 -0.011 -0.890 50 55 51
3.2835 38.0668 57.2069 0.720 -0.011 -0.694 51 56 52
5.3199 37.4895 56.8578 0.065 -0.533 -0.843 62 68 66
6.8568 37.8690 57.8656 0.176 -0.515 -0.839 62 62 60
7.5570 37.8813 58.0743 0.625 -0.186 -0.759 67 67 65
7.6707 37.9187 58.1634 0.637 -0.172 -0.752 79 79 77
8.6852 37.6974 58.0929 -0.010 -0.013 -1.000 57 56 54
10.0338 37.7895 58.6015 0.165 -0.169 -0.972 67 64 63
10.8809 37.1806 57.8811 0.518 -0.320 -0.793 85 84 82
11.2720 37.6339 58.6939 0.399 0.092 -0.912 95 92 87
11.4258 37.6151 58.7062 0.519 -0.035 -0.854 74 71 66
12.0618 37.2953 58.3796 -0.045 -0.294 -0.955 77 73 70
16.9019 36.4175 58.3207 0.243 -0.237 -0.941 86 82 71
18.8319 35.8858 58.0138 0.414 0.112 -0.903 96 92 80
22.0992 36.7612 60.2633 -0.001 0.167 -0.986 105 99 88
22.9278 36.1294 59.5021 0.060 -0.333 -0.941 89 83 69
23.6446 36.7012 60.5880 0.397 -0.676 -0.621 93 94 76
23.7624 36.7505 60.6967 0.534 -0.396 -0.747 90 91 73
27.0830 36.3302 60.9399 0.077 -0.223 -0.972 74 75 57
27.8680 36.8727 61.9985 0.497 -0.576 -0.649 123 122 102
30.6657 35.7125 60.9462 -0.283 -0.115 -0.952 107 111 88
35.6747 36.5013 63.5321 0.756 -0.154 -0.637 47 65 39
36.4754 36.6803 64.0279 -0.294 0.667 -0.685 45 60 39
36.6379 36.4805 63.7604 -0.295 0.667 -0.684 45 60 39
38.3648 35.5422 62.7645 0.475 -0.361 -0.802 58 66 45
38.4966 35.5710 62.8451 -0.105 -0.661 -0.743 59 67 46
49.3425 38.8678 70.9218 0.109 -0.167 -0.980 49 61 51
49.5080 39.0019 71.1758 0.852 0.081 -0.518 65 77 64
49.7919 38.9675 71.1990 0.447 0.261 -0.856 33 50 32
56.4753 39.0721 73.1710 0.740 -0.002 -0.673 105 109 92
57.4845 39.5039 74.1175 0.671 0.504 -0.544 91 95 80
60.1006 40.6467 76.6078 0.941 -0.317 -0.117 102 109 91
60.6066 41.1951 77.5999 0.944 -0.246 -0.219 105 112 94
60.7057 41.0575 77.4122 0.228 -0.151 -0.962 104 113 96
61.2768 39.8482 75.6808 0.261 -0.964 0.050 106 113 105
62.0825 40.7346 77.2813 0.904 -0.410 -0.118 99 107 97
-19.8555 45.3443 61.9836 0.032 0.344 -0.938 60 88 84
-19.7426 45.3891 62.0838 -0.073 0.221 -0.972 53 76 74
-19.4411 45.2713 61.9823 -0.402 -0.007 -0.916 70 89 91
-18.7894 44.8497 61.5038 0.321 0.309 -0.895 58 73 76
-18.6269 44.8505 61.5490 -0.401 0.004 -0.916 54 72 74
-18.2881 44.6978 61.4034 -0.425 0.027 -0.905 71 91 92
-17.9963 44.5853 61.3076 -0.423 0.043 -0.905 80 100 101
-14.0015 43.1693 60.1888 -0.116 -0.012 -0.993 69 87 89
-13.8334 43.1602 60.2202 -0.288 0.053 -0.956 81 99 101
-13.6493 43.1365 60.2331 -0.272 0.127 -0.954 90 108 108
-11.4635 42.5662 59.9386 -0.392 -0.100 -0.915 45 57 53
-9.0843 41.9235 59.5840 -0.254 -0.810 -0.528 50 60 59
-8.7291 41.7274 59.3755 -0.178 -0.630 -0.756 53 63 62
-7.8072 41.4238 59.1533 -0.526 -0.175 -0.832 58 71 67
-7.5468 41.3170 59.0579 -0.452 -0.197 -0.870 59 73 68
-7.2552 41.1787 58.9218 -0.462 -0.225 -0.858 45 58 54
-7.0604 41.2876 59.1437 0.758 -0.142 -0.637 52 66 61
-5.6540 41.0941 59.2238 0.322 -0.467 -0.823 119 132 123
-5.5211 41.1134 59.2897 0.281 -0.433 -0.856 102 114 106
-3.5982 40.3645 58.6466 -0.017 -0.571 -0.821 93 99 95
-3.4512 40.3669 58.6902 -0.013 -0.559 -0.829 84 94 89
-3.2861 40.3502 58.7089 -0.019 -0.552 -0.834 73 84 78
-3.1139 40.3257 58.7175 0.180 -0.679 -0.712 67 79 71
-2.9426 40.3021 58.7272 0.187 -0.677 -0.711 50 67 55
-0.9416 39.7383 58.3927 0.043 0.117 -0.992 77 98 83
-0.0934 39.6129 58.4275 0.141 -0.417 -0.898 51 56 50
0.3921 39.3958 58.2216 -0.403 -0.127 -0.906 46 51 45
1.3932 39.2529 58.2705 0.794 -0.062 -0.605 62 64 61
1.4997 39.2985 58.3702 0.812 -0.213 -0.543 68 70 67
5.4565 37.4734 56.6053 -0.081 0.192 -0.978 69 75 73
5.6198 37.4448 56.6051 -0.203 0.184 -0.962 68 74 72
6.2878 38.3920 58.2576 0.334 -0.507 -0.795 62 64 59
6.6969 38.0471 57.8325 0.214 -0.562 -0.799 67 68 63
6.9122 37.9518 57.7426 0.175 -0.575 -0.799 72 71 66
7.1681 37.8026 57.5802 -0.122 -0.297 -0.947 54 53 48
11.1470 37.7666 58.6011 0.443 -0.110 -0.890 80 79 74
11.2762 37.7841 58.6633 0.443 -0.110 -0.890 91 90 85
11.3896 37.8254 58.7581 0.701 -0.162 -0.694 99 98 93
11.5107 37.8554 58.8376 0.487 -0.015 -0.873 93 90 85
11.9505 37.6187 58.5887 0.239 -0.819 -0.521 80 76 73
12.9024 37.2345 58.2495 -0.102 -0.573 -0.813 86 82 81
20.9599 36.4133 59.1545 -0.371 -0.185 -0.910 87 83 72
21.2827 36.3090 59.0797 -0.193 -0.224 -0.955 81 74 66
21.6673 36.9611 60.1971 -0.030 -0.124 -0.992 90 83 75
22.1106 36.8987 60.2200 -0.343 -0.403 -0.848 98 89 79
22.4768 36.3851 59.5212 -0.168 -0.483 -0.859 101 93 82
22.6282 36.3517 59.5103 -0.168 -0.483 -0.859 105 97 86
22.7872 36.3004 59.4736 0.084 -0.371 -0.925 88 82 70
22.9370 36.2696 59.4664 0.164 -0.338 -0.927 93 87 75
23.1406 36.1136 59.2790 -0.016 -0.373 -0.928 104 96 85
30.5702 35.7418 60.7122 -0.416 -0.184 -0.891 88 91 70
35.6755 36.7166 63.6086 0.669 -0.039 -0.742 54 71 46
36.4768 36.9040 64.1166 -0.391 0.626 -0.675 46 60 35
53.6767 41.4345 75.8112 -0.476 -0.689 -0.546 59 74 55
58.4301 39.8070 74.5690 0.689 -0.593 -0.416 87 89 75
58.5808 39.8189 74.6283 0.915 -0.285 -0.285 92 96 81
58.8599 39.7782 74.6406 0.461 -0.846 -0.270 108 115 99
-19.7076 45.5322 62.0059 -0.195 0.127 -0.972 59 83 80
-18.4182 44.9826 61.5043 -0.389 0.057 -0.920 50 70 71
-18.1259 44.8697 61.4086 -0.408 0.072 -0.910 83 103 104
-14.0965 43.4228 60.2596 -0.179 0.196 -0.964 56 74 76
-13.7249 43.3726 60.2824 -0.295 0.071 -0.953 94 112 112
-12.5674 43.0317 60.0680 -0.263 -0.301 -0.916 71 85 87
-12.3368 42.9632 60.0244 -0.263 -0.301 -0.916 66 81 80
-11.2193 42.2089 59.1592 -0.365 0.021 -0.931 66 78 72
-9.0110 42.0155 59.4577 -0.191 -0.873 -0.448 55 65 64
-8.4968 41.8132 59.2837 -0.074 -0.647 -0.758 60 70 69
-7.8763 41.6544 59.2057 -0.419 -0.221 -0.881 59 76 68
-7.6184 41.5500 59.1140 -0.413 -0.209 -0.886 58 75 67
-7.3002 41.3850 58.9447 -0.400 -0.237 -0.885 55 72 64
-7.0054 41.3943 59.0389 0.667 0.306 -0.679 52 70 62
-6.4681 41.6215 59.5360 0.255 0.162 -0.953 118 136 130
-5.6287 41.2297 59.1567 0.322 -0.467 -0.823 118 134 124
-5.4879 41.2407 59.2120 0.277 -0.442 -0.853 118 133 122
-3.4643 40.5405 58.6757 -0.158 -0.338 -0.928 75 84 81
-3.2751 40.4982 58.6614 -0.167 -0.240 -0.956 75 84 80
-3.0861 40.4557 58.6468 0.183 -0.565 -0.805 79 92 85
-2.9222 40.4399 58.6667 0.198 -0.608 -0.769 65 80 70
-2.6179 40.4332 58.7388 0.104 -0.631 -0.769 72 88 77
-2.1804 40.2817 58.6227 0.059 -0.373 -0.926 74 91 79
0.0189 39.8102 58.4881 0.370 -0.712 -0.596 47 52 46
0.1442 39.8350 58.5604 0.185 -0.445 -0.876 46 51 45
1.3808 39.4246 58.2598 0.789 -0.057 -0.611 61 63 60
1.5090 39.4452 58.3265 0.812 -0.213 -0.543 60 62 59
5.3430 37.7665 56.7657 0.526 0.457 -0.718 76 82 80
5.5485 37.6859 56.6965 -0.138 -0.184 -0.973 75 81 79
6.6002 38.1434 57.6893 0.368 -0.389 -0.845 90 92 89
6.7540 38.1279 57.7070 0.210 -0.561 -0.801 88 88 85
6.9508 38.0561 57.6492 0.191 -0.560 -0.807 80 79 74
7.1792 37.9423 57.5349 -0.122 -0.297 -0.947 62 61 56
10.8336 37.9685 58.5645 0.124 -0.241 -0.963 73 72 68
10.9994 37.9324 58.5534 0.012 -0.214 -0.977 75 74 70
14.7846 37.0473 58.2080 -0.068 -0.527 -0.847 69 64 60
20.8758 36.4628 58.9520 0.659 -0.351 -0.665 88 84 73
21.1277 36.5074 59.0891 -0.215 -0.233 -0.948 93 89 78
21.2761 36.4825 59.0907 -0.203 -0.212 -0.956 96 89 81
21.4280 36.4495 59.0809 0.019 -0.497 -0.867 96 89 81
21.5834 36.4087 59.0597 0.016 -0.480 -0.877 97 90 82
21.7427 36.3590 59.0258 0.648 -0.298 -0.701 96 89 81
21.8689 36.3807 59.0936 0.632 -0.325 -0.704 97 90 82
22.1309 37.0162 60.1483 -0.351 -0.408 -0.843 88 82 71
23.6231 37.0837 60.6567 0.330 -0.185 -0.926 105 106 88
23.7608 37.0854 60.6966 0.360 -0.211 -0.909 114 115 97
30.0646 37.3096 62.7499 0.880 0.050 -0.473 76 79 58
34.1586 36.9465 63.2961 0.381 -0.045 -0.924 69 83 60
35.4144 36.8425 63.4749 0.858 -0.222 -0.464 60 75 41
35.6439 37.1581 64.0256 0.938 -0.245 -0.245 54 70 36
46.8075 38.0947 68.4971 0.610 -0.233 -0.757 29 43 18
46.9661 38.2617 68.7985 0.582 -0.288 -0.761 29 43 17
47.1061 38.2458 68.8118 0.900 0.023 -0.436 29 43 17
47.2613 38.3683 69.0435 0.899 0.042 -0.436 26 40 13
49.3631 40.0648 72.2384 0.713 0.378 -0.591 29 41 29
53.6963 41.6065 75.7977 -0.510 -0.658 -0.553 59 74 55
60.2372 40.8291 76.3649 0.854 -0.519 -0.033 114 120 105
60.5590 41.2889 77.1637 0.853 -0.520 -0.036 113 119 105
