ply
format ascii 1.0
element vertex 859
property float x
property float y
property float z
property float nx
property float ny
property float nz
property uchar diffuse_red
property uchar diffuse_green
property uchar diffuse_blue
end_header
-32.1860 12.3554 86.2103 -0.869 0.159 -0.468 108 123 128
-32.0365 12.4866 86.5688 -0.761 0.171 -0.626 109 127 131
-31.8801 12.4298 86.4843 0.404 0.290 -0.868 112 130 134
-31.7258 12.4487 86.5782 0.374 0.315 -0.872 112 130 134
-31.5120 9.5413 79.7583 -0.183 -0.595 -0.783 115 130 135
-31.3658 9.3192 79.2788 0.132 -0.371 -0.919 118 133 140
-31.2578 12.2803 86.3288 -0.612 -0.753 -0.243 119 134 141
-30.0374 11.0720 83.8561 -0.809 -0.403 -0.428 180 193 204
-29.4516 10.4994 82.6866 -0.099 -0.396 -0.913 189 209 216
-24.8839 9.2615 81.2134 0.093 -0.915 -0.393 203 228 232
-24.1324 9.1731 81.2441 0.777 -0.579 -0.247 145 173 186
-23.9617 9.2498 81.4803 0.694 -0.689 -0.209 154 181 198
-23.7778 9.3821 81.8527 0.776 -0.565 -0.281 160 187 204
-23.5927 9.5128 82.2213 0.776 -0.559 -0.291 162 189 206
-23.0389 7.9554 78.7085 -0.702 -0.395 -0.593 163 192 210
-22.4982 8.2804 79.6514 -0.954 -0.298 0.041 170 199 217
-21.6759 7.9316 79.0877 -0.316 -0.263 -0.912 171 198 209
-16.5511 7.0321 78.5942 -0.163 -0.677 -0.718 198 219 221
-16.0596 5.5004 75.1224 -0.501 -0.863 -0.061 191 209 209
-14.8343 6.3338 77.4884 0.821 -0.340 -0.459 193 211 211
-8.3481 5.2576 77.0114 0.323 -0.766 -0.556 178 196 199
-8.1866 5.2493 77.0434 0.157 -0.777 -0.610 197 215 219
-7.6087 5.1301 76.9456 -0.153 -0.449 -0.880 198 215 219
-7.4447 5.1239 76.9833 -0.189 -0.392 -0.900 199 216 220
-7.0430 4.9968 76.8105 -0.515 -0.466 -0.719 195 213 217
-5.8855 4.7617 76.6235 0.208 -0.733 -0.648 190 210 217
-5.7483 4.7241 76.5781 -0.434 -0.582 -0.688 185 205 211
-5.6088 4.6890 76.5396 -0.047 -0.458 -0.888 188 208 214
-5.4797 4.6427 76.4711 -0.386 -0.504 -0.772 189 208 215
-5.2754 4.6783 76.6207 -0.758 -0.570 -0.317 189 208 215
-4.8146 4.4353 76.1923 -0.547 -0.710 -0.443 185 210 217
-3.8378 4.3732 76.3573 0.166 -0.559 -0.813 188 213 220
-3.7574 4.2787 76.1592 -0.436 -0.046 -0.899 186 213 218
-3.2911 4.0518 75.7704 -0.620 0.056 -0.782 180 207 213
-3.1386 4.0310 75.7699 -0.206 -0.150 -0.967 182 208 212
-3.0095 3.9875 75.7081 0.327 -0.109 -0.939 183 206 208
-2.8087 4.0133 75.8335 0.180 -0.202 -0.963 179 199 199
-1.1609 4.0710 76.4967 -0.067 -0.977 -0.205 170 186 185
-0.9810 4.0723 76.5574 -0.228 -0.959 -0.171 164 180 179
-0.3127 3.7124 75.9182 -0.428 -0.888 -0.166 163 179 179
-0.1904 3.6632 75.8408 -0.345 -0.931 -0.120 162 178 178
2.8052 3.4397 76.2685 -0.368 -0.906 -0.208 178 195 202
2.9432 3.4033 76.2263 -0.300 -0.950 -0.083 176 194 199
3.0409 3.3356 76.0971 -0.268 -0.959 -0.096 180 198 200
3.1605 3.2851 76.0158 -0.242 -0.967 -0.081 178 196 196
3.2803 3.2351 75.9356 -0.254 -0.963 -0.088 168 184 183
3.4209 3.2013 75.9004 -0.254 -0.963 -0.088 157 174 170
4.0387 3.2480 76.2085 0.415 -0.835 -0.362 161 177 176
6.6618 3.0953 76.6849 0.291 -0.812 -0.506 132 146 146
7.7242 2.7706 76.2550 -0.003 -0.992 -0.125 180 196 193
7.8922 2.7539 76.2693 -0.007 -0.994 -0.110 173 189 186
8.0525 2.7320 76.2687 0.013 -0.996 -0.090 158 176 174
8.2424 2.7296 76.3235 0.013 -0.996 -0.090 158 176 174
8.3811 2.6933 76.2818 -0.201 -0.978 -0.064 178 194 191
8.5096 2.6503 76.2211 -0.192 -0.979 -0.062 186 202 199
8.6602 2.6219 76.2020 -0.192 -0.979 -0.062 194 210 207
23.7053 1.9832 79.4965 -0.078 -0.104 -0.991 181 211 211
24.3457 1.8572 79.4026 -0.002 -0.313 -0.950 166 184 190
27.3254 1.7306 80.0547 0.139 -0.391 -0.910 95 111 111
29.5737 1.5682 80.3885 0.031 -0.736 -0.676 126 146 144
30.1658 1.5124 80.4456 0.071 -0.656 -0.751 113 137 141
30.3977 1.5075 80.5081 0.157 -0.598 -0.786 82 111 115
31.7723 1.5641 81.0815 0.233 -0.699 -0.676 86 117 113
32.7008 1.5369 81.3137 0.077 -0.556 -0.827 164 194 193
32.8951 1.5150 81.3239 -0.334 -0.612 -0.717 174 205 209
33.0490 1.4775 81.2841 -0.334 -0.612 -0.717 167 198 203
34.3102 1.4756 81.6826 0.255 -0.654 -0.712 166 197 214
-51.4644 19.7418 97.0995 -0.345 -0.936 0.071 94 115 129
-46.0356 17.3914 93.2803 -0.719 -0.561 -0.410 197 227 230
-45.5495 17.3093 93.2409 -0.300 -0.635 -0.712 185 216 219
-45.3802 17.2620 93.1831 -0.305 -0.638 -0.707 168 199 202
-45.2107 17.2138 93.1232 -0.570 -0.482 -0.665 186 218 224
-43.7283 16.4282 91.7412 -0.508 -0.631 -0.586 196 228 227
-43.4135 16.3913 91.7541 -0.839 -0.266 -0.475 194 225 227
-42.6589 15.9091 90.8567 0.157 -0.602 -0.783 120 148 159
-42.4861 15.8360 90.7392 -0.291 -0.687 -0.666 133 161 172
-42.3172 15.7749 90.6486 -0.407 -0.672 -0.618 139 168 177
-37.0704 14.0452 88.2351 0.657 0.175 -0.733 155 174 172
-36.2873 13.9123 88.1701 -0.942 -0.084 -0.326 136 155 159
-35.9204 13.4740 87.2532 -0.867 -0.330 -0.375 104 123 130
-35.7478 13.3180 86.9401 -0.773 -0.416 -0.479 143 162 169
-35.1801 13.6491 87.9009 0.182 0.089 -0.979 182 200 200
-34.3293 12.8272 86.2332 -0.820 -0.364 -0.441 159 178 176
-34.1472 12.4976 85.5138 -0.548 -0.596 -0.587 117 136 132
-33.9917 12.4399 85.4272 -0.548 -0.596 -0.587 106 126 120
-33.8331 12.3432 85.2494 -0.520 -0.464 -0.717 106 125 121
-33.5787 12.9584 86.7806 -0.010 -0.230 -0.973 100 119 113
-33.4163 12.8330 86.5365 -0.873 -0.353 -0.335 101 120 114
-33.2263 12.2848 85.3043 -0.970 -0.143 -0.198 101 120 117
-32.4951 12.8764 86.9308 -0.829 0.114 -0.547 111 129 131
-32.3333 12.7112 86.5928 -0.836 0.155 -0.526 113 128 131
-32.1720 12.5295 86.2155 -0.866 0.161 -0.473 113 128 133
-32.0216 12.6395 86.5226 -0.763 0.175 -0.622 116 131 136
-31.8662 12.6186 86.5227 -0.001 0.474 -0.881 120 135 142
-31.4974 9.6461 79.6317 -0.185 -0.574 -0.798 120 135 141
-31.3519 9.4546 79.2262 0.132 -0.371 -0.919 124 139 146
-31.2417 12.3471 86.0807 -0.612 -0.753 -0.243 125 138 146
-30.6290 11.0547 83.2279 -0.523 -0.557 -0.645 130 144 153
-30.4778 11.1339 83.4626 0.335 -0.613 -0.716 131 145 154
-30.0231 11.1830 83.7226 -0.308 -0.580 -0.754 186 200 213
-29.4364 10.6443 82.6387 -0.088 -0.406 -0.910 188 208 215
-24.6252 9.0682 80.4492 0.261 -0.913 -0.312 201 226 230
-24.4740 9.0622 80.4828 0.575 -0.810 -0.113 180 208 212
-23.1312 7.6594 77.6015 0.004 -0.864 -0.503 169 198 216
-22.9893 7.6316 77.5810 -0.273 -0.854 -0.443 169 198 214
-22.8482 7.6008 77.5533 -0.273 -0.854 -0.443 170 199 215
-22.5676 7.5334 77.4833 -0.059 -0.833 -0.550 170 199 217
-21.9184 8.2339 79.3407 0.833 -0.246 -0.495 169 196 206
-21.1849 8.6161 80.4745 0.824 -0.228 -0.519 198 225 234
-16.4033 7.1076 78.4347 -0.770 -0.509 -0.385 176 196 196
-16.2958 7.0002 78.2158 0.157 -0.594 -0.789 155 175 174
-8.5100 5.3760 76.8563 0.046 -0.595 -0.803 160 179 181
-8.3514 5.3645 76.8793 -0.366 -0.734 -0.572 177 194 194
-8.2154 5.3244 76.8280 -0.344 -0.740 -0.578 198 213 214
-7.1889 5.1367 76.7110 -0.012 -0.744 -0.669 191 206 207
-7.0604 5.0882 76.6377 -0.493 -0.621 -0.610 194 208 209
-5.8545 4.9095 76.5987 0.328 -0.723 -0.608 164 180 184
-5.7397 4.8467 76.4872 0.013 -0.755 -0.655 157 174 178
-4.9326 4.6059 76.1754 -0.812 -0.525 -0.254 183 203 210
-4.2202 4.9942 77.3170 -0.329 -0.906 0.266 183 204 210
-2.7615 4.1739 75.8455 0.200 -0.172 -0.965 193 212 213
-0.8631 3.9732 75.9747 -0.507 -0.860 -0.060 177 192 192
-0.7635 3.9030 75.8408 -0.515 -0.855 -0.063 177 192 192
-0.6777 3.8210 75.6747 -0.510 -0.854 -0.104 177 192 191
-0.5371 3.7882 75.6419 -0.248 -0.960 -0.130 184 199 198
-0.4508 3.7075 75.4790 -0.426 -0.899 -0.102 183 199 198
-0.3579 3.6332 75.3334 -0.402 -0.907 -0.125 185 199 200
-0.3243 3.5078 75.0484 -0.417 -0.838 -0.351 179 192 194
0.3982 3.3664 74.9441 0.317 -0.766 -0.559 177 191 197
1.0992 3.5041 75.4912 0.320 -0.890 -0.325 181 197 203
1.4828 3.6724 76.0096 -0.392 -0.903 0.178 185 201 207
2.9326 3.3700 75.7566 -0.291 -0.950 -0.109 205 222 222
3.0514 3.3193 75.6748 -0.254 -0.963 -0.088 201 219 213
3.2069 3.2975 75.6726 -0.254 -0.965 -0.070 197 215 206
4.0009 3.3393 76.0232 0.178 -0.978 -0.107 158 176 169
4.6547 3.1323 75.7425 -0.027 -0.909 -0.417 160 177 178
4.8956 3.0352 75.5900 -0.290 -0.944 -0.159 141 158 158
4.9862 2.9653 75.4539 -0.364 -0.898 -0.246 144 163 161
6.6698 3.2231 76.5957 0.367 -0.696 -0.618 115 130 127
8.3898 2.8216 76.1948 -0.096 -0.988 -0.118 163 178 177
15.9378 1.9408 76.5126 -0.149 0.163 -0.975 177 203 204
16.5851 2.0627 77.0052 -0.045 -0.999 0.028 174 200 203
16.7481 2.0376 76.9978 -0.032 -0.999 0.029 171 199 200
19.3430 2.1620 78.1142 -0.255 -0.599 -0.760 195 234 225
20.5354 2.2105 78.6069 0.428 -0.442 -0.788 198 227 222
21.2853 2.2522 78.9430 0.084 -0.545 -0.834 197 223 222
23.7642 2.1447 79.4759 0.011 -0.212 -0.977 191 218 216
23.9366 2.1188 79.4694 -0.188 -0.152 -0.970 164 190 189
24.3955 2.0143 79.3686 0.017 -0.316 -0.949 167 191 193
25.0318 1.8861 79.2684 -0.197 -0.588 -0.785 83 102 106
29.4777 1.6668 80.1615 -0.048 -0.786 -0.617 159 179 178
30.7050 1.6714 80.5616 0.338 -0.656 -0.675 83 111 115
31.5001 1.6942 80.8677 0.237 -0.673 -0.701 88 118 117
31.7672 1.7020 80.9708 0.219 -0.703 -0.677 79 109 107
32.2458 1.6948 81.1057 0.089 -0.689 -0.719 126 157 152
32.9146 1.6632 81.2433 -0.250 -0.611 -0.751 168 200 200
34.3151 1.6192 81.5838 0.297 -0.591 -0.751 153 184 201
-51.3021 19.5893 96.3461 -0.892 0.080 -0.445 99 116 132
-46.5132 17.6406 93.2823 -0.033 -0.932 -0.362 220 243 237
-46.0166 17.5301 93.1795 -0.162 -0.838 -0.522 196 227 230
-45.4325 17.5995 93.5261 -0.036 -0.930 -0.366 168 199 204
-45.2747 17.5862 93.5446 -0.036 -0.930 -0.366 169 202 207
-44.4285 16.4633 91.1766 -0.293 -0.539 -0.790 151 181 191
-43.5184 16.4399 91.4085 -0.538 -0.445 -0.716 192 223 225
-43.1848 16.3411 91.2816 -0.821 -0.324 -0.470 181 212 215
-42.6188 15.9720 90.5939 -0.283 -0.771 -0.571 121 149 161
-42.4557 15.9300 90.5468 -0.421 -0.567 -0.708 131 159 170
-42.2839 15.8584 90.4328 -0.408 -0.565 -0.717 145 173 184
-37.0743 14.3020 88.4219 0.618 0.139 -0.774 151 170 168
-35.9070 13.6272 87.2063 -0.929 -0.060 -0.365 126 145 152
-35.7306 13.4426 86.8289 -0.926 -0.026 -0.376 163 182 188
-34.9793 13.5097 87.2227 -0.808 -0.552 -0.205 181 199 199
-34.6305 13.0988 86.3687 -0.297 -0.695 -0.655 167 185 187
-34.4600 12.9112 85.9822 -0.331 -0.466 -0.820 174 192 193
-34.3060 12.8810 85.9598 -0.387 -0.473 -0.792 165 183 183
-34.1281 12.5907 85.3348 -0.524 -0.387 -0.759 121 140 138
-33.9731 12.5361 85.2555 -0.524 -0.387 -0.759 112 133 128
-33.8179 12.4776 85.1672 -0.367 -0.454 -0.812 113 132 128
-33.5647 13.1154 86.7432 -0.010 -0.230 -0.973 107 126 122
-33.4022 12.9880 86.4956 -0.816 -0.424 -0.394 107 126 121
-32.3199 12.8987 86.6267 -0.836 0.155 -0.526 118 135 141
-32.0089 12.8620 86.6385 -0.767 0.180 -0.617 123 138 145
-31.3370 9.5269 79.0259 -0.059 -0.329 -0.942 130 145 154
-31.2256 12.4138 85.8336 -0.612 -0.753 -0.243 131 145 154
-30.6145 11.1371 83.0310 -0.297 -0.228 -0.927 135 152 162
-30.4632 11.2464 83.3351 0.334 -0.572 -0.749 135 153 163
-30.3119 11.2779 83.4564 0.433 -0.432 -0.791 136 153 163
-30.1605 11.2873 83.5263 0.434 -0.423 -0.795 146 163 173
-30.0085 11.3059 83.6177 -0.105 -0.470 -0.876 191 208 221
-24.6186 9.1581 80.2760 0.350 -0.837 -0.420 194 219 223
-22.8504 10.1262 83.1040 0.149 0.323 -0.935 170 197 214
-16.5922 7.1432 78.0763 -0.124 -0.490 -0.863 195 216 217
-16.2799 7.1327 78.1500 0.136 -0.600 -0.788 151 171 170
-16.1379 7.0975 78.1123 -0.151 -0.343 -0.927 156 174 174
-16.0146 7.0246 77.9799 0.004 -0.798 -0.603 160 178 178
-14.3596 6.8198 78.0208 0.811 -0.279 -0.514 155 174 172
-10.9777 5.7280 76.5242 -0.546 -0.821 -0.168 175 193 194
-8.6403 5.5341 76.8053 -0.080 -0.751 -0.655 161 183 181
-8.3547 5.4711 76.7474 -0.381 -0.801 -0.461 162 176 174
-8.2174 5.4327 76.7005 -0.381 -0.801 -0.461 183 195 194
-8.0802 5.3943 76.6537 -0.381 -0.801 -0.461 183 195 194
-7.6366 5.3193 76.6173 0.142 -0.827 -0.544 183 194 193
-6.8423 5.2578 76.7232 -0.498 -0.864 0.069 192 204 202
-6.6443 5.0923 76.3972 -0.688 -0.341 -0.640 209 220 219
-6.5253 5.0337 76.2973 -0.365 -0.812 -0.456 209 220 218
-6.3726 5.0143 76.2998 0.100 -0.852 -0.514 209 219 218
-6.0231 5.0248 76.4346 0.252 -0.775 -0.580 201 209 206
-5.8593 5.0171 76.4680 0.328 -0.723 -0.608 194 202 199
-5.1888 4.8129 76.2001 -0.339 -0.938 0.077 226 234 234
-4.4336 4.7014 76.1764 -0.244 -0.715 -0.655 240 247 249
-4.3002 4.6604 76.1222 -0.270 -0.729 -0.629 237 245 246
-4.1690 4.6173 76.0624 -0.274 -0.747 -0.605 230 237 239
-3.9648 4.6497 76.2027 -0.409 -0.912 0.015 226 233 237
-3.8369 4.6031 76.1336 -0.421 -0.907 0.023 225 232 236
-3.7288 4.5365 76.0113 -0.492 -0.870 0.036 222 232 235
-3.6095 4.4817 75.9204 -0.485 -0.874 0.037 220 231 234
-3.5356 4.3816 75.7088 -0.480 -0.862 -0.162 216 228 231
-3.4281 4.3160 75.5888 -0.300 -0.886 -0.354 208 219 223
-2.4015 4.2990 75.8722 0.197 -0.946 -0.258 202 212 211
-2.0678 4.2827 75.9391 0.112 -0.465 -0.878 210 220 218
-0.3618 3.5906 74.8524 -0.257 0.148 -0.955 180 189 190
0.4618 3.5365 74.9849 0.412 -0.654 -0.635 166 175 179
0.8917 3.5978 75.2639 0.315 -0.848 -0.427 166 177 180
1.0620 3.5902 75.2997 0.241 -0.878 -0.412 164 176 178
2.3584 3.6139 75.7636 0.128 -0.917 -0.377 138 149 153
2.5239 3.6001 75.7833 -0.169 -0.705 -0.689 139 150 157
3.4923 3.2116 75.1770 -0.157 -0.786 -0.597 105 119 108
3.9306 3.4055 75.7699 0.277 -0.936 -0.219 103 117 108
4.4711 3.3929 75.9104 0.020 -0.995 0.099 118 130 129
4.8316 3.1079 75.3554 -0.236 -0.963 -0.133 121 135 134
4.9636 3.0684 75.3042 -0.346 -0.932 -0.107 114 128 127
5.5014 3.0522 75.4356 -0.240 -0.968 0.070 99 113 108
6.5730 3.2770 76.3004 -0.349 -0.897 -0.273 99 114 109
15.9575 1.9667 76.1814 -0.159 0.210 -0.965 177 196 198
16.4148 2.0997 76.6373 -0.036 -0.868 -0.496 174 193 195
16.6609 2.1191 76.7604 0.036 -0.885 -0.465 172 191 193
22.9292 2.1011 78.6919 -0.818 -0.400 -0.413 193 219 216
23.2135 2.1285 78.8457 0.005 -0.917 -0.398 194 219 216
24.4339 2.1663 79.3187 0.017 -0.316 -0.949 168 196 197
25.0322 2.0210 79.1661 -0.186 -0.600 -0.778 114 137 139
29.4229 1.7819 79.9878 -0.025 -0.741 -0.671 161 181 180
31.2261 1.8226 80.6512 0.303 -0.636 -0.710 141 168 172
31.8634 1.7818 80.7560 0.039 -0.597 -0.802 85 111 108
32.1626 1.8022 80.8980 -0.110 -0.787 -0.607 125 152 147
32.7725 1.7484 80.9640 0.131 -0.676 -0.725 163 193 194
34.2496 1.7359 81.3997 0.262 -0.722 -0.641 128 159 172
-49.8297 18.2336 93.1995 -0.861 0.202 -0.466 249 252 251
-49.5153 17.8688 92.4461 -0.867 0.195 -0.460 246 248 247
-46.5512 17.9285 93.5120 -0.758 -0.291 -0.583 219 242 236
-46.3572 17.8181 93.3149 -0.758 -0.291 -0.583 201 229 225
-46.1599 17.6972 93.0943 -0.752 -0.337 -0.566 197 227 230
-45.9864 17.6387 93.0120 -0.175 -0.888 -0.426 196 227 230
-45.8043 17.5562 92.8763 -0.525 -0.567 -0.634 197 228 231
-45.6321 17.5002 92.7993 -0.463 -0.608 -0.645 195 226 229
-45.5596 17.7199 93.3349 -0.109 -0.960 -0.258 179 210 213
-43.1315 16.3649 90.9305 -0.309 -0.630 -0.712 182 213 216
-42.7411 16.0740 90.3734 -0.645 -0.550 -0.530 138 168 178
-42.4509 16.1100 90.5483 -0.509 -0.721 -0.469 142 170 181
-36.0820 14.0424 87.7119 -0.926 0.039 -0.375 158 177 183
-35.8940 13.7839 87.1671 -0.928 0.008 -0.372 166 185 192
-35.7145 13.5751 86.7358 -0.926 0.013 -0.377 183 202 209
-35.5336 13.3446 86.2541 -0.936 -0.034 -0.351 184 204 210
-34.9645 13.6545 87.1556 -0.811 -0.568 -0.137 180 200 199
-34.7940 13.4904 86.8259 -0.811 -0.568 -0.137 180 200 201
-34.5859 12.9537 85.6378 -0.660 -0.345 -0.667 172 192 193
-34.4459 13.0589 85.9274 -0.390 -0.493 -0.778 181 199 201
-34.2920 13.0311 85.9103 -0.374 -0.503 -0.779 169 187 188
-34.1136 12.7333 85.2710 -0.548 -0.389 -0.740 127 145 144
-33.9592 12.6864 85.2097 -0.541 -0.389 -0.745 119 138 136
-33.8060 12.6520 85.1774 -0.323 -0.494 -0.807 119 138 136
-33.7063 13.3011 86.7239 0.350 -0.398 -0.848 118 137 135
-33.5634 13.4433 87.1005 -0.452 0.024 -0.892 112 131 129
-33.3957 13.2534 86.7097 -0.691 -0.456 -0.561 113 132 128
-33.2585 13.5063 87.3428 0.699 -0.492 -0.519 113 132 130
-32.9321 13.2313 86.8028 0.680 -0.270 -0.682 113 132 139
-32.7796 13.2695 86.9398 0.680 -0.270 -0.682 113 132 139
-32.3094 13.1583 86.8270 -0.901 -0.254 -0.350 123 140 148
-32.1491 13.0198 86.5538 -0.876 -0.301 -0.376 123 140 148
-31.9939 13.0142 86.5892 -0.804 -0.461 -0.374 126 143 151
-31.6781 12.7963 86.1792 -0.804 -0.461 -0.374 128 146 156
-31.3232 9.6638 78.9772 -0.059 -0.329 -0.942 132 150 160
-30.1460 11.4001 83.3986 0.010 -0.764 -0.645 139 159 170
-24.6945 9.6155 80.9363 0.234 -0.636 -0.736 197 222 226
-24.0816 9.6027 81.0980 0.291 -0.771 -0.566 167 193 205
-16.7193 7.3083 78.0428 -0.094 -0.463 -0.881 195 217 215
-16.5739 7.2807 78.0237 -0.106 -0.467 -0.878 195 217 215
-16.2623 7.2686 78.0928 -0.049 -0.501 -0.864 151 171 169
-16.1200 7.2339 78.0564 -0.129 -0.321 -0.938 157 176 174
-16.0241 7.1051 77.7856 0.051 -0.789 -0.612 160 179 177
-14.7843 7.0305 77.9989 0.629 -0.264 -0.731 188 207 205
-14.5294 6.9069 77.7902 0.746 0.004 -0.666 169 188 186
-14.3376 6.9630 77.9810 0.761 -0.040 -0.648 154 173 171
-8.9773 5.6399 76.5676 -0.219 -0.943 -0.253 163 187 182
-8.6497 5.6323 76.6523 -0.068 -0.830 -0.553 164 186 181
-8.3703 5.5619 76.5752 -0.419 -0.844 -0.334 182 195 191
-7.4062 5.3014 76.2683 0.028 -0.997 -0.069 233 242 239
-4.7393 4.8560 76.0622 -0.412 -0.890 0.193 179 182 180
-3.1841 4.3288 75.3174 -0.144 -0.977 -0.156 168 169 171
-2.7671 4.3978 75.6090 -0.010 -0.999 0.034 169 169 169
-1.9602 4.3336 75.7112 -0.192 -0.949 -0.249 135 138 135
-1.7744 4.3432 75.7917 -0.252 -0.943 -0.215 131 134 132
-1.6527 4.2922 75.7107 -0.181 -0.952 -0.247 126 129 128
-1.4926 4.2773 75.7260 -0.059 -0.978 -0.202 127 127 128
-1.3500 4.2460 75.6975 -0.272 -0.961 -0.047 129 131 133
-0.7984 3.9447 75.1663 -0.600 -0.553 -0.578 105 107 109
-0.6796 3.8931 75.0832 -0.281 0.136 -0.950 85 88 89
0.4885 3.6754 74.9400 0.390 -0.072 -0.918 79 84 85
0.6950 3.6994 75.0605 0.440 -0.152 -0.885 83 87 88
1.6540 3.7501 75.4788 -0.396 -0.917 -0.044 107 111 113
1.9845 3.7241 75.5212 0.141 -0.932 -0.334 81 85 86
2.1211 3.6875 75.4785 0.127 -0.942 -0.312 65 68 70
3.7306 3.3720 75.2450 -0.155 0.131 -0.979 119 127 120
4.0245 3.3155 75.2050 -0.508 -0.252 -0.824 108 115 110
4.7607 3.1751 75.1072 -0.238 -0.962 -0.133 127 134 132
4.8932 3.1362 75.0579 -0.335 -0.936 -0.111 132 138 137
5.5688 3.0860 75.1519 -0.020 -1.000 -0.024 112 119 115
5.9029 3.1912 75.5019 0.504 -0.780 -0.372 107 114 110
7.3583 3.0178 75.5520 -0.166 -0.847 -0.505 89 103 98
8.4043 2.9479 75.7158 0.135 -0.692 -0.709 91 107 101
10.7057 2.5533 75.5140 -0.047 -0.992 0.114 101 104 109
16.3228 2.1776 76.3925 0.026 -0.861 -0.508 195 206 212
16.5123 2.1674 76.4279 0.032 -0.871 -0.490 191 202 209
22.7627 2.2615 78.6014 0.173 -0.916 -0.361 193 220 215
22.9594 2.2483 78.6320 0.047 -0.899 -0.435 194 219 215
23.1861 2.2490 78.7044 -0.017 -0.907 -0.422 194 219 215
23.8107 2.3291 79.0867 -0.256 -0.818 -0.516 166 191 188
24.9852 2.1343 78.9991 -0.214 -0.651 -0.728 153 177 179
26.4471 1.9619 79.0535 -0.324 -0.427 -0.844 81 99 108
27.5155 2.0188 79.5203 0.166 -0.809 -0.564 119 137 140
28.8285 1.8714 79.5866 -0.465 -0.462 -0.755 143 163 161
31.8634 1.9214 80.6520 0.039 -0.597 -0.802 78 101 98
-49.3875 18.0914 92.5800 -0.855 0.253 -0.453 252 254 253
-46.4505 17.8536 92.9389 -0.021 -0.920 -0.392 218 241 236
-46.3341 17.9463 93.1904 -0.702 -0.520 -0.486 201 229 225
-45.9637 17.7672 92.8892 -0.130 -0.844 -0.521 197 228 231
-45.6154 17.6443 92.7117 -0.432 -0.649 -0.627 192 223 226
-45.3649 17.7946 93.1388 -0.117 -0.941 -0.317 149 180 185
-44.3812 16.7041 90.9104 0.043 -0.639 -0.768 166 196 206
-44.1309 16.8529 91.3339 0.001 -0.709 -0.706 175 205 214
-44.0012 16.9171 91.5231 -0.268 -0.616 -0.741 191 222 227
-43.1144 16.5043 90.8394 -0.310 -0.620 -0.721 180 211 214
-42.9487 16.4560 90.7786 -0.302 -0.633 -0.713 157 188 193
-42.6086 16.3293 90.5897 -0.478 -0.274 -0.834 166 194 205
-37.0344 14.5301 88.1392 0.101 -0.893 -0.438 123 144 147
-36.2545 14.4291 88.1466 -0.927 0.038 -0.374 164 188 193
-36.0683 14.1951 87.6607 -0.927 0.038 -0.374 164 187 194
-35.8804 13.9362 87.1177 -0.930 0.010 -0.367 167 190 199
-35.4087 13.8134 86.9785 0.517 -0.499 -0.695 183 205 211
-34.4143 13.0304 85.4681 -0.723 -0.383 -0.574 182 201 204
-34.2559 12.9473 85.3241 -0.723 -0.383 -0.574 180 199 201
-34.0986 12.8713 85.1964 -0.724 -0.393 -0.567 133 153 153
-33.9545 12.9435 85.4090 -0.267 -0.491 -0.829 120 138 137
-33.8174 13.1125 85.8440 -0.304 -0.621 -0.722 121 139 139
-33.6981 13.5323 86.8564 0.386 -0.349 -0.854 120 138 138
-30.2823 11.5355 83.2771 -0.271 -0.849 -0.454 148 170 183
-28.9490 10.8738 82.1537 -0.924 -0.382 -0.023 195 216 221
-24.7632 10.1282 81.7202 0.353 -0.394 -0.849 201 226 230
-24.5250 9.7549 80.9268 -0.175 -0.562 -0.809 191 216 220
-24.3782 9.7194 80.8899 -0.176 -0.578 -0.797 185 210 214
-24.2386 9.6488 80.7692 -0.168 -0.620 -0.767 176 201 209
-24.0907 9.6199 80.7479 0.009 -0.680 -0.733 167 194 205
-21.2970 9.0128 80.2043 0.838 -0.387 -0.386 199 223 233
-16.5542 7.4212 77.9782 -0.044 -0.427 -0.903 195 217 215
-16.2503 7.3929 78.0067 -0.233 -0.472 -0.850 151 171 169
-16.1060 7.3625 77.9809 -0.144 -0.353 -0.924 156 175 173
-16.0380 7.1762 77.5692 0.029 -0.792 -0.610 161 180 178
-11.1304 5.9572 76.2599 -0.472 -0.855 -0.214 175 191 190
-11.0384 5.8536 76.0478 -0.196 0.234 -0.952 177 193 192
-10.9166 5.7944 75.9481 -0.242 0.225 -0.944 185 200 197
-10.7798 5.7572 75.9041 -0.242 0.225 -0.944 187 199 197
-10.3889 5.6194 75.7051 -0.629 0.331 -0.703 190 200 199
-10.2778 5.5471 75.5718 -0.629 0.331 -0.703 189 199 198
-8.7164 5.4414 75.8106 0.191 -0.979 -0.077 189 206 200
-5.8224 4.9023 75.4561 -0.057 -0.996 0.075 161 166 160
-3.2495 4.3776 75.0353 -0.248 -0.936 -0.251 75 76 76
-3.1191 4.3360 74.9793 -0.083 -0.975 -0.205 75 76 74
-1.3605 4.3520 75.5619 0.034 -0.829 -0.558 66 64 67
-1.2220 4.3170 75.5237 -0.524 -0.680 -0.512 67 65 68
-1.0939 4.2726 75.4603 -0.624 -0.597 -0.505 66 64 67
-0.2647 3.9069 74.8679 -0.154 0.359 -0.921 64 64 66
-0.1117 3.8860 74.8670 -0.170 0.349 -0.922 64 64 66
0.1671 3.8204 74.8010 -0.003 0.316 -0.949 73 75 74
0.5101 3.8100 74.8833 0.364 -0.126 -0.923 55 56 54
0.6957 3.8164 74.9556 0.364 -0.126 -0.923 72 73 71
1.2653 3.8440 75.1966 -0.889 -0.150 -0.433 113 114 111
1.3738 3.7845 75.0920 -0.889 -0.192 -0.416 113 114 111
1.4650 3.7110 74.9496 -0.888 -0.189 -0.418 113 113 112
1.7270 3.7789 75.1885 -0.227 -0.953 -0.198 100 100 99
1.8965 3.7698 75.2200 0.023 -0.942 -0.335 93 93 92
2.0456 3.7438 75.2058 0.030 -0.936 -0.352 84 85 83
2.1731 3.7003 75.1443 -0.040 -0.954 -0.296 77 79 75
2.2807 3.6409 75.0397 -0.217 -0.936 -0.278 86 87 85
2.4644 3.6429 75.1014 0.345 0.011 -0.938 93 94 94
2.7948 3.6165 75.1425 0.329 0.073 -0.942 102 103 99
2.9745 3.6144 75.1935 0.373 0.041 -0.927 107 109 102
3.7866 3.5336 75.2577 -0.155 0.131 -0.979 129 131 124
3.9309 3.5032 75.2318 -0.150 0.123 -0.981 128 130 123
4.0660 3.4657 75.1868 -0.132 0.114 -0.985 123 124 119
4.3844 3.4275 75.1967 0.421 -0.082 -0.903 121 122 118
4.5964 3.4477 75.3094 0.171 -0.200 -0.965 122 123 120
4.8984 3.3961 75.2833 -0.358 0.111 -0.927 121 122 120
4.9326 3.2842 75.0340 -0.434 -0.749 -0.501 120 122 118
4.9931 3.1925 74.8396 -0.490 -0.859 0.151 119 120 116
5.1975 3.0714 74.6217 -0.209 -0.976 0.052 119 120 115
7.1474 3.1246 75.3502 -0.080 -0.143 -0.987 109 113 110
7.2971 3.0969 75.3324 -0.022 -0.389 -0.921 102 106 103
7.4763 3.0894 75.3705 0.020 -0.386 -0.922 82 86 82
8.2101 3.0685 75.5497 0.226 -0.472 -0.852 69 74 70
8.3905 3.0606 75.5874 0.308 -0.456 -0.835 84 89 85
8.5891 3.0647 75.6584 0.308 -0.456 -0.835 97 103 99
8.8725 3.1242 75.8847 0.055 -0.104 -0.993 106 115 111
9.0274 3.0986 75.8734 0.052 -0.105 -0.993 111 121 117
9.2011 3.0852 75.8961 0.012 -0.115 -0.993 109 120 116
10.0982 2.7858 75.4788 -0.336 -0.913 -0.233 119 118 122
13.5528 2.4742 75.8267 0.111 -0.872 -0.477 58 59 65
13.9786 2.4860 75.9862 0.406 -0.790 -0.460 69 70 78
22.8361 2.3229 78.3556 -0.166 -0.932 -0.323 191 217 214
22.9893 2.2894 78.3254 -0.148 -0.931 -0.333 192 218 215
23.6849 2.2988 78.5629 0.243 -0.883 -0.403 162 188 187
23.9275 2.3063 78.6557 0.092 -0.926 -0.365 161 187 186
24.1488 2.3037 78.7183 0.092 -0.926 -0.365 164 190 191
25.7180 2.1843 78.9278 0.030 -0.597 -0.801 83 101 103
25.9648 2.1913 79.0205 0.021 -0.642 -0.767 164 182 185
26.1158 2.1555 78.9842 0.058 -0.575 -0.816 172 191 195
26.2819 2.1264 78.9683 0.025 -0.608 -0.793 138 157 162
26.4466 2.0967 78.9503 -0.263 -0.417 -0.870 103 122 128
28.6396 2.0289 79.4733 -0.245 -0.487 -0.838 125 144 142
28.7767 1.9865 79.4172 -0.243 -0.479 -0.844 141 161 159
29.8004 2.1140 80.0310 0.125 -0.366 -0.922 162 182 180
30.1082 2.0416 79.9585 0.206 -0.763 -0.613 147 172 173
32.6498 1.9805 80.6051 0.015 -0.735 -0.678 139 163 165
33.5966 1.9608 80.8530 0.226 -0.516 -0.826 106 134 137
-46.8527 18.3003 93.4215 -0.450 -0.778 -0.438 248 255 254
-46.6721 18.2258 93.3049 -0.462 -0.789 -0.405 239 253 252
-46.4876 18.1401 93.1635 -0.591 -0.710 -0.382 217 242 235
-45.9985 18.0517 93.1097 -0.397 -0.514 -0.760 197 228 231
-44.1445 17.0862 91.4486 -0.255 -0.679 -0.689 177 207 215
-43.9804 17.0467 91.4078 -0.268 -0.616 -0.741 192 223 227
-43.0974 16.6439 90.7486 -0.391 -0.661 -0.641 178 209 211
-42.9263 16.5780 90.6488 -0.445 -0.607 -0.659 157 186 190
-41.0607 17.0367 92.2841 -0.962 -0.257 -0.095 158 182 184
-39.7222 15.9763 90.2448 -0.558 -0.793 -0.246 151 173 170
-39.2311 15.1396 88.4615 -0.720 -0.124 -0.683 152 174 170
-39.0601 15.0461 88.2981 -0.720 -0.124 -0.683 157 180 173
-38.8565 14.7962 87.7830 0.574 -0.057 -0.817 158 181 175
-38.7199 14.8612 87.9754 -0.713 -0.127 -0.689 155 177 173
-35.6820 13.8376 86.5445 0.514 -0.728 -0.454 184 211 222
-34.5558 13.2299 85.4864 -0.662 -0.456 -0.596 183 202 208
-34.3982 13.1572 85.3669 -0.662 -0.456 -0.596 182 201 206
-34.2416 13.0919 85.2641 -0.655 -0.481 -0.583 182 201 205
-34.0846 13.0199 85.1461 -0.661 -0.484 -0.573 137 157 158
-33.6755 13.5774 86.5609 -0.267 -0.952 -0.150 124 142 142
-32.0732 12.0025 83.4134 -0.045 -0.794 -0.607 134 152 164
-31.9232 11.9866 83.4229 -0.045 -0.794 -0.607 135 153 167
-31.7674 11.7524 82.9295 -0.089 -0.325 -0.941 136 154 168
-31.4949 13.2067 86.3756 -0.673 -0.288 -0.681 135 156 169
-31.3370 13.0375 86.0330 -0.574 -0.292 -0.765 138 160 173
-30.2680 11.6402 83.1318 -0.273 -0.866 -0.418 147 171 183
-24.7505 10.2500 81.6172 0.415 -0.492 -0.766 201 226 230
-24.5919 10.2700 81.7122 0.246 -0.721 -0.648 198 223 227
-24.2292 9.7544 80.6320 -0.061 -0.656 -0.752 176 201 208
-21.2816 9.1472 80.1359 0.838 -0.383 -0.388 199 223 233
-16.5529 7.5225 77.8361 -0.321 -0.816 -0.481 195 217 215
-16.4026 7.5052 77.8426 0.108 -0.583 -0.805 179 199 197
-16.2439 7.5055 77.8921 -0.039 -0.465 -0.885 154 174 172
-16.0880 7.4993 77.9258 -0.144 -0.353 -0.924 152 171 169
-14.4542 7.2513 77.8556 0.307 -0.375 -0.874 167 186 184
-14.3143 7.2121 77.8081 -0.361 -0.327 -0.873 156 175 173
-14.0648 7.3721 78.2548 0.246 -0.165 -0.955 155 174 172
-13.4702 6.1696 75.6577 -0.494 -0.486 -0.721 162 180 180
-11.0029 6.0122 76.0539 -0.324 0.130 -0.937 191 207 206
-10.8550 5.9906 76.0495 -0.381 0.111 -0.918 195 209 209
-10.7199 5.9504 75.9981 -0.373 0.104 -0.922 191 205 205
-10.5885 5.9051 75.9338 -0.313 0.172 -0.934 191 205 205
-10.3420 5.7923 75.7491 -0.554 0.225 -0.802 190 202 202
-10.2139 5.7435 75.6757 -0.863 -0.071 -0.499 177 189 189
-9.0757 5.5118 75.4905 -0.338 -0.939 0.056 154 165 163
-7.0466 5.1511 75.2815 -0.335 -0.935 0.113 109 115 111
-6.9269 5.0952 75.1891 -0.342 -0.932 0.123 102 108 104
-6.1168 4.8719 74.9225 -0.143 -0.944 -0.297 63 69 64
-4.7374 4.7192 74.9942 -0.059 0.023 -0.998 67 69 71
-3.8174 4.6112 75.0279 -0.694 -0.564 -0.447 58 62 63
-3.6855 4.5708 74.9752 -0.658 -0.626 -0.418 57 61 62
-3.3304 4.4102 74.7133 -0.347 -0.787 -0.510 40 44 43
-3.2005 4.3688 74.6574 0.184 -0.935 -0.304 41 45 42
-2.0731 4.4561 75.2067 0.190 -0.802 -0.567 65 67 64
-1.4022 4.4286 75.3498 -0.405 -0.627 -0.666 46 46 48
-1.2786 4.3801 75.2757 -0.724 -0.395 -0.565 47 47 49
-1.1779 4.3108 75.1463 -0.775 -0.270 -0.571 53 53 55
-1.0524 4.2646 75.0783 -0.725 -0.354 -0.591 59 59 61
-0.2021 4.0779 74.9086 -0.080 0.366 -0.927 64 64 66
-0.0565 4.0503 74.8896 -0.130 0.341 -0.931 54 54 56
0.0838 4.0180 74.8581 -0.130 0.341 -0.931 44 45 47
0.7238 3.9568 74.9136 0.318 -0.044 -0.947 45 45 43
1.2681 3.9634 75.0967 -0.866 -0.256 -0.430 63 62 60
1.3831 3.9093 75.0069 -0.889 -0.190 -0.417 64 63 61
1.4762 3.8371 74.8688 -0.888 -0.189 -0.418 65 64 62
1.5044 3.7118 74.5878 -0.888 -0.232 -0.396 61 60 58
1.8360 3.8374 74.9803 -0.149 -0.980 -0.131 58 57 55
1.9807 3.8082 74.9573 -0.155 -0.980 -0.127 58 57 55
2.0932 3.7527 74.8637 -0.019 -0.988 -0.150 57 58 53
2.2394 3.7249 74.8443 -0.212 -0.968 -0.138 65 65 63
2.4339 3.7360 74.9299 -0.037 -0.927 -0.373 72 72 70
2.6948 3.7998 75.1579 0.307 0.101 -0.946 81 81 79
2.8785 3.8011 75.2175 0.307 0.101 -0.946 86 87 82
3.0619 3.8019 75.2757 0.458 0.166 -0.874 108 109 103
3.2598 3.8137 75.3640 0.466 0.164 -0.869 135 136 130
3.9432 3.6314 75.1530 0.061 0.417 -0.907 130 129 124
4.8143 3.5913 75.3285 -0.374 0.177 -0.910 122 121 117
4.9696 3.5685 75.3237 -0.605 0.195 -0.772 122 121 117
7.0423 3.3040 75.3507 -0.052 -0.127 -0.991 113 114 109
7.3406 3.2478 75.3126 -0.086 -0.044 -0.995 102 103 98
8.1690 3.1625 75.3705 0.039 -0.299 -0.953 98 98 93
8.3032 3.1240 75.3228 0.070 -0.031 -0.997 103 103 98
8.9226 3.2799 75.8740 0.191 -0.492 -0.850 100 105 99
13.5013 2.5692 75.6410 0.111 -0.872 -0.477 79 80 84
16.1523 2.4512 76.1848 -0.035 0.374 -0.927 90 94 97
16.3551 2.4486 76.2412 0.027 0.358 -0.933 90 93 97
16.5191 2.4249 76.2369 0.027 0.358 -0.933 84 88 92
19.1950 2.3880 76.9759 0.307 -0.924 -0.227 126 139 137
20.0645 2.5005 77.5037 0.064 -0.956 -0.288 117 140 137
23.2137 2.3166 78.0485 0.242 -0.918 -0.314 179 208 206
25.0898 2.3463 78.6951 0.190 -0.624 -0.758 158 178 184
25.3101 2.3423 78.7537 0.190 -0.624 -0.758 63 80 87
25.4921 2.3208 78.7600 0.032 -0.557 -0.830 58 74 80
25.6701 2.2974 78.7608 -0.096 -0.614 -0.784 79 97 98
25.9488 2.3190 78.8965 -0.098 -0.731 -0.675 156 174 176
26.0805 2.2747 78.8346 -0.161 -0.662 -0.732 173 193 194
26.4274 2.2232 78.8224 -0.189 -0.447 -0.874 109 128 134
27.7815 2.3044 79.4271 0.173 -0.636 -0.752 139 155 155
28.7829 2.1256 79.3224 -0.216 -0.383 -0.898 140 160 158
30.0338 2.2488 79.9923 0.017 -0.462 -0.887 128 152 149
30.0609 2.1599 79.7953 0.206 -0.763 -0.613 142 167 168
32.6512 2.1209 80.5029 0.054 -0.754 -0.655 103 127 129
33.6104 2.1068 80.7656 0.226 -0.516 -0.826 77 105 106
-51.9956 20.8204 97.2201 -0.187 -0.594 -0.782 89 112 117
-51.2188 20.1540 95.9243 -0.448 0.157 -0.880 100 117 137
-51.0530 20.1254 95.9092 -0.522 0.124 -0.844 95 113 133
-50.8612 20.0408 95.7734 -0.521 0.120 -0.845 188 205 220
-50.6798 19.9780 95.6843 -0.524 0.110 -0.845 237 249 253
-46.9836 18.4352 93.2648 -0.548 -0.749 -0.373 252 252 255
-45.9817 18.1965 93.0219 -0.371 -0.548 -0.750 197 228 231
-43.9597 17.1763 91.2928 -0.296 -0.623 -0.724 194 223 227
-43.6022 17.0043 91.0063 0.119 -0.866 -0.485 195 225 224
-42.1710 19.6759 97.5908 -0.966 -0.245 -0.084 149 171 176
-39.4063 15.4607 88.7379 -0.607 -0.617 -0.501 159 181 176
-39.2153 15.2791 88.3783 -0.722 -0.105 -0.684 157 180 175
-39.0440 15.1840 88.2120 -0.722 -0.105 -0.684 144 167 160
-38.8972 15.2030 88.3007 -0.816 -0.305 -0.492 140 163 156
-38.7076 15.0162 87.9289 -0.713 -0.128 -0.689 171 194 189
-38.5443 14.9537 87.8349 0.053 0.154 -0.987 202 227 223
-38.2185 14.8289 87.6474 -0.309 0.167 -0.936 206 232 233
-37.8744 14.6007 87.2276 -0.213 -0.916 -0.340 202 230 233
-37.0884 14.4071 87.0224 -0.556 -0.722 -0.412 155 183 193
-35.8429 14.1639 86.8438 -0.941 -0.293 -0.168 178 209 220
-34.5382 13.3419 85.3515 -0.639 -0.406 -0.653 182 203 208
-34.3810 13.2732 85.2414 -0.625 -0.468 -0.625 182 201 207
-34.2244 13.2062 85.1351 -0.625 -0.468 -0.625 183 202 206
-34.0689 13.1493 85.0518 -0.624 -0.492 -0.608 140 160 161
-33.9128 13.0818 84.9442 -0.684 -0.482 -0.548 132 150 150
-33.7676 13.1465 85.1374 -0.477 -0.642 -0.600 132 150 150
-33.1694 13.2583 85.5777 -0.094 -0.984 0.151 128 146 149
-31.9088 12.1332 83.3745 0.043 -0.832 -0.552 140 159 173
-31.6052 11.9584 83.0651 0.159 -0.214 -0.964 143 162 177
-24.4160 9.6424 79.9346 0.401 -0.451 -0.797 186 211 215
-16.2488 7.5942 77.7193 -0.326 -0.846 -0.422 155 175 173
-16.1076 7.5579 77.6790 -0.376 -0.851 -0.367 146 165 163
-14.5932 7.3949 77.7669 0.328 -0.397 -0.857 157 176 174
-14.4470 7.3674 77.7483 -0.383 -0.310 -0.870 157 176 174
-14.3072 7.3282 77.7008 -0.383 -0.310 -0.870 157 176 174
-14.0571 7.4900 78.1495 0.239 -0.192 -0.952 158 177 175
-13.4640 6.2825 75.5529 -0.470 -0.517 -0.716 162 180 180
-12.3050 6.6088 76.6578 -0.430 -0.871 0.236 191 206 209
-11.2845 6.1825 75.9891 -0.613 -0.758 -0.223 148 166 166
-10.9670 6.1716 76.0611 -0.352 -0.006 -0.936 151 167 167
-10.8112 6.1613 76.0849 -0.477 -0.081 -0.875 151 165 165
-10.3853 6.0695 76.0041 -0.957 -0.219 -0.190 135 149 149
-7.8552 5.2870 74.9773 -0.464 -0.870 -0.167 47 57 56
-6.8575 5.0910 74.8314 -0.311 0.050 -0.949 57 63 59
-6.5270 5.0877 74.9248 -0.067 0.123 -0.990 63 69 65
-6.3696 5.0764 74.9469 0.123 0.036 -0.992 67 72 66
-5.9422 4.9906 74.8802 0.339 -0.099 -0.936 70 75 69
-4.4989 4.9043 75.1230 0.175 0.103 -0.979 90 93 92
-3.6957 4.6735 74.8375 -0.658 -0.626 -0.418 86 87 91
-3.5723 4.6248 74.7632 -0.635 -0.644 -0.427 93 94 98
-3.4459 4.5794 74.6974 -0.514 -0.662 -0.545 80 81 83
-3.3378 4.5158 74.5840 -0.336 -0.780 -0.529 63 65 66
-2.1016 4.5433 75.0253 0.212 -0.825 -0.524 33 37 36
-1.9071 4.5628 75.1296 0.197 -0.838 -0.509 43 47 46
-1.7522 4.5441 75.1340 0.253 -0.803 -0.539 52 53 55
-1.5676 4.5533 75.2115 0.148 -0.772 -0.618 65 66 68
-1.4093 4.5373 75.2232 -0.413 -0.642 -0.646 55 56 58
-1.2777 4.4964 75.1692 -0.759 -0.438 -0.481 51 52 54
-1.1520 4.4500 75.1010 -0.723 -0.373 -0.582 45 46 48
-1.0484 4.3835 74.9798 -0.728 -0.358 -0.584 42 43 45
-0.9373 4.3244 74.8776 -0.728 -0.358 -0.584 45 46 48
-0.7598 4.3260 74.9357 -0.007 0.090 -0.996 46 47 49
-0.6150 4.2977 74.9147 -0.071 0.287 -0.955 62 65 66
-0.2965 4.2669 74.9412 -0.123 0.322 -0.939 103 104 106
0.6095 4.1280 74.8987 0.000 0.307 -0.952 49 49 49
1.0177 4.0196 74.7740 -0.019 -0.177 -0.984 47 47 45
1.3534 4.0011 74.8342 -0.872 -0.079 -0.483 49 49 47
1.7896 3.7682 74.4317 -0.632 -0.323 -0.704 61 61 59
2.3620 3.7952 74.6689 0.636 -0.575 -0.515 64 64 64
4.1306 3.7528 75.1121 0.152 0.362 -0.920 117 116 111
4.9780 3.5561 74.9185 -0.611 0.288 -0.738 124 121 116
5.1159 3.5210 74.8798 -0.656 0.260 -0.709 123 120 115
6.2446 3.5276 75.2401 -0.254 -0.967 0.020 115 115 110
7.1248 3.3503 75.1015 -0.074 -0.987 -0.143 129 132 127
7.3794 3.3956 75.2834 -0.352 -0.809 -0.470 122 124 119
7.6247 3.3028 75.1449 0.316 -0.858 -0.405 111 113 108
7.9247 3.3776 75.4088 -0.200 -0.583 -0.787 98 99 94
8.0901 3.3601 75.4191 -0.211 -0.592 -0.778 71 72 67
8.2258 3.3223 75.3737 -0.339 -0.469 -0.816 50 51 46
8.9391 3.4135 75.8014 0.158 -0.581 -0.799 95 98 91
9.0185 3.3377 75.6515 -0.028 -0.426 -0.904 130 133 126
9.2640 3.2445 75.5120 -0.624 0.209 -0.753 128 132 125
9.4262 3.2239 75.5142 -0.568 0.263 -0.780 127 132 125
10.7077 2.9229 75.2135 0.473 -0.643 -0.603 90 93 87
16.1907 2.5987 76.1441 -0.021 0.003 -1.000 111 117 109
18.9141 2.4827 76.7097 0.321 -0.705 -0.632 109 117 114
24.3445 2.4515 78.2983 0.164 -0.577 -0.801 177 205 205
25.4996 2.4586 78.6678 0.032 -0.557 -0.830 84 102 106
25.6705 2.4320 78.6589 -0.096 -0.618 -0.780 116 132 136
25.9273 2.4441 78.7651 -0.134 -0.748 -0.650 132 150 154
26.0754 2.4071 78.7253 -0.205 -0.694 -0.691 172 189 195
26.2484 2.3813 78.7188 -0.077 -0.643 -0.762 170 189 196
26.4142 2.3522 78.7025 -0.182 -0.463 -0.868 119 137 146
28.8374 2.2853 79.2896 -0.475 -0.335 -0.814 139 160 159
31.3322 2.3227 80.1385 0.251 -0.729 -0.637 130 154 157
31.6461 2.2518 80.0712 -0.026 -0.659 -0.752 82 102 101
32.6063 2.2428 80.3442 0.039 -0.746 -0.665 90 116 117
-51.8381 20.6790 96.5039 -0.225 -0.588 -0.777 90 114 119
-51.2045 20.3089 95.8488 0.156 -0.426 -0.891 100 117 137
-51.0587 20.3233 95.9261 0.149 -0.393 -0.907 95 113 132
-50.9001 20.3106 95.9452 0.164 -0.420 -0.893 197 212 225
-50.7477 20.3120 95.9946 0.159 -0.432 -0.888 239 248 252
-50.5606 20.2376 95.8809 -0.518 -0.422 -0.744 251 255 253
-46.7751 18.4764 92.9973 -0.431 -0.816 -0.385 246 254 252
-46.5984 18.4105 92.9002 -0.434 -0.812 -0.390 237 253 252
-46.4256 18.3546 92.8245 -0.434 -0.812 -0.390 212 237 230
-45.9592 18.3258 92.9002 -0.396 -0.559 -0.728 196 227 230
-41.0293 9.8521 74.9948 -0.434 -0.043 -0.900 201 230 228
-40.8917 9.8083 74.9361 -0.430 -0.035 -0.902 184 210 208
-39.3829 15.5668 88.5790 -0.607 -0.617 -0.501 124 144 142
-38.6952 15.1717 87.8830 -0.709 -0.132 -0.693 191 215 213
-38.5310 15.1046 87.7794 -0.203 0.093 -0.975 213 237 237
-38.3721 15.0628 87.7319 -0.199 0.106 -0.974 200 226 226
-37.3901 14.6400 87.0618 -0.056 -0.936 -0.347 155 184 190
-37.0650 14.4971 86.8332 -0.556 -0.722 -0.412 168 198 209
-36.5583 14.1432 86.1767 -0.618 -0.626 -0.476 181 209 221
-35.5471 13.3063 84.5675 -0.931 -0.215 -0.295 180 213 222
-34.5235 13.4836 85.2840 -0.699 -0.308 -0.645 181 202 207
-34.3654 13.4043 85.1504 -0.699 -0.308 -0.645 182 201 208
-34.2085 13.3340 85.0372 -0.622 -0.385 -0.682 182 201 207
-34.0564 13.3148 85.0394 -0.382 -0.543 -0.748 143 162 165
-33.9023 13.2732 84.9908 -0.382 -0.543 -0.748 137 155 154
-33.7500 13.2529 84.9906 -0.494 -0.588 -0.641 136 154 154
-31.8937 12.2593 83.2791 0.244 -0.678 -0.694 146 165 179
-29.1976 11.4370 82.2146 -0.940 -0.246 -0.235 169 190 195
-24.6826 10.7269 81.9589 0.332 -0.557 -0.761 200 225 229
-21.8034 9.1134 79.1385 0.757 -0.438 -0.484 179 203 214
-21.6237 9.2030 79.3981 0.749 -0.450 -0.487 179 204 211
-21.2756 9.3318 79.7987 0.739 -0.420 -0.527 201 225 235
-17.3754 7.9934 77.9178 -0.805 0.366 -0.467 200 221 222
-17.1710 7.7430 77.4067 -0.846 0.323 -0.424 200 222 220
-15.8376 7.5602 77.3929 -0.276 -0.943 -0.183 181 200 198
-14.5756 7.5304 77.7076 0.415 -0.441 -0.796 201 220 218
-14.4249 7.5114 77.7098 -0.398 -0.332 -0.855 189 208 206
-14.2854 7.4713 77.6604 -0.398 -0.332 -0.855 171 190 188
-11.3048 6.2581 75.7873 -0.613 -0.758 -0.223 156 175 173
-10.9355 6.3247 76.0517 -0.375 0.074 -0.924 158 174 173
-10.7847 6.3070 76.0570 -0.477 -0.081 -0.875 160 174 174
-10.6030 6.3340 76.1739 -0.850 -0.140 -0.508 158 172 172
-10.4840 6.2697 76.0629 -0.910 -0.068 -0.409 135 149 149
-8.7313 5.5358 74.9143 0.641 -0.477 -0.601 74 84 80
-8.5605 5.5445 74.9863 0.343 -0.826 -0.447 66 77 73
-8.4048 5.5335 75.0083 -0.091 -0.945 -0.314 58 69 65
-8.2837 5.4784 74.9189 -0.510 -0.853 -0.110 59 70 66
-7.2204 5.3626 74.9764 -0.272 -0.053 -0.961 84 93 88
-7.0613 5.3540 75.0049 -0.392 -0.019 -0.920 88 97 92
-6.0820 5.1331 74.7965 0.311 -0.112 -0.944 94 97 90
-5.4391 5.1000 74.9159 -0.141 0.082 -0.987 101 103 98
-4.4483 5.0708 75.1495 0.175 0.103 -0.979 105 111 107
-3.6547 4.8285 74.8357 -0.878 -0.020 -0.478 52 52 54
-3.5801 4.7297 74.6322 -0.623 -0.573 -0.532 33 32 37
-3.4606 4.6774 74.5486 -0.623 -0.573 -0.532 37 37 39
-3.3553 4.6111 74.4288 -0.491 -0.660 -0.568 41 41 43
-1.4043 4.6572 75.1266 -0.409 -0.634 -0.656 81 81 83
-1.2852 4.6046 75.0421 -0.742 -0.444 -0.502 63 63 65
-1.1484 4.5686 75.0013 -0.588 -0.461 -0.664 61 61 63
-0.9987 4.5447 74.9919 -0.471 -0.560 -0.681 57 57 59
-0.8654 4.5056 74.9430 0.066 0.108 -0.992 57 57 59
-0.6367 4.5539 75.1229 0.295 -0.556 -0.777 57 58 60
-0.2062 4.4637 75.0471 -0.242 -0.279 -0.929 120 121 123
-0.0151 4.4762 75.1336 -0.298 -0.144 -0.944 130 131 133
0.1072 4.4271 75.0584 0.007 -0.743 -0.669 106 107 111
0.2377 4.3855 75.0027 -0.199 -0.387 -0.900 107 108 112
0.3721 4.3474 74.9562 -0.071 -0.500 -0.863 108 109 111
0.5262 4.3266 74.9556 -0.071 -0.500 -0.863 100 102 103
0.6684 4.2955 74.9273 -0.401 -0.654 -0.642 85 85 84
0.9257 4.2098 74.8094 -0.529 -0.052 -0.847 83 83 81
1.0458 4.1600 74.7317 -0.522 -0.055 -0.851 90 90 88
1.1755 4.1185 74.6760 -0.061 -0.057 -0.997 95 95 93
2.4165 3.9566 74.6821 0.055 -0.969 -0.239 118 118 118
3.2939 4.2239 75.5603 0.770 -0.419 -0.482 140 141 133
3.7049 4.2582 75.7635 0.745 -0.422 -0.516 139 140 135
3.8625 4.2369 75.7626 0.374 -0.756 -0.537 137 138 132
3.9891 4.0472 75.3667 0.282 -0.148 -0.948 135 136 130
4.3128 3.8702 75.0596 -0.436 -0.062 -0.898 132 131 127
5.3174 3.7898 75.1804 -0.460 -0.326 -0.826 120 119 114
5.4473 3.7481 75.1245 -0.460 -0.326 -0.826 124 123 118
7.3255 3.4790 75.0784 -0.328 -0.757 -0.565 114 116 111
7.5919 3.4011 74.9808 0.288 -0.837 -0.466 119 121 116
7.8150 3.4239 75.1007 0.246 -0.829 -0.502 126 128 123
8.1224 3.5036 75.3766 0.098 -0.187 -0.978 103 105 100
8.3046 3.4974 75.4176 0.113 -0.199 -0.974 99 100 95
8.9528 3.5452 75.7238 0.330 -0.849 -0.412 111 113 108
9.2242 3.5970 75.9248 0.649 -0.598 -0.470 135 137 132
9.4001 3.4565 75.6565 -0.536 -0.428 -0.727 133 138 132
9.8914 3.5235 75.9591 0.604 0.013 -0.797 126 131 125
10.3190 3.5469 76.1424 0.379 0.131 -0.916 126 131 125
14.3395 2.8360 75.7348 0.347 -0.327 -0.879 40 44 43
14.5467 2.8383 75.8031 0.049 -0.080 -0.996 38 42 41
16.4497 2.7537 76.1869 0.080 -0.155 -0.985 116 122 110
16.6450 2.7469 76.2307 -0.264 0.116 -0.957 120 126 114
18.9433 2.5167 76.4011 0.177 -0.593 -0.786 120 125 121
20.2092 2.3994 76.5166 0.066 -0.998 0.022 124 141 136
23.3101 2.5212 77.7367 0.227 -0.959 -0.167 119 140 138
25.0776 2.6089 78.4739 0.284 -0.495 -0.821 174 193 193
25.2863 2.5999 78.5167 0.280 -0.632 -0.723 105 124 124
25.4996 2.5929 78.5654 0.137 -0.724 -0.676 81 98 99
25.6652 2.5640 78.5495 -0.212 -0.691 -0.691 162 177 179
25.9018 2.5672 78.6286 -0.134 -0.748 -0.650 141 156 158
26.0610 2.5353 78.6039 -0.185 -0.742 -0.645 183 198 202
26.2463 2.5150 78.6137 -0.073 -0.722 -0.688 191 208 214
28.7055 2.4668 79.2497 -0.025 -0.869 -0.494 131 149 149
31.3518 2.4696 80.0593 0.235 -0.683 -0.691 130 154 157
31.6025 2.4725 80.1418 0.235 -0.683 -0.691 107 128 130
32.5736 2.3693 80.2004 0.039 -0.746 -0.665 82 107 106
34.3873 2.3983 80.8173 0.135 -0.715 -0.686 129 157 166
-51.8158 20.8181 96.3921 -0.225 -0.588 -0.777 91 115 118
-51.0614 20.5151 95.9289 0.004 -0.593 -0.805 99 115 135
-50.9011 20.4994 95.9413 0.004 -0.593 -0.805 208 220 231
-46.7449 18.5861 92.8338 -0.356 -0.849 -0.390 243 251 250
-46.4080 18.4969 92.7322 -0.352 -0.850 -0.391 205 230 224
-45.9145 18.3940 92.6464 -0.402 -0.640 -0.655 195 226 229
-41.0298 10.0142 75.0237 -0.477 0.083 -0.875 189 218 214
-40.8792 9.9279 74.8723 -0.307 -0.039 -0.951 177 203 198
-39.1838 15.5585 88.2132 -0.525 -0.484 -0.701 99 119 121
-39.0206 15.5008 88.1309 -0.525 -0.484 -0.701 96 116 121
-38.6811 15.3182 87.8171 -0.686 -0.106 -0.720 195 218 222
-38.5369 15.3514 87.9361 0.496 0.057 -0.866 205 228 232
-38.3848 15.3466 87.9710 0.502 0.075 -0.861 194 219 223
-38.2060 15.2042 87.7004 -0.149 0.311 -0.939 192 220 223
-37.5216 14.7586 86.8912 -0.270 -0.905 -0.329 186 214 217
-37.3658 14.7272 86.8668 -0.268 -0.908 -0.322 162 191 197
-37.2085 14.6862 86.8207 -0.345 -0.881 -0.325 170 199 207
-37.0417 14.5876 86.6462 -0.533 -0.788 -0.308 178 206 217
-36.8754 14.4886 86.4707 -0.560 -0.770 -0.307 184 212 224
-36.5404 14.2636 86.0590 -0.543 -0.594 -0.593 186 214 225
-34.5100 13.6370 85.2428 -0.746 -0.246 -0.619 192 212 219
-34.3508 13.5470 85.0857 -0.726 -0.259 -0.637 183 202 208
-34.1940 13.4771 84.9737 -0.420 -0.486 -0.766 197 216 221
-34.0413 13.4519 84.9623 -0.402 -0.527 -0.749 145 165 167
-33.8871 13.4086 84.9101 -0.402 -0.527 -0.749 142 160 159
-33.7339 13.3761 84.8823 -0.476 -0.538 -0.695 142 160 160
-33.5942 13.5252 85.2639 -0.528 -0.840 -0.122 140 158 158
-33.4250 13.2774 84.7503 -0.238 -0.958 0.158 135 153 153
-29.6322 11.6225 82.1222 0.015 -1.000 0.021 163 186 193
-29.4817 11.6259 82.1753 0.015 -1.000 0.021 166 187 192
-29.3326 11.5909 82.1405 0.015 -1.000 0.026 167 188 193
-29.1841 11.5439 82.0781 -0.939 -0.253 -0.235 172 193 198
-24.6756 10.8175 81.7812 0.358 -0.544 -0.759 201 226 230
-24.3297 10.1959 80.4689 -0.246 -0.752 -0.612 187 212 216
-14.6982 7.4014 77.0033 0.241 -0.967 0.078 184 202 200
-14.2322 7.6727 77.7618 0.299 -0.586 -0.753 164 182 180
-13.4911 6.4410 75.1784 -0.286 -0.850 -0.442 151 168 168
-10.9161 6.4602 75.9979 -0.134 -0.565 -0.814 152 168 166
-10.7618 6.4476 76.0157 -0.141 -0.570 -0.809 158 171 168
-10.5757 6.4810 76.1480 -0.835 -0.226 -0.502 160 172 169
-10.4683 6.3996 75.9949 -0.853 -0.151 -0.499 122 133 130
-9.0754 5.8370 75.1326 -0.507 0.051 -0.860 89 85 88
-8.9218 5.8233 75.1476 -0.239 0.148 -0.960 83 81 84
-8.7556 5.8260 75.2039 -0.071 0.110 -0.991 87 86 88
-8.5150 5.7116 75.0156 0.321 -0.645 -0.694 96 107 101
-8.3846 5.6679 74.9554 0.159 -0.769 -0.619 99 110 104
-8.2730 5.6006 74.8357 -0.103 -0.940 -0.324 96 106 101
-7.1882 5.5113 74.9590 -0.272 -0.053 -0.961 96 102 98
-7.0421 5.4870 74.9476 -0.287 -0.027 -0.958 93 99 95
-6.9055 5.4514 74.9077 -0.287 -0.027 -0.958 95 101 97
-5.5989 5.4106 75.2085 0.450 0.102 -0.887 91 96 90
-5.4074 5.2468 74.8928 0.291 -0.093 -0.952 83 87 84
-1.5804 4.7711 74.9618 0.251 -0.738 -0.626 144 144 145
-1.3823 4.7932 75.0718 -0.194 -0.483 -0.854 112 111 113
-1.2741 4.7301 74.9608 -0.607 -0.418 -0.676 90 88 91
-1.1342 4.6970 74.9275 -0.585 -0.464 -0.665 102 101 103
-0.9826 4.6749 74.9227 -0.507 -0.497 -0.704 105 104 106
-0.8116 4.6706 74.9645 0.066 0.108 -0.992 103 102 105
-0.6216 4.6835 75.0510 0.271 -0.561 -0.782 101 101 103
-0.1594 4.6219 75.0499 -0.253 -0.252 -0.934 126 128 127
0.0223 4.6259 75.1138 -0.266 -0.110 -0.958 129 131 130
0.1476 4.5793 75.0455 -0.147 -0.022 -0.989 124 125 127
0.2773 4.5368 74.9876 -0.249 -0.032 -0.968 124 125 127
0.4015 4.4895 74.9174 -0.169 -0.119 -0.978 122 123 125
0.5559 4.4689 74.9170 -0.189 -0.137 -0.972 120 122 121
0.8583 4.4220 74.9012 -0.177 -0.527 -0.831 114 114 110
0.9526 4.3494 74.7641 -0.086 -0.788 -0.610 113 113 111
1.2398 4.2897 74.7145 -0.218 -0.748 -0.626 107 107 105
1.5706 4.1163 74.4191 -0.422 0.034 -0.906 103 103 101
1.7106 4.0839 74.3875 -0.422 0.026 -0.906 106 106 104
2.4574 4.1072 74.6656 0.675 -0.294 -0.676 123 123 122
2.9828 4.2394 75.1252 0.736 -0.300 -0.606 135 136 130
3.7891 4.4445 75.8354 0.750 -0.447 -0.488 139 140 134
3.9357 4.1245 75.1503 0.432 -0.164 -0.887 131 132 126
4.3825 4.0427 75.0987 -0.338 -0.652 -0.679 130 129 125
4.5201 4.0068 75.0582 -0.331 -0.648 -0.686 119 118 114
4.6666 3.9776 75.0359 -0.432 -0.712 -0.554 112 111 107
5.3981 3.9697 75.2383 -0.233 -0.405 -0.884 124 125 120
6.5952 3.7501 75.0985 -0.178 -0.737 -0.652 119 121 115
8.2845 3.6054 75.2777 -0.338 -0.488 -0.805 119 119 114
8.9088 3.6380 75.5402 0.322 -0.882 -0.344 120 123 120
9.2326 3.7255 75.8371 0.664 -0.608 -0.435 130 135 129
10.2892 3.9078 76.5707 -0.204 -0.699 -0.685 129 136 129
13.7674 3.3372 76.3184 -0.537 -0.367 -0.760 90 92 91
14.0446 3.0247 75.6900 0.359 -0.734 -0.577 90 94 93
15.0488 3.0177 75.9766 -0.487 -0.865 0.120 57 62 58
19.9636 3.0606 77.5550 -0.133 -0.783 -0.607 128 131 126
19.9648 2.7306 76.8033 0.409 -0.201 -0.890 112 125 118
20.4892 2.6688 76.8207 -0.381 -0.650 -0.657 123 135 129
25.3118 2.7457 78.4489 0.304 -0.486 -0.820 85 98 97
25.5070 2.7306 78.4731 0.006 -0.617 -0.787 69 80 80
25.6516 2.6921 78.4290 -0.321 -0.686 -0.653 105 119 117
25.8763 2.6901 78.4923 -0.134 -0.748 -0.650 109 124 122
26.0317 2.6565 78.4625 -0.155 -0.764 -0.627 130 145 144
28.1674 2.5742 78.9184 0.188 -0.827 -0.530 80 94 90
31.3207 2.5956 79.9171 0.206 -0.680 -0.703 126 148 152
31.6230 2.5200 79.8359 -0.397 -0.653 -0.645 116 134 134
32.5368 2.4940 80.0519 0.060 -0.704 -0.707 85 109 109
34.3550 2.5268 80.6745 0.140 -0.694 -0.706 109 137 147
-51.9722 21.0111 96.3492 -0.229 -0.584 -0.779 73 99 96
-51.8033 20.9780 96.3245 -0.229 -0.584 -0.779 91 118 114
-51.0364 20.6474 95.8043 0.146 -0.479 -0.866 118 128 158
-50.8793 20.6383 95.8307 0.092 -0.481 -0.872 227 232 243
-50.5330 20.5506 95.7352 -0.495 -0.445 -0.746 253 255 251
-46.5422 18.6398 92.5958 0.342 -0.653 -0.676 236 254 251
-46.0046 18.4150 92.2468 -0.331 -0.495 -0.803 197 225 228
-45.1928 18.2656 92.1508 0.658 -0.532 -0.533 160 189 193
-40.8729 10.0679 74.8529 -0.341 -0.031 -0.939 163 192 188
-39.1680 15.6978 88.1296 -0.538 -0.447 -0.714 111 132 143
-39.0043 15.6378 88.0426 -0.527 -0.483 -0.699 79 98 110
-38.6664 15.4624 87.7458 -0.706 -0.131 -0.696 200 220 230
-38.5237 15.5034 87.8815 0.256 -0.213 -0.943 200 222 231
-38.3687 15.4840 87.8838 0.235 -0.218 -0.947 201 226 230
-38.1971 15.3784 87.6958 -0.074 0.260 -0.963 200 226 227
-38.0474 15.3869 87.7598 -0.125 0.171 -0.977 198 226 229
-37.6521 14.8741 86.7151 -0.277 -0.892 -0.356 202 230 233
-37.4961 14.8397 86.6837 -0.282 -0.889 -0.361 186 214 218
-34.3339 13.6646 84.9647 -0.425 -0.044 -0.904 182 203 208
