ply
format ascii 1.0
element vertex 862
property float x
property float y
property float z
property float nx
property float ny
property float nz
property uchar diffuse_red
property uchar diffuse_green
property uchar diffuse_blue
end_header
-26.7694 21.8989 71.6947 -0.505 -0.635 -0.585 185 206 222
-26.6424 21.8480 71.6368 -0.500 -0.634 -0.589 185 206 222
-26.4945 21.8224 71.6574 -0.089 -0.639 -0.764 185 206 222
-26.1476 21.6299 71.3595 -0.193 -0.356 -0.914 186 206 217
-25.9961 21.6085 71.3931 -0.166 -0.395 -0.904 186 206 215
-25.9352 21.4815 71.0973 0.067 -0.355 -0.932 186 206 215
-25.7076 21.5478 71.4051 0.050 -0.274 -0.961 184 204 213
-24.6179 21.0418 70.7272 0.074 -0.552 -0.831 149 164 171
-24.4706 21.0145 70.7430 0.076 -0.538 -0.840 146 161 168
-24.3192 20.9912 70.7716 0.076 -0.538 -0.840 72 85 88
-22.8830 20.4946 70.3230 0.082 -0.437 -0.896 80 77 72
-22.4607 20.3887 70.2962 -0.215 -0.093 -0.972 73 70 65
-21.0602 19.7067 69.3422 -0.109 -0.340 -0.934 83 78 72
-20.4728 19.5868 69.3761 -0.318 0.075 -0.945 79 74 68
-20.3441 19.5413 69.3334 -0.318 0.082 -0.945 79 74 68
-19.1848 19.1341 68.9548 -0.371 -0.632 -0.681 78 76 64
-18.9312 19.0409 68.8612 -0.304 -0.524 -0.796 93 89 78
-18.8032 18.9953 68.8178 -0.225 -0.496 -0.839 93 89 78
-18.6577 18.9631 68.8196 -0.231 -0.512 -0.827 93 89 78
-18.4860 18.9504 68.8881 0.023 -0.554 -0.832 92 88 77
-18.3789 18.8890 68.7908 -0.217 -0.438 -0.872 94 90 79
-18.2453 18.8475 68.7614 -0.473 -0.494 -0.730 98 94 85
-17.8492 18.7197 68.6616 -0.428 -0.489 -0.760 93 90 85
-17.7254 18.6710 68.6076 -0.393 -0.546 -0.740 79 76 71
-17.5936 18.6282 68.5738 -0.319 -0.526 -0.788 71 68 63
-17.2030 18.4966 68.4609 -0.248 -0.497 -0.831 80 77 72
-16.8169 18.3620 68.3374 -0.508 -0.337 -0.793 97 96 94
-15.4744 17.9512 68.0576 -0.495 -0.181 -0.850 67 66 64
-14.8539 17.7133 67.8031 -0.510 -0.218 -0.832 64 59 54
-14.5874 17.6299 67.7427 -0.310 -0.503 -0.807 88 83 77
-13.8408 17.4694 67.7647 -0.445 -0.462 -0.767 109 106 101
-13.7102 17.4257 67.7278 -0.460 -0.433 -0.775 111 110 108
-13.5755 17.3845 67.6997 -0.434 -0.439 -0.787 105 104 102
-13.4522 17.3366 67.6474 -0.439 -0.430 -0.789 98 97 95
-13.3074 17.3013 67.6409 -0.381 -0.456 -0.804 101 100 98
-13.1943 17.2475 67.5671 -0.364 -0.451 -0.815 108 107 105
-9.1741 16.2096 67.2322 -0.353 -0.350 -0.868 64 61 54
-4.5352 15.2803 67.5470 -0.350 -0.248 -0.903 102 99 84
-4.4089 15.2326 67.4969 -0.334 -0.194 -0.922 97 91 76
-3.9277 15.1308 67.5154 -0.122 -0.460 -0.880 90 84 68
-3.2288 14.8219 67.1215 -0.434 -0.215 -0.875 66 65 60
-0.8848 14.3683 67.3223 0.140 -0.378 -0.915 83 79 76
-0.7415 14.3263 67.2974 -0.278 -0.021 -0.960 77 73 70
-0.6307 14.2728 67.2231 -0.609 -0.235 -0.758 77 73 70
3.0949 13.6114 67.6979 -0.593 -0.221 -0.775 62 63 54
3.2097 13.5588 67.6283 -0.604 -0.187 -0.775 62 63 54
8.8567 12.5122 68.2327 -0.577 -0.106 -0.810 82 85 66
8.8960 12.4394 68.0657 -0.624 -0.152 -0.767 82 85 66
17.8787 11.2723 70.3277 -0.034 -0.782 -0.622 99 108 105
18.6946 10.7327 69.4001 -0.528 -0.437 -0.729 89 100 96
24.9624 10.2565 71.8620 -0.738 -0.198 -0.645 77 88 84
-44.9647 29.9702 81.5867 -0.551 -0.417 -0.723 31 42 31
-44.8223 29.9162 81.5299 -0.583 -0.425 -0.693 62 75 58
-44.6802 29.8563 81.4576 -0.530 -0.413 -0.740 70 83 63
-43.9059 30.5864 83.8101 -0.888 -0.071 -0.454 44 63 34
-43.6188 30.3988 83.4910 -0.759 -0.296 -0.580 38 60 30
-43.3267 30.2925 83.3859 0.389 -0.137 -0.911 51 71 57
-43.1768 30.2838 83.4513 0.389 -0.137 -0.911 105 124 116
-43.0273 30.2674 83.4963 0.382 -0.096 -0.919 136 152 151
-42.8897 30.1256 83.2086 -0.672 -0.001 -0.741 157 171 168
-41.4669 28.3539 79.4381 0.277 -0.654 -0.704 138 149 133
-39.7567 27.9250 79.3269 0.331 -0.427 -0.841 58 58 58
-39.3414 27.7537 79.1255 0.193 0.022 -0.981 81 83 82
-39.1962 27.7268 79.1408 0.193 0.026 -0.981 74 74 77
-39.0092 27.2400 77.9851 -0.245 -0.522 -0.817 70 68 81
-38.8749 27.1760 77.8974 -0.031 -0.596 -0.803 67 67 85
-38.7298 27.1553 77.9287 -0.045 -0.587 -0.809 61 69 82
-38.5863 27.1275 77.9409 -0.045 -0.587 -0.809 188 203 213
-38.4427 27.0998 77.9531 -0.045 -0.587 -0.809 182 204 212
-38.2989 27.0720 77.9653 -0.045 -0.587 -0.809 160 187 194
-38.1571 27.0359 77.9545 -0.168 -0.651 -0.740 174 203 209
-37.6828 27.0965 78.3905 -0.517 -0.093 -0.851 176 203 212
-37.5475 27.0341 78.3076 -0.504 -0.089 -0.859 178 205 214
-37.4218 26.9400 78.1369 -0.591 -0.003 -0.806 178 205 214
-37.2856 26.8822 78.0665 -0.652 -0.007 -0.759 178 205 214
-37.1344 26.8736 78.1329 -0.806 -0.220 -0.549 179 205 217
-37.0074 26.7866 77.9813 -0.806 -0.220 -0.549 180 206 221
-36.8839 26.6901 77.8029 -0.754 -0.230 -0.616 180 206 223
-36.7602 26.5957 77.6301 -0.677 -0.221 -0.702 180 206 224
-36.6283 26.5279 77.5313 -0.653 -0.270 -0.708 180 206 224
-36.4963 26.4611 77.4351 -0.653 -0.270 -0.708 180 206 224
-27.8752 22.5069 72.2162 -0.700 -0.472 -0.536 192 212 219
-27.4955 22.3483 72.0268 -0.655 -0.524 -0.544 181 201 208
-27.3660 22.2995 71.9759 -0.520 -0.600 -0.607 182 202 210
-27.2459 22.2389 71.8889 -0.518 -0.623 -0.586 187 209 219
-27.1487 22.1494 71.7133 -0.434 -0.295 -0.851 190 213 223
-27.0215 22.0986 71.6557 -0.359 -0.297 -0.885 190 213 223
-26.8858 22.0584 71.6309 -0.228 -0.241 -0.943 190 212 223
-26.4452 21.9786 71.6821 -0.089 -0.624 -0.776 190 212 223
-26.3268 21.9171 71.5918 -0.619 -0.341 -0.708 190 212 222
-24.7482 21.1866 70.6195 0.074 -0.552 -0.831 177 192 199
-24.5972 21.1636 70.6482 0.074 -0.552 -0.831 149 164 171
-24.4470 21.1395 70.6737 0.082 -0.549 -0.832 147 162 169
-24.2952 21.1168 70.7037 0.082 -0.549 -0.832 72 85 88
-21.1576 19.8837 69.3400 -0.549 -0.434 -0.714 87 82 76
-20.5267 19.8011 69.4956 -0.540 -0.271 -0.797 83 78 72
-20.4054 19.7490 69.4311 -0.540 -0.271 -0.797 83 78 72
-20.3038 19.6806 69.3130 -0.413 -0.202 -0.888 83 78 72
-20.1687 19.6403 69.2876 -0.394 -0.174 -0.902 83 79 71
-19.4467 19.3275 68.8982 -0.306 -0.601 -0.738 63 61 49
-18.8958 19.1754 68.8262 -0.134 -0.558 -0.819 93 89 78
-18.7514 19.1424 68.8251 -0.134 -0.558 -0.819 93 89 78
-18.4596 19.0782 68.8296 0.015 -0.559 -0.829 100 96 85
-18.3484 19.0198 68.7429 -0.458 -0.498 -0.736 106 102 91
-17.5723 18.7523 68.5031 -0.335 -0.476 -0.813 75 72 67
-17.4364 18.7125 68.4794 -0.306 -0.478 -0.823 83 80 75
-17.3017 18.6719 68.4529 -0.306 -0.478 -0.823 113 110 105
-17.1864 18.6174 68.3788 -0.269 -0.205 -0.941 77 74 69
-17.0363 18.5876 68.3895 -0.365 -0.420 -0.831 53 50 45
-16.0290 18.3452 68.3508 -0.487 -0.162 -0.858 94 92 93
-15.6700 18.1919 68.1630 -0.548 -0.099 -0.831 87 86 84
-14.6892 17.8024 67.7260 -0.536 -0.218 -0.816 70 65 59
-14.5717 17.7509 67.6613 -0.310 -0.503 -0.807 82 77 71
-13.8165 17.5961 67.7020 -0.450 -0.448 -0.773 109 106 101
-13.6904 17.5498 67.6555 -0.450 -0.448 -0.773 116 115 113
-13.0442 17.3279 67.4580 -0.539 -0.385 -0.750 114 113 111
-12.9282 17.2760 67.3912 -0.249 -0.623 -0.741 112 111 109
-6.9356 15.7890 67.0429 -0.274 -0.406 -0.872 43 39 27
-6.7932 15.7495 67.0239 -0.279 -0.396 -0.875 62 58 46
-5.9592 15.7066 67.4018 -0.354 -0.315 -0.880 62 58 46
-5.9323 15.5144 66.9180 -0.311 -0.636 -0.706 65 61 50
-5.7048 15.4102 66.7808 -0.130 -0.448 -0.884 79 75 63
-4.5581 15.3912 67.4044 -0.556 -0.141 -0.819 98 92 77
-3.0405 14.8233 66.8188 -0.603 -0.374 -0.705 60 59 54
-2.7562 14.8369 67.0210 -0.531 -0.129 -0.837 59 59 51
-2.6385 14.7862 66.9583 -0.531 -0.197 -0.824 72 69 59
-0.8943 14.4879 67.2065 0.286 -0.366 -0.886 83 79 76
-0.7276 14.4544 67.2174 -0.445 -0.407 -0.798 65 61 58
2.8430 13.8362 67.7060 -0.650 -0.128 -0.749 51 52 44
2.9665 13.7862 67.6486 -0.655 -0.123 -0.746 62 63 55
3.1258 13.7476 67.6416 -0.598 -0.216 -0.772 62 63 55
3.2192 13.6882 67.5421 -0.385 0.011 -0.923 62 63 55
3.3319 13.6350 67.4699 -0.652 0.029 -0.757 71 72 64
3.4329 13.4904 67.1534 -0.710 0.003 -0.704 80 81 75
5.1528 13.3127 67.7010 -0.086 -0.103 -0.991 64 66 55
5.8538 13.1719 67.7465 -0.354 -0.610 -0.709 63 65 52
8.6491 12.7560 68.3059 0.048 -0.215 -0.976 95 96 80
8.8751 12.6482 68.1581 -0.298 -0.469 -0.831 87 88 70
9.0486 12.6102 68.1612 -0.527 -0.128 -0.840 83 84 68
9.5002 12.3132 67.6544 -0.008 -0.285 -0.958 77 74 65
11.4666 12.2292 68.5900 0.430 -0.269 -0.862 78 78 68
11.6813 12.1996 68.6391 0.390 -0.447 -0.805 78 78 68
11.6737 11.7940 67.5803 0.242 -0.033 -0.970 75 76 68
11.9006 11.7676 67.6448 0.247 -0.042 -0.968 74 76 66
18.4946 11.1429 69.8911 -0.571 -0.299 -0.765 92 101 98
18.4925 11.0643 69.6857 -0.560 -0.249 -0.791 93 102 97
-49.9879 34.7514 90.5879 -0.953 -0.230 -0.200 77 88 84
-49.3479 34.3807 90.0021 -0.001 -0.681 -0.733 73 84 80
-45.3633 30.2415 81.6198 -0.366 -0.541 -0.757 46 56 50
-45.0780 30.1487 81.5461 -0.445 -0.547 -0.709 22 33 24
-44.9355 30.0957 81.4921 -0.551 -0.417 -0.723 30 42 30
-44.7933 30.0396 81.4299 -0.583 -0.425 -0.693 56 69 52
-44.6514 29.9764 81.3492 -0.583 -0.425 -0.693 64 77 56
-44.5090 29.9274 81.3052 -0.446 -0.491 -0.748 47 61 38
-43.5875 30.5539 83.4623 -0.754 -0.318 -0.575 39 59 30
-43.2962 30.4357 83.3261 -0.607 -0.552 -0.572 50 68 57
-43.1515 30.3687 83.2373 -0.607 -0.552 -0.572 114 131 127
-43.0069 30.3018 83.1486 -0.607 -0.552 -0.572 128 146 144
-42.8613 30.2471 83.0918 -0.602 -0.553 -0.576 162 176 174
-41.8744 28.5154 79.1888 0.174 -0.013 -0.985 145 153 140
-40.8555 28.4290 79.5588 0.187 -0.636 -0.748 59 58 56
-39.5232 28.3115 80.0310 -0.264 0.620 -0.739 58 60 59
-39.3937 28.2065 79.8351 -0.246 0.641 -0.727 65 70 66
-39.1140 27.4434 78.0248 -0.707 -0.225 -0.671 67 65 74
-38.9829 27.3647 77.8975 -0.245 -0.522 -0.817 67 65 79
-38.8444 27.3180 77.8574 -0.242 -0.550 -0.799 68 68 86
-38.7039 27.2787 77.8377 -0.045 -0.587 -0.809 61 69 82
-38.5605 27.2511 77.8499 -0.045 -0.587 -0.809 182 196 206
-38.4169 27.2234 77.8620 -0.045 -0.587 -0.809 186 209 217
-38.2786 27.1750 77.8174 -0.218 -0.525 -0.822 156 182 189
-36.9902 26.8849 77.8178 -0.672 -0.146 -0.726 181 208 218
-36.8541 26.8284 77.7508 -0.731 -0.219 -0.646 180 206 217
-29.9228 23.9536 74.3549 0.353 -0.267 -0.897 196 218 229
-29.7618 23.9478 74.4335 -0.737 -0.362 -0.570 197 219 230
-29.7063 23.7755 74.0204 -0.770 -0.269 -0.578 196 218 229
-27.4845 22.4564 71.9035 -0.584 -0.276 -0.764 195 215 222
-27.3612 22.3998 71.8289 -0.574 -0.289 -0.766 195 215 222
-27.1175 22.2836 71.6705 -0.422 -0.272 -0.865 208 231 235
-26.9864 22.2377 71.6282 -0.251 -0.248 -0.936 207 231 235
-26.8593 22.1867 71.5702 -0.249 -0.281 -0.927 208 231 235
-26.7268 22.1425 71.5333 -0.316 -0.313 -0.896 198 221 225
-26.5982 22.0936 71.4818 -0.330 -0.299 -0.895 194 217 221
-26.4333 22.0892 71.5664 -0.535 -0.440 -0.721 194 218 222
-21.1194 20.0215 69.3150 -0.262 -0.363 -0.894 89 84 78
-20.3845 20.0277 69.7593 -0.624 -0.183 -0.760 84 79 73
-19.4353 19.4430 68.8003 -0.198 -0.483 -0.853 68 66 54
-19.1288 19.3918 68.8464 -0.493 -0.364 -0.790 69 67 55
-18.8509 19.3175 68.8161 -0.152 -0.527 -0.836 105 101 90
-18.7077 19.2835 68.8115 -0.152 -0.527 -0.836 111 107 96
-17.9851 18.9757 68.4365 -0.266 -0.551 -0.791 116 113 106
-17.5595 18.8700 68.4113 -0.332 -0.474 -0.815 71 68 63
-17.4280 18.8272 68.3772 -0.250 -0.247 -0.936 84 81 76
-17.2882 18.7903 68.3630 -0.275 -0.196 -0.941 99 96 91
-17.1565 18.7475 68.3293 -0.290 -0.184 -0.939 95 92 87
-16.7625 18.6185 68.2251 -0.504 -0.347 -0.791 88 87 85
-16.0133 18.4661 68.2674 -0.388 -0.322 -0.864 88 86 87
-15.7547 18.3766 68.1868 -0.564 -0.132 -0.815 70 69 67
-15.0486 18.0641 67.7901 -0.449 -0.512 -0.732 57 53 50
-14.8525 18.0624 67.8999 -0.499 -0.570 -0.653 57 53 49
-14.8081 17.9642 67.6716 -0.532 -0.161 -0.831 64 59 54
-14.6754 17.9222 67.6405 -0.515 -0.193 -0.835 70 65 59
-14.5160 17.8969 67.6678 -0.359 -0.428 -0.829 77 72 66
-13.8055 17.7148 67.6108 -0.403 -0.405 -0.821 112 109 104
-13.6775 17.6696 67.5685 -0.408 -0.393 -0.824 124 123 121
-13.2730 17.5465 67.4858 -0.414 -0.401 -0.817 93 92 90
-13.1154 17.5187 67.5058 -0.511 -0.274 -0.815 83 82 80
-13.0284 17.4497 67.3780 -0.537 -0.377 -0.755 81 80 78
-12.9219 17.3922 67.2914 -0.249 -0.623 -0.741 94 93 91
-12.7814 17.3545 67.2758 -0.249 -0.623 -0.741 101 99 100
-9.1355 16.4606 67.0882 -0.376 -0.236 -0.896 77 74 65
-8.1453 16.1869 66.9573 -0.337 -0.325 -0.884 65 55 46
-8.0124 16.1436 66.9226 -0.337 -0.325 -0.884 69 56 48
-7.8236 16.1265 66.9884 -0.129 -0.230 -0.965 87 74 66
-2.9182 14.9916 66.9112 -0.542 -0.486 -0.686 55 54 49
-2.7292 14.9685 66.9618 -0.564 -0.177 -0.806 54 51 46
-2.6160 14.9160 66.8919 -0.583 -0.210 -0.785 65 62 53
-0.8768 14.6171 67.1320 0.286 -0.357 -0.889 82 78 75
-0.7295 14.5767 67.1135 -0.394 -0.462 -0.795 57 53 50
3.2634 13.8285 67.5047 -0.391 0.001 -0.920 63 64 56
8.9237 12.7920 68.1218 0.135 -0.777 -0.615 83 84 66
8.9791 12.7229 67.9754 -0.546 -0.149 -0.824 84 82 67
9.2282 12.7049 68.0740 -0.728 0.023 -0.685 84 82 69
11.3145 12.1619 67.8852 -0.237 -0.773 -0.588 78 78 68
11.8762 11.9741 67.7268 0.221 -0.277 -0.935 76 76 66
12.1010 11.9471 67.7880 0.221 -0.277 -0.935 75 75 63
12.2801 11.9092 67.7941 0.289 -0.249 -0.924 73 75 64
12.5225 11.8859 67.8752 0.287 -0.307 -0.907 77 79 68
14.0754 11.6833 68.2561 0.126 0.031 -0.991 79 84 78
26.6207 10.7576 73.1704 0.541 -0.510 -0.669 72 83 79
27.4887 10.8280 73.8580 0.587 -0.434 -0.684 73 82 79
-50.3182 33.0105 85.4438 -0.311 0.183 -0.933 69 80 76
-49.1520 34.3862 89.6570 -0.141 -0.521 -0.842 72 83 79
-45.3337 30.3840 81.5693 -0.475 -0.521 -0.709 42 51 45
-45.1913 30.3257 81.5017 -0.401 -0.506 -0.764 33 42 37
-45.0489 30.2696 81.4398 -0.440 -0.556 -0.705 25 35 28
-44.9065 30.2170 81.3866 -0.526 -0.502 -0.687 30 40 30
-44.7644 30.1598 81.3217 -0.505 -0.524 -0.686 51 63 47
-44.6223 30.1038 81.2598 -0.505 -0.524 -0.686 54 67 47
-44.4809 30.0360 81.1674 -0.441 -0.623 -0.646 47 61 38
-43.8470 30.8417 83.6064 -0.844 -0.067 -0.532 38 54 27
-43.6997 30.8010 83.5869 -0.779 0.222 -0.586 36 55 25
-42.9742 30.4701 83.1552 -0.541 -0.596 -0.593 129 147 146
-42.8310 30.3899 83.0317 -0.619 -0.535 -0.574 156 170 168
-41.8443 28.6591 79.1498 0.128 -0.280 -0.952 146 152 140
-40.6819 28.5393 79.5138 0.191 -0.629 -0.754 59 58 56
-39.4670 28.5746 80.3068 -0.240 0.648 -0.723 51 53 50
-39.2599 28.1303 79.2836 0.009 0.013 -1.000 65 67 66
-38.6785 27.4004 77.7422 -0.022 -0.600 -0.799 53 61 74
-38.5348 27.3742 77.7580 -0.022 -0.600 -0.799 164 178 189
-38.3909 27.3480 77.7737 -0.022 -0.600 -0.799 185 207 215
-38.2449 27.3288 77.8088 -0.179 -0.542 -0.821 158 184 191
-36.8270 26.9584 77.6759 -0.731 -0.219 -0.646 206 234 237
-36.6944 26.8915 77.5803 -0.727 -0.314 -0.610 206 234 237
-36.4346 26.7437 77.3504 -0.713 -0.279 -0.643 216 244 247
-29.8883 24.0965 74.3259 0.353 -0.267 -0.897 187 209 220
-29.6845 23.8978 73.9326 -0.748 -0.310 -0.587 187 209 220
-28.2819 23.5149 73.7585 -0.368 0.831 -0.417 195 218 226
-28.1694 23.4367 73.6223 -0.383 0.827 -0.411 197 220 228
-26.8316 22.3164 71.5141 -0.314 -0.313 -0.896 195 219 217
-26.7025 22.2681 71.4645 -0.318 -0.302 -0.899 197 222 220
-26.5804 22.2111 71.3885 -0.362 -0.258 -0.896 197 221 219
-26.4261 22.1940 71.4337 -0.549 -0.453 -0.702 198 222 220
-26.1734 22.0908 71.3143 -0.660 -0.410 -0.629 191 212 218
-21.2075 20.2071 69.3398 -0.711 -0.050 -0.701 85 82 75
-21.1258 20.1201 69.1633 -0.210 -0.387 -0.898 85 80 74
-19.9158 19.7572 68.9295 -0.394 0.343 -0.853 72 70 58
-19.7982 19.7030 68.8580 -0.303 0.162 -0.939 72 70 58
-19.4149 19.5656 68.7262 -0.198 -0.483 -0.853 68 66 54
-19.1071 19.5157 68.7758 -0.493 -0.364 -0.790 69 67 55
-18.9792 19.4699 68.7319 -0.483 -0.366 -0.795 87 83 72
-17.9570 19.1044 68.3827 -0.195 -0.345 -0.918 117 114 108
-17.8108 19.0725 68.3852 -0.216 -0.335 -0.917 102 99 94
-17.5312 18.9990 68.3579 -0.256 -0.268 -0.929 70 67 62
-17.3956 18.9592 68.3338 -0.250 -0.247 -0.936 84 81 76
-17.2571 18.9213 68.3165 -0.281 -0.201 -0.938 97 94 89
-17.1223 18.8807 68.2899 -0.288 -0.194 -0.938 96 93 88
-16.7375 18.7451 68.1636 -0.292 -0.298 -0.909 87 86 84
-16.1075 18.6448 68.2698 -0.360 -0.297 -0.885 89 87 88
-15.9837 18.5962 68.2164 -0.335 -0.298 -0.894 91 89 90
-15.0243 18.1905 67.7275 -0.438 -0.522 -0.732 63 59 56
-14.6206 17.9422 67.3223 -0.335 0.006 -0.942 77 72 66
-13.6567 17.7941 67.4986 -0.408 -0.393 -0.824 118 117 115
-13.2431 17.6765 67.4351 -0.417 -0.387 -0.822 85 84 82
-13.0098 17.5730 67.3038 -0.551 -0.350 -0.758 72 71 69
-12.9295 17.5002 67.1629 -0.236 -0.623 -0.746 87 86 84
-12.7694 17.4740 67.1882 -0.300 -0.486 -0.821 96 94 95
-11.2019 17.0685 67.0513 -0.031 -0.155 -0.987 92 91 89
-10.4926 17.1064 67.5590 -0.576 -0.212 -0.790 64 63 59
-8.2379 16.3661 66.9583 -0.202 -0.187 -0.961 51 42 33
-8.1058 16.3224 66.9222 -0.323 -0.119 -0.939 64 54 45
-7.2308 16.0981 66.8511 -0.128 -0.273 -0.954 85 77 67
-7.0832 16.0613 66.8418 -0.128 -0.273 -0.954 83 79 67
-6.9188 16.0321 66.8617 -0.233 -0.347 -0.909 56 52 40
-2.6550 15.0220 66.7287 -0.339 -0.361 -0.869 41 38 30
-0.7194 14.7032 67.0277 -0.365 -0.433 -0.824 59 55 52
-0.4325 14.6196 66.9787 -0.147 -0.054 -0.988 59 55 52
8.9223 13.0070 68.2394 -0.115 -0.892 -0.437 68 69 53
9.1178 12.9749 68.2698 -0.116 -0.894 -0.433 75 76 58
9.2628 12.9292 68.2360 -0.132 -0.877 -0.463 84 82 67
9.3995 12.7140 67.7615 -0.576 -0.081 -0.814 78 75 66
14.9081 11.8455 68.7125 -0.448 -0.154 -0.881 83 88 82
14.9977 11.7856 68.6103 -0.185 -0.312 -0.932 88 93 87
20.3341 11.1607 70.0883 0.212 -0.176 -0.961 82 92 83
27.2974 10.9451 73.5600 0.569 -0.475 -0.671 72 83 79
-50.2923 33.1914 85.4756 -0.318 0.192 -0.929 75 86 82
-49.5827 34.6674 89.6602 -0.381 -0.896 -0.226 53 64 60
-49.4276 34.6146 89.6140 -0.078 -0.739 -0.669 60 71 67
-49.2755 34.5947 89.6503 0.039 -0.705 -0.708 66 77 73
-49.1184 34.5201 89.5496 -0.129 -0.521 -0.844 63 74 70
-45.5882 30.7188 81.8477 -0.683 -0.076 -0.726 42 52 44
-45.4455 30.6488 81.7505 -0.629 -0.166 -0.759 42 52 44
-45.3041 30.5242 81.5130 -0.501 -0.484 -0.717 40 47 40
-45.1621 30.4499 81.4041 -0.401 -0.506 -0.764 30 40 32
-44.5937 30.2223 81.1481 -0.505 -0.524 -0.686 47 60 40
-44.4511 30.1796 81.1205 -0.447 -0.496 -0.745 49 63 40
-44.3093 30.1228 81.0566 -0.652 -0.368 -0.662 41 54 34
-44.1683 30.0523 80.9570 -0.652 -0.368 -0.662 40 51 34
-44.0259 30.0107 80.9323 -0.420 -0.610 -0.672 37 51 30
-43.5223 30.8973 83.4903 -0.810 0.125 -0.572 50 70 43
-43.3821 30.7662 83.2351 -0.754 -0.433 -0.495 61 80 60
-43.2355 30.7214 83.2046 -0.412 -0.506 -0.758 80 98 86
-42.9459 30.5907 83.0364 -0.407 -0.512 -0.757 138 154 153
-42.7998 30.5405 82.9918 -0.407 -0.512 -0.757 156 170 168
-41.8220 28.7458 78.9602 -0.081 -0.591 -0.803 145 153 140
-41.6688 28.7963 79.1774 0.224 -0.110 -0.968 146 152 142
-39.6623 28.3684 79.2338 0.231 -0.832 -0.504 52 52 52
-38.5088 27.4983 77.6692 0.304 -0.589 -0.749 162 177 188
-38.2189 27.4534 77.7208 -0.179 -0.542 -0.821 174 200 207
-38.0769 27.4186 77.7130 -0.179 -0.542 -0.821 198 227 233
-37.8544 27.6756 78.4985 -0.789 -0.277 -0.548 204 231 238
-37.0600 27.2407 77.8414 -0.674 -0.377 -0.635 204 231 237
-26.6741 22.3986 71.4107 -0.318 -0.302 -0.899 167 193 185
-26.5460 22.3491 71.3576 -0.376 -0.262 -0.889 171 196 189
-26.4058 22.3146 71.3497 -0.548 -0.438 -0.712 170 195 188
-22.4658 20.9656 70.1586 -0.559 -0.300 -0.773 76 73 68
-22.3355 20.9200 70.1168 -0.473 -0.378 -0.796 74 71 66
-21.9841 20.7467 69.8750 -0.593 -0.359 -0.721 79 76 69
-21.7217 20.6583 69.7992 -0.532 -0.375 -0.760 79 76 69
-21.0997 20.2471 69.1040 -0.204 -0.623 -0.755 78 73 67
-20.4994 20.6165 70.3939 -0.321 0.647 -0.692 78 73 67
-19.8550 19.9134 68.9642 -0.394 0.343 -0.853 65 63 51
-19.7568 19.8428 68.8399 -0.401 0.240 -0.884 65 63 51
-19.6131 19.8099 68.8384 -0.645 0.255 -0.720 65 63 51
-19.3608 19.7154 68.7411 -0.115 -0.279 -0.953 68 66 54
-19.0817 19.6425 68.7149 -0.483 -0.366 -0.795 69 67 55
-17.9216 19.2386 68.3470 -0.306 -0.333 -0.892 117 114 109
-17.7834 19.2008 68.3297 -0.212 -0.330 -0.920 102 99 94
-17.6373 19.1688 68.3315 -0.510 -0.330 -0.794 82 79 74
-17.5006 19.1297 68.3100 -0.182 -0.267 -0.946 70 67 62
-17.3663 19.0889 68.2825 -0.179 -0.263 -0.948 84 81 76
-17.2272 19.0515 68.2667 -0.179 -0.263 -0.948 98 95 90
-17.0896 19.0129 68.2471 -0.207 -0.272 -0.940 96 93 88
-16.9219 18.9959 68.2996 -0.153 -0.126 -0.980 82 79 75
-16.6850 18.8912 68.1677 -0.275 -0.323 -0.906 87 86 84
-15.9556 18.7254 68.1619 -0.379 -0.402 -0.834 95 93 94
-15.8245 18.6818 68.1258 -0.381 -0.390 -0.838 101 99 100
-15.1228 18.3653 67.7184 -0.254 -0.539 -0.803 74 73 71
-14.6133 18.0574 67.2228 -0.312 -0.036 -0.949 78 73 67
-14.2961 18.1319 67.5956 -0.397 -0.277 -0.875 81 76 70
-14.2077 18.0619 67.4673 -0.317 -0.474 -0.821 77 72 66
-14.0694 18.0233 67.4479 -0.298 -0.485 -0.822 73 68 62
-12.9496 17.6005 67.0085 -0.276 -0.686 -0.673 87 86 84
-8.8100 16.6357 66.9153 -0.363 -0.255 -0.896 45 40 34
-8.6576 16.6021 66.9168 -0.332 -0.342 -0.879 57 54 47
-8.5341 16.5543 66.8651 -0.207 -0.488 -0.848 56 53 46
-6.8843 16.1654 66.8168 -0.243 -0.343 -0.907 67 63 51
-6.1475 15.9793 66.7634 -0.337 -0.373 -0.864 63 59 47
-2.9009 15.2400 66.7348 -0.328 -0.374 -0.868 55 54 49
-2.7646 15.1966 66.7020 -0.328 -0.374 -0.868 48 47 41
-2.6247 15.1546 66.6748 -0.348 -0.368 -0.862 46 44 34
-1.4480 14.9342 66.7860 -0.242 -0.412 -0.879 76 73 64
-0.8646 14.8669 66.9485 0.165 -0.622 -0.766 67 63 60
-0.6766 14.8416 66.9917 -0.227 -0.275 -0.934 59 55 52
-0.5822 14.7819 66.8932 -0.477 -0.357 -0.803 58 54 51
-0.3681 14.7658 66.9749 -0.140 -0.081 -0.987 58 54 51
1.4397 14.3822 67.0307 -0.464 0.048 -0.885 71 70 66
2.3458 14.0516 66.7046 0.187 0.045 -0.981 73 74 66
5.2551 13.7268 67.5431 -0.303 -0.794 -0.528 67 69 58
5.5207 13.6317 67.4521 -0.191 -0.100 -0.977 75 77 66
5.6568 13.5851 67.4111 -0.179 -0.106 -0.978 76 78 67
13.1118 12.2919 68.3801 -0.393 -0.258 -0.883 62 64 53
13.2407 12.2412 68.3244 -0.412 -0.251 -0.876 66 67 59
13.3196 12.1788 68.2099 -0.401 -0.261 -0.878 67 70 61
-53.4835 37.9297 95.2763 -0.344 0.687 -0.640 70 85 82
-53.3037 37.7858 95.0126 -0.351 0.686 -0.637 67 82 79
-50.4000 35.7039 91.3663 -0.945 -0.268 -0.187 71 82 78
-49.6978 34.7923 89.4455 -0.945 -0.239 -0.221 55 66 62
-49.3923 34.7311 89.4638 0.030 -0.677 -0.735 61 72 68
-45.5585 30.8647 81.8044 -0.683 -0.076 -0.726 42 52 44
-45.4167 30.7377 81.5619 -0.594 -0.264 -0.760 42 52 44
-45.2744 30.6688 81.4675 -0.609 -0.300 -0.734 42 49 41
-44.5643 30.3583 81.0817 -0.440 -0.502 -0.745 48 61 41
-44.2804 30.2495 80.9663 -0.656 -0.373 -0.656 44 59 38
-44.1397 30.1762 80.8599 -0.652 -0.368 -0.662 44 57 39
-43.2055 30.8588 83.1299 -0.321 -0.147 -0.936 61 79 64
-43.0601 30.7999 83.0628 -0.347 -0.196 -0.917 89 105 97
-42.9148 30.7404 82.9939 -0.338 -0.188 -0.922 149 165 163
-42.7692 30.6859 82.9381 -0.388 -0.236 -0.891 161 174 171
-41.7928 28.8836 78.9060 -0.083 -0.606 -0.791 145 153 140
-41.6389 28.9381 79.1325 -0.101 -0.438 -0.893 145 153 141
-41.3552 28.8687 79.1175 0.108 -0.574 -0.812 137 146 131
-39.3629 28.3589 78.9543 0.223 -0.360 -0.906 51 55 53
-39.1623 27.9135 77.9346 -0.701 -0.206 -0.683 80 79 84
-26.3867 22.4338 71.2617 -0.548 -0.438 -0.712 101 126 118
-26.1375 22.3266 71.1308 -0.658 -0.406 -0.634 109 130 134
-22.5611 21.1476 70.1666 -0.560 -0.461 -0.688 87 84 79
-22.3205 21.0372 70.0225 -0.493 -0.369 -0.788 71 68 64
-20.2260 20.4813 69.8004 -0.674 0.260 -0.691 83 79 74
-20.1906 20.3540 69.4965 -0.445 -0.028 -0.895 79 75 70
-19.9468 20.0952 68.9764 -0.865 0.002 -0.501 60 57 48
-19.7813 20.0804 69.0330 -0.540 -0.025 -0.841 60 58 47
-19.5657 19.9547 68.8359 -0.647 0.251 -0.720 60 58 47
-19.3191 19.8553 68.7233 -0.123 -0.039 -0.992 68 66 55
-19.1710 19.8257 68.7324 -0.099 -0.068 -0.993 68 66 55
-17.9227 19.3454 68.2207 -0.305 -0.226 -0.925 116 113 109
-17.6172 19.2917 68.2580 -0.177 -0.304 -0.936 82 79 75
-17.4805 19.2527 68.2366 -0.162 -0.307 -0.938 70 67 63
-17.1986 19.1807 68.2139 -0.172 -0.439 -0.882 97 94 92
-16.8115 19.3227 68.7958 -0.540 -0.594 -0.597 96 92 90
-15.1084 18.4851 67.6335 -0.254 -0.539 -0.803 79 78 76
-14.9698 18.4469 67.6153 -0.254 -0.539 -0.803 74 72 68
-14.7991 18.4295 67.6681 -0.572 -0.356 -0.739 69 65 62
-14.4976 18.3681 67.6836 -0.619 0.100 -0.779 70 66 60
-14.2271 18.2866 67.6303 -0.445 -0.197 -0.874 84 80 74
-14.1800 18.1905 67.4123 -0.410 -0.477 -0.777 79 75 70
-14.0437 18.1506 67.3885 -0.406 -0.478 -0.779 64 60 55
-8.7686 16.7722 66.8842 -0.316 -0.384 -0.868 51 48 40
-8.5990 16.7471 66.9169 -0.381 -0.304 -0.873 47 44 36
-7.3066 16.4026 66.7760 -0.303 -0.255 -0.918 82 73 64
-7.1612 16.3649 66.7628 -0.221 -0.274 -0.936 91 82 73
-7.0099 16.3298 66.7597 -0.111 -0.248 -0.962 75 69 58
-6.7131 16.2568 66.7429 -0.216 -0.374 -0.902 63 59 46
-6.5686 16.2184 66.7274 -0.059 -0.438 -0.897 52 49 35
-6.4115 16.1856 66.7336 -0.084 -0.442 -0.893 58 54 40
-2.5813 15.2925 66.6415 0.059 -0.265 -0.962 54 52 40
-1.5957 15.0955 66.7015 -0.208 -0.478 -0.853 87 85 73
-1.4482 15.0560 66.6849 -0.258 -0.527 -0.810 86 83 75
-0.3959 14.8786 66.8327 -0.176 -0.418 -0.891 58 54 51
3.3454 14.3238 67.5515 -0.388 0.032 -0.921 72 74 64
8.7222 13.2994 68.0063 -0.007 -0.751 -0.661 70 71 55
9.1807 13.2544 68.1532 -0.196 -0.719 -0.667 65 66 48
9.3792 13.2232 68.1867 -0.234 -0.730 -0.642 72 73 57
10.3798 12.8988 67.9309 0.412 -0.350 -0.842 55 52 43
10.5496 12.8594 67.9273 0.364 -0.456 -0.812 55 52 43
11.0194 12.7307 67.8673 -0.498 -0.556 -0.665 56 56 46
11.3529 12.6499 67.8514 0.030 -0.235 -0.971 70 70 60
11.5863 12.6260 67.9236 0.121 -0.264 -0.957 70 70 60
11.6875 12.5690 67.8360 0.062 -0.340 -0.939 71 71 61
13.4334 12.4213 68.4545 -0.728 -0.460 -0.507 66 69 60
13.6833 12.2366 68.1267 0.240 -0.414 -0.878 52 55 46
16.7204 12.0393 69.3545 -0.454 -0.565 -0.689 80 87 80
16.8723 11.9922 69.3210 -0.441 -0.570 -0.693 81 88 80
18.5092 11.6235 69.3149 -0.332 -0.280 -0.901 83 92 87
18.7043 11.5849 69.3277 -0.715 -0.134 -0.686 82 92 84
19.1153 11.4329 69.1749 0.033 -0.197 -0.980 84 93 87
28.5606 11.3071 74.2351 0.568 -0.481 -0.668 60 66 64
-54.1410 38.4934 95.8433 -0.498 -0.866 -0.034 70 86 83
-53.9775 38.4416 95.8047 -0.502 -0.865 -0.027 70 86 83
-52.7830 36.9191 92.6240 -0.884 -0.440 -0.156 67 79 79
-45.5287 31.0154 81.7732 -0.633 -0.253 -0.732 41 52 46
-45.3866 30.9065 81.5778 -0.610 -0.255 -0.750 41 52 45
-45.1033 30.7147 81.2521 -0.605 -0.494 -0.625 43 53 45
-44.9615 30.6452 81.1563 -0.609 -0.499 -0.617 43 53 44
-44.6777 30.5277 81.0192 -0.601 -0.447 -0.662 48 61 44
-42.8949 30.7733 82.6492 -0.657 0.421 -0.625 159 172 164
-42.7563 30.6528 82.4223 -0.657 0.421 -0.625 166 179 170
-42.6557 30.1727 81.2632 -0.896 0.267 -0.354 157 169 159
-41.6104 29.0710 79.0641 -0.101 -0.438 -0.893 147 152 139
-41.4670 29.0470 79.0842 -0.103 -0.445 -0.890 142 148 136
-41.3236 29.0218 79.1016 -0.107 -0.466 -0.878 140 148 131
-41.1811 28.9898 79.1012 -0.107 -0.466 -0.878 128 135 117
-41.0379 28.9609 79.1089 -0.162 -0.492 -0.855 90 96 83
-40.8956 28.9264 79.1019 -0.162 -0.492 -0.855 47 48 45
-40.7507 28.9062 79.1327 -0.196 -0.321 -0.926 59 58 56
-38.8778 27.8632 77.5499 -0.281 -0.503 -0.817 81 79 86
-36.8776 27.4180 77.5535 -0.702 -0.098 -0.706 98 123 126
-36.7462 27.3466 77.4469 -0.685 0.016 -0.728 98 123 125
-35.8355 26.8445 76.6900 -0.616 -0.118 -0.779 105 129 140
-32.8925 25.3064 74.4586 -0.476 -0.600 -0.643 120 138 148
-31.1997 24.5995 73.6252 -0.458 -0.036 -0.888 129 151 162
-30.4242 24.2757 73.2437 -0.435 -0.043 -0.900 130 153 161
-26.3675 22.5528 71.1738 -0.548 -0.438 -0.712 118 138 143
-22.6564 21.1562 69.7350 -0.463 -0.203 -0.863 69 69 67
-22.5468 21.0913 69.6326 -0.499 -0.209 -0.841 53 53 50
-22.2477 21.2103 70.1029 -0.185 -0.275 -0.943 53 53 50
-22.0813 21.1993 70.1692 0.135 -0.314 -0.940 52 52 50
-22.0193 21.0882 69.9229 -0.144 -0.667 -0.731 53 52 50
-21.1701 20.5520 69.0450 -0.489 -0.201 -0.849 74 73 70
-19.8775 20.1054 68.6447 -0.557 -0.823 -0.109 56 55 51
-19.5186 20.0994 68.8325 -0.646 0.252 -0.720 56 55 51
-19.4107 20.0369 68.7351 -0.501 0.370 -0.782 63 62 57
-19.2773 19.9954 68.7055 -0.130 -0.047 -0.990 67 66 61
-19.1262 19.9682 68.7221 -0.101 -0.069 -0.992 74 73 68
-18.1360 19.5760 68.2885 -0.388 -0.429 -0.816 116 116 113
-17.9830 19.5496 68.3080 -0.352 -0.251 -0.902 111 111 108
-17.8884 19.4788 68.1822 -0.148 -0.223 -0.963 95 95 96
-17.1748 19.3065 68.1494 -0.196 -0.445 -0.874 89 88 89
-15.2291 18.6452 67.5746 -0.328 -0.423 -0.845 87 87 85
-15.0941 18.6048 67.5486 -0.254 -0.539 -0.803 72 72 70
-14.4828 18.4887 67.6002 -0.500 0.028 -0.865 77 76 75
-14.1951 18.4182 67.5844 -0.445 -0.197 -0.874 78 78 77
-14.0285 18.2713 67.3065 -0.406 -0.478 -0.779 81 80 78
-12.7829 18.1672 67.7471 -0.385 0.073 -0.920 78 74 71
-11.0186 17.3948 66.7884 -0.365 -0.560 -0.744 42 41 37
-8.7199 16.9124 66.8663 -0.285 -0.084 -0.955 62 57 44
-8.5800 16.8726 66.8446 -0.246 -0.127 -0.961 57 52 39
-6.6901 16.3849 66.6780 -0.233 -0.388 -0.892 75 72 54
-6.4042 16.3067 66.6415 -0.254 -0.366 -0.895 71 70 42
-6.1221 16.2266 66.5982 -0.331 -0.275 -0.903 63 62 30
-5.5679 16.3720 67.2800 -0.620 -0.258 -0.741 64 62 34
-2.5391 15.4299 66.6062 0.059 -0.265 -0.962 60 58 41
-2.3386 15.4117 66.6735 0.046 -0.337 -0.940 79 74 59
-1.8690 15.3043 66.6672 -0.292 -0.462 -0.837 89 84 66
-1.7106 15.2691 66.6675 -0.300 -0.542 -0.785 85 78 61
-1.4403 15.1806 66.5962 -0.405 -0.581 -0.706 100 98 84
-0.2385 14.9647 66.7287 -0.218 -0.276 -0.936 55 55 47
2.2536 14.3600 66.6064 -0.238 -0.333 -0.912 50 51 43
2.4016 14.3190 66.5863 -0.181 -0.443 -0.878 50 51 43
2.5742 14.2862 66.6006 -0.174 -0.458 -0.872 57 59 47
7.1207 13.4918 67.1593 0.134 -0.341 -0.931 62 63 50
9.4958 13.2162 67.8042 -0.392 -0.526 -0.755 69 70 55
9.7155 13.1908 67.8641 -0.405 -0.450 -0.796 71 67 58
10.8619 12.9888 68.0007 -0.273 -0.313 -0.910 56 55 46
11.0122 12.9441 67.9726 -0.333 -0.275 -0.902 54 57 46
11.3710 12.7866 67.7765 -0.111 -0.773 -0.624 62 63 56
13.3788 12.4606 68.0861 -0.296 0.184 -0.937 57 60 53
18.5588 11.7725 69.2722 -0.375 -0.359 -0.855 75 86 81
18.8039 11.7444 69.3396 -0.693 -0.512 -0.508 75 86 81
28.5384 11.4548 74.1100 0.568 -0.481 -0.668 60 66 66
-54.0710 38.4733 95.3428 -0.526 -0.850 -0.011 70 86 83
-53.9148 38.4550 95.3845 -0.508 -0.861 -0.028 72 87 84
-53.0520 37.0897 92.4286 -0.844 -0.535 0.017 60 75 72
-45.4986 31.1817 81.7812 -0.618 -0.236 -0.750 57 69 60
-45.3558 31.1082 81.6761 -0.629 -0.239 -0.739 58 70 60
-44.0807 30.4545 80.7445 -0.233 -0.538 -0.810 55 72 53
-43.9411 30.3673 80.6031 -0.458 -0.548 -0.700 55 73 51
-43.2875 31.2374 83.1625 -0.249 0.598 -0.762 57 74 55
-43.1433 31.1609 83.0505 -0.256 0.604 -0.754 59 75 60
-42.7136 30.9203 82.6855 -0.313 0.600 -0.736 159 173 160
-41.7348 29.1562 78.7897 -0.731 -0.196 -0.654 144 150 135
-41.4384 29.1801 79.0163 -0.114 -0.429 -0.896 133 137 123
-41.2962 29.1473 79.0134 -0.093 -0.443 -0.892 142 149 132
-41.1518 29.1275 79.0446 -0.103 -0.421 -0.901 104 111 92
-40.8665 29.0630 79.0422 -0.103 -0.421 -0.901 54 55 51
-37.6508 27.9527 78.0493 -0.733 -0.164 -0.660 120 144 154
-37.5165 27.8864 77.9575 -0.629 -0.103 -0.771 121 145 157
-37.3815 27.8234 77.8745 -0.582 -0.026 -0.813 121 145 155
-37.2523 27.7412 77.7400 -0.603 -0.072 -0.794 122 146 156
-37.1190 27.6738 77.6448 -0.603 -0.072 -0.794 123 147 156
-36.9821 27.6191 77.5839 -0.621 -0.070 -0.781 124 149 156
-36.8512 27.5453 77.4715 -0.674 -0.074 -0.735 125 150 157
-36.4606 27.3236 77.1320 -0.712 -0.181 -0.679 130 155 160
-34.7525 26.8798 76.9724 -0.597 0.238 -0.766 145 170 177
-32.8658 25.4354 74.3918 -0.468 -0.568 -0.677 141 161 170
-32.0832 25.1066 74.0024 -0.613 -0.480 -0.628 151 171 180
-31.9542 25.0501 73.9325 -0.614 -0.479 -0.628 132 154 165
-30.5190 24.4715 73.2801 -0.435 -0.043 -0.900 143 166 174
-30.3893 24.4187 73.2200 -0.435 -0.043 -0.900 142 165 173
-26.9374 22.9867 71.5489 -0.256 0.161 -0.953 137 157 164
-26.4250 22.7859 71.3305 -0.311 0.139 -0.940 142 162 169
-26.1056 22.5570 70.9330 -0.640 -0.409 -0.650 137 155 165
-23.6768 21.4574 69.5254 -0.676 -0.433 -0.596 113 115 114
-23.6305 21.3267 69.2220 -0.486 0.330 -0.809 113 115 114
-22.7558 21.3331 69.7291 -0.521 -0.183 -0.834 96 96 94
-22.6337 21.2802 69.6644 -0.521 -0.183 -0.834 68 68 66
-22.4079 21.3291 69.9144 -0.654 -0.090 -0.751 52 52 50
-22.0385 21.3436 70.1582 0.138 -0.326 -0.935 52 52 50
-20.0829 20.3446 68.7384 -0.111 -0.632 -0.767 66 66 64
-18.1159 19.6985 68.2144 -0.388 -0.429 -0.816 111 111 109
-17.9763 19.6620 68.2009 -0.396 -0.275 -0.876 106 106 104
-17.8638 19.6048 68.1198 -0.145 -0.224 -0.964 89 89 91
-16.7381 19.4552 68.3747 -0.567 -0.208 -0.797 93 93 94
-14.1630 18.5498 67.5384 -0.445 -0.197 -0.874 78 78 78
-11.0007 17.5182 66.7138 -0.229 -0.596 -0.770 54 53 48
-6.7930 16.5599 66.6606 -0.213 -0.382 -0.899 69 67 47
-6.6656 16.5136 66.6155 -0.233 -0.388 -0.892 82 80 54
-6.3815 16.4347 66.5762 -0.290 -0.386 -0.876 86 86 49
-6.1008 16.3540 66.5304 -0.293 -0.368 -0.883 74 75 32
-2.1505 15.5095 66.6195 0.008 -0.396 -0.918 104 96 75
-1.8528 15.4319 66.5911 -0.292 -0.462 -0.837 67 62 39
-1.6876 15.3994 66.6019 -0.469 -0.560 -0.683 84 78 56
-1.5598 15.3523 66.5550 -0.498 -0.567 -0.657 107 102 82
-0.2968 15.1604 66.7802 0.177 -0.328 -0.928 55 54 39
-0.1664 15.1138 66.7360 -0.170 -0.352 -0.921 49 51 35
0.6362 14.9352 66.7364 -0.196 -0.363 -0.911 57 62 42
0.8609 14.8290 66.5948 -0.349 -0.440 -0.827 56 58 48
2.5928 14.4168 66.5283 -0.174 -0.458 -0.872 39 41 29
3.3550 14.5795 67.3659 -0.227 -0.103 -0.969 40 44 30
5.4714 13.9993 67.0918 -0.353 -0.525 -0.775 70 77 59
5.5760 13.9434 67.0096 -0.354 -0.445 -0.823 71 78 62
10.9733 13.0661 67.8281 -0.444 -0.288 -0.849 56 57 49
13.0034 12.7492 68.1690 -0.645 -0.535 -0.545 72 72 62
13.1365 12.6995 68.1185 -0.606 -0.304 -0.735 77 78 70
13.3074 12.6590 68.1124 -0.261 -0.228 -0.938 69 72 63
18.5965 11.9191 69.2165 -0.549 -0.389 -0.740 69 79 71
18.8608 11.8157 69.1041 -0.759 -0.328 -0.563 72 82 74
21.4861 11.3234 69.3370 -0.149 -0.177 -0.973 76 89 80
21.5811 11.2640 69.2408 -0.316 -0.318 -0.894 77 90 81
-54.1356 38.3667 94.5547 -0.487 -0.857 -0.170 69 85 82
-52.9566 36.8975 91.5285 -0.862 -0.507 0.021 60 72 70
-52.6553 36.8699 91.6273 -0.899 -0.171 -0.404 63 75 73
-52.4791 36.7071 91.3173 -0.895 -0.185 -0.406 63 78 75
-47.7146 33.9702 87.1105 -0.592 0.297 -0.749 49 63 47
-44.5624 32.1607 84.3302 -0.819 -0.093 -0.566 55 74 55
-44.4154 32.0869 84.2273 -0.848 -0.171 -0.502 55 74 53
-44.2698 31.9897 84.0647 -0.864 -0.172 -0.474 55 74 52
-43.4059 31.3997 83.0670 -0.353 -0.519 -0.779 58 76 55
-43.2558 31.3963 83.1419 0.311 -0.211 -0.927 60 75 56
-43.1038 31.4090 83.2585 -0.285 0.594 -0.752 62 76 60
-42.9619 31.3056 83.0783 -0.569 0.484 -0.665 77 91 75
-42.8206 31.2014 82.8959 -0.586 0.473 -0.658 154 168 151
-42.6776 31.1195 82.7702 -0.568 0.489 -0.662 161 173 157
-41.9844 29.3905 78.8221 -0.163 -0.380 -0.911 150 161 143
-41.7048 29.2991 78.7487 -0.704 -0.129 -0.698 143 150 132
-41.4421 30.1194 80.9512 -0.737 -0.302 -0.604 137 141 126
-41.4098 29.3134 78.9488 -0.114 -0.429 -0.896 132 136 122
-40.1437 29.7270 80.6909 -0.287 -0.948 -0.139 58 56 59
-38.8251 28.1126 77.3784 -0.281 -0.503 -0.817 73 72 71
-37.6293 28.0621 77.9181 -0.765 -0.262 -0.588 149 173 183
-37.4965 27.9910 77.8139 -0.712 -0.286 -0.641 149 173 185
-37.3549 27.9512 77.7928 -0.636 -0.114 -0.763 150 174 186
-37.2300 27.8543 77.6195 -0.629 -0.331 -0.704 151 175 187
-37.0947 27.7941 77.5441 -0.628 -0.324 -0.707 151 175 187
-36.9611 27.7290 77.4552 -0.628 -0.324 -0.707 152 176 187
-36.8254 27.6713 77.3862 -0.665 -0.268 -0.697 154 178 188
-33.8954 25.9898 74.8032 -0.684 -0.444 -0.579 160 180 187
-33.7722 25.9157 74.6861 -0.703 -0.432 -0.565 161 181 188
-33.6512 25.8376 74.5577 -0.691 -0.449 -0.566 160 180 187
-33.5258 25.7700 74.4581 -0.691 -0.449 -0.566 151 171 178
-32.7202 25.4855 74.1937 -0.208 -0.560 -0.802 160 180 189
-31.2606 24.9396 73.6382 -0.265 0.080 -0.961 154 176 187
-31.1264 24.8935 73.5973 -0.265 0.080 -0.961 155 177 188
-27.4094 23.1140 71.2071 -0.400 0.140 -0.906 161 179 189
-26.2963 22.8319 71.1200 -0.537 -0.069 -0.841 157 177 186
-26.1959 22.7481 70.9659 -0.608 -0.289 -0.739 157 177 186
-26.0763 22.6885 70.8830 -0.615 -0.288 -0.734 150 168 178
-23.6914 21.5416 69.3366 -0.646 -0.453 -0.614 113 115 114
-22.8494 21.5160 69.7415 -0.467 -0.276 -0.840 116 116 114
-22.7271 21.4631 69.6770 -0.490 -0.194 -0.850 96 96 94
-22.6033 21.4119 69.6176 -0.508 -0.181 -0.842 68 68 66
-22.4830 21.3573 69.5478 -0.430 -0.206 -0.879 52 52 50
-17.9393 19.7977 68.1693 -0.411 -0.335 -0.848 99 99 97
-17.8283 19.7392 68.0845 -0.289 -0.273 -0.917 80 80 82
-17.6857 19.7049 68.0778 -0.276 -0.308 -0.910 83 83 85
-17.5501 19.6652 68.0539 -0.296 -0.319 -0.900 86 86 88
-17.4195 19.6218 68.0177 -0.310 -0.310 -0.899 89 89 91
-17.2932 19.5752 67.9714 -0.309 -0.302 -0.902 100 100 102
-17.1405 19.5481 67.9885 -0.268 -0.462 -0.846 100 100 102
-16.6247 19.3694 67.8280 -0.606 -0.213 -0.766 96 97 92
-16.5006 19.3213 67.7766 -0.579 -0.253 -0.775 89 90 85
-15.1772 18.8997 67.4569 -0.331 -0.387 -0.861 98 98 96
-14.9118 18.8159 67.3946 -0.313 -0.388 -0.867 79 79 77
-14.0029 18.5093 67.1324 -0.442 -0.562 -0.699 94 94 94
-11.7535 17.9104 66.8842 -0.310 -0.408 -0.859 48 44 43
-11.6172 17.8701 66.8589 -0.280 -0.395 -0.875 49 45 44
-8.5679 17.0004 66.3775 -0.323 -0.648 -0.690 65 59 43
-6.7785 16.6840 66.5810 -0.154 -0.362 -0.919 71 69 49
-6.2129 16.5249 66.4974 -0.403 -0.213 -0.890 87 89 41
-4.8634 16.1985 66.4308 -0.080 -0.099 -0.992 77 78 46
-4.7172 16.1602 66.4163 -0.129 -0.314 -0.941 82 83 51
-2.2752 15.6787 66.5696 -0.007 -0.184 -0.983 94 89 61
-1.9480 15.6130 66.5873 0.026 -0.231 -0.973 89 82 57
-1.8322 15.5612 66.5219 -0.314 -0.462 -0.829 75 69 43
1.6637 14.8643 66.7224 -0.437 -0.468 -0.768 40 40 40
1.7828 14.8133 66.6609 -0.451 -0.469 -0.759 43 44 41
2.2223 14.6890 66.5942 -0.490 -0.389 -0.780 57 61 48
5.6182 13.9956 66.7476 -0.528 -0.503 -0.684 50 60 44
12.9886 12.8791 68.0547 -0.574 -0.205 -0.793 56 58 45
18.6282 12.0645 69.1542 -0.385 -0.332 -0.861 78 86 74
19.4524 11.7609 68.8521 0.154 -0.236 -0.959 81 89 78
-54.1197 38.6109 94.6939 -0.636 -0.771 0.004 68 84 81
-53.9259 38.3983 94.2707 -0.531 -0.847 -0.013 66 81 78
-53.7884 38.4691 94.5234 -0.742 -0.667 0.069 57 72 69
-52.7287 36.7807 90.8983 0.459 0.217 -0.861 63 75 73
-52.4334 36.7806 91.0613 -0.833 -0.293 -0.470 64 79 76
-48.4738 34.8351 88.3987 -0.740 -0.544 -0.397 54 72 51
-47.2254 33.8897 86.7310 -0.415 0.243 -0.877 53 67 54
-47.0781 33.9717 87.0171 -0.193 -0.783 -0.592 50 63 53
-46.9267 33.9400 87.0215 -0.073 -0.831 -0.551 48 61 51
-46.7753 33.9141 87.0407 -0.073 -0.831 -0.551 48 61 51
-44.5306 32.3327 84.3378 -0.790 -0.073 -0.608 47 66 46
-44.3846 32.2328 84.1694 -0.796 -0.076 -0.601 47 66 44
-43.9475 31.9688 83.7526 -0.624 -0.559 -0.546 55 75 50
-43.2242 31.5534 83.1167 0.311 -0.211 -0.927 61 76 57
-43.0765 31.5158 83.1044 0.322 -0.189 -0.928 62 77 58
-42.9281 31.4854 83.1107 0.328 -0.189 -0.925 79 94 75
-42.7758 31.4938 83.2159 0.333 -0.173 -0.927 155 168 150
-41.9550 29.5294 78.7704 -0.194 -0.342 -0.919 150 162 141
-41.4165 30.2294 80.8141 -0.744 -0.230 -0.628 138 142 125
-41.2813 30.1260 80.6310 -0.755 -0.370 -0.541 132 136 121
-41.1450 30.0332 80.4747 -0.751 -0.365 -0.549 123 128 109
-40.1292 29.7840 80.4150 -0.145 -0.974 -0.175 51 49 52
-38.5573 28.6142 78.3666 -0.698 -0.155 -0.699 66 66 65
-38.0138 28.3603 78.0340 -0.070 -0.357 -0.932 153 175 191
-33.4213 26.7825 76.6383 -0.640 0.367 -0.675 161 181 188
-32.7061 25.5885 74.0559 -0.303 -0.566 -0.766 161 181 190
-32.5652 25.5553 74.0510 -0.292 -0.558 -0.777 155 175 184
-32.4305 25.5093 74.0108 -0.575 -0.490 -0.655 180 200 209
-32.3007 25.4536 73.9434 -0.548 -0.473 -0.690 152 172 181
-32.0443 25.3369 73.7943 -0.588 -0.513 -0.626 158 178 187
-31.9228 25.2660 73.6846 -0.713 -0.459 -0.530 145 167 178
-31.8025 25.1934 73.5701 -0.736 -0.454 -0.503 151 173 184
-31.2395 25.3519 74.2767 -0.342 -0.284 -0.896 166 188 199
-30.0395 24.6334 73.1482 -0.398 -0.649 -0.649 168 188 197
-29.9049 24.5885 73.1106 -0.398 -0.649 -0.649 167 187 196
-29.4223 24.5795 73.3551 -0.388 -0.369 -0.845 168 186 196
-29.2863 24.5358 73.3212 -0.360 -0.338 -0.869 167 185 195
-29.1513 24.4905 73.2829 -0.360 -0.338 -0.869 167 185 195
-29.0181 24.4424 73.2367 -0.379 -0.358 -0.853 167 185 195
-28.8653 24.4245 73.2765 -0.501 0.039 -0.865 166 186 195
-28.7389 24.3660 73.2005 -0.501 0.039 -0.865 164 187 195
-28.6126 24.3076 73.1247 -0.501 0.039 -0.865 164 187 195
-28.4925 24.2403 73.0231 -0.519 0.032 -0.854 164 187 195
-28.3672 24.1810 72.9448 -0.519 0.032 -0.854 164 187 195
-27.9889 24.0084 72.7234 -0.525 0.025 -0.851 164 187 195
-27.8779 23.9300 72.5892 -0.578 -0.081 -0.812 165 185 194
-27.7544 23.8698 72.5073 -0.578 -0.081 -0.812 165 185 194
-27.6523 23.7800 72.3398 -0.495 -0.508 -0.705 166 184 194
-26.9892 24.0001 73.2555 -0.810 0.188 -0.556 157 175 185
-25.8690 22.6271 70.4506 -0.108 -0.357 -0.928 159 177 187
-25.5105 22.6534 70.7142 -0.561 -0.423 -0.711 159 177 187
-25.3908 22.5946 70.6340 -0.611 -0.408 -0.679 146 164 174
-25.2697 22.5378 70.5592 -0.611 -0.408 -0.679 163 181 191
-24.8857 22.3923 70.4086 -0.518 -0.417 -0.747 162 176 185
-22.9490 21.6930 69.7355 -0.385 -0.325 -0.864 116 116 114
-22.8190 21.6478 69.6946 -0.385 -0.325 -0.864 116 116 114
-22.6982 21.5933 69.6254 -0.474 -0.281 -0.835 96 96 94
-22.5695 21.5469 69.5808 -0.463 -0.289 -0.838 68 68 66
-22.4440 21.4974 69.5268 -0.397 -0.311 -0.863 52 52 50
-21.0195 21.8378 71.1636 -0.657 -0.749 0.083 59 58 56
-19.1617 20.4083 68.6256 -0.063 -0.018 -0.998 67 66 62
-17.9060 19.9305 68.1281 -0.413 -0.334 -0.847 95 95 93
-17.7876 19.8776 68.0616 -0.373 -0.347 -0.861 74 74 76
-17.5152 19.7992 68.0168 -0.280 -0.540 -0.794 89 89 91
-16.9941 19.6243 67.8689 -0.229 -0.395 -0.890 104 104 106
-16.5744 19.5142 67.8263 -0.392 -0.455 -0.800 100 101 96
-15.1495 19.0282 67.4021 -0.301 -0.319 -0.899 103 103 101
-15.0107 18.9904 67.3844 -0.229 -0.303 -0.925 86 86 84
-14.0085 18.6165 67.0062 -0.356 -0.536 -0.765 100 100 100
-13.6357 18.6006 67.1727 -0.428 -0.478 -0.767 106 105 103
-11.7071 18.0501 66.8662 -0.297 -0.432 -0.852 44 40 39
-11.5771 18.0060 66.8280 -0.281 -0.402 -0.872 45 41 38
-7.2708 16.8867 66.4177 -0.323 -0.131 -0.937 97 90 80
-7.1449 16.8400 66.3708 -0.136 -0.209 -0.968 86 80 67
-6.7504 16.8144 66.5249 -0.160 -0.375 -0.913 73 71 51
-5.5680 16.5190 66.4421 -0.132 -0.081 -0.988 78 78 50
-5.2784 16.4418 66.4097 -0.132 -0.081 -0.988 82 83 51
-4.8292 16.3321 66.3844 -0.109 -0.119 -0.987 88 89 57
-4.2909 16.4654 67.0146 -0.465 0.327 -0.823 82 83 49
-4.4180 16.2052 66.2954 -0.094 -0.482 -0.871 95 97 61
-2.2272 15.8188 66.5430 -0.007 -0.184 -0.983 99 94 69
-1.9071 15.7503 66.5494 0.084 -0.356 -0.931 82 72 51
-1.8054 15.6929 66.4622 -0.432 -0.411 -0.803 84 76 53
2.2389 14.8189 66.5189 -0.490 -0.389 -0.780 68 72 58
2.3486 14.7649 66.4448 -0.437 -0.456 -0.776 67 71 57
5.4453 14.2454 66.8614 -0.210 -0.289 -0.934 44 58 35
5.5717 14.1962 66.8086 -0.485 -0.463 -0.742 46 58 36
5.9318 14.0430 66.6257 -0.410 -0.475 -0.779 40 51 33
6.0548 13.9929 66.5688 -0.052 -0.401 -0.915 51 62 44
10.9701 13.3288 67.6303 -0.671 -0.302 -0.677 56 59 49
12.9936 13.0139 67.9639 -0.577 -0.198 -0.792 50 52 38
18.6829 12.2148 69.1170 -0.379 -0.338 -0.861 81 87 73
21.3384 11.7321 69.3814 -0.406 -0.246 -0.880 74 88 72
21.4777 11.6811 69.3313 -0.406 -0.246 -0.880 75 89 74
21.6702 11.5622 69.1412 0.091 -0.052 -0.994 75 87 75
21.7764 11.5049 69.0570 -0.116 0.164 -0.980 75 87 75
-53.7190 38.4406 94.0133 -0.726 -0.681 0.100 49 64 59
-52.9295 37.4167 91.9059 -0.336 -0.910 -0.243 61 73 71
-48.7834 35.5367 89.5167 -0.889 -0.453 -0.065 60 79 57
-48.6185 35.3548 89.1559 -0.874 -0.481 -0.064 60 79 57
-48.2698 34.6413 87.5767 -0.289 0.328 -0.900 56 71 50
-47.0442 34.0381 86.7526 -0.557 -0.628 -0.544 54 67 57
-46.8924 33.9765 86.6831 -0.518 -0.658 -0.546 49 62 52
-46.7408 33.9221 86.6313 -0.427 -0.690 -0.585 48 61 51
-46.5897 33.8923 86.6403 -0.389 -0.712 -0.585 48 61 51
-43.9229 32.0144 83.4443 -0.706 -0.356 -0.612 54 77 51
-43.7788 31.9199 83.2887 -0.573 -0.552 -0.606 56 75 53
-43.6346 31.8324 83.1508 -0.610 -0.503 -0.612 57 74 55
-43.1925 31.7107 83.0914 0.311 -0.211 -0.927 59 74 55
-43.0456 31.6638 83.0557 0.324 -0.198 -0.925 65 80 59
-42.8962 31.6442 83.0891 0.336 -0.212 -0.918 82 97 76
-42.7437 31.6541 83.1975 0.333 -0.173 -0.927 155 168 150
-41.6510 29.5413 78.5543 -0.658 -0.174 -0.732 144 149 129
-41.3925 30.3285 80.6497 -0.747 -0.289 -0.599 137 140 122
-41.2583 30.2196 80.4530 -0.759 -0.368 -0.538 131 133 119
-41.1211 30.1346 80.3175 -0.759 -0.368 -0.538 114 118 100
-40.9862 30.0367 80.1484 -0.243 -0.830 -0.502 55 60 39
-39.6905 29.6772 79.9676 -0.786 -0.557 -0.267 59 57 58
-38.5221 28.7755 78.3715 -0.661 -0.220 -0.717 63 63 62
-33.3744 26.9592 76.6901 -0.640 0.367 -0.675 164 184 191
-32.5654 26.2840 75.4586 -0.189 0.680 -0.709 164 184 193
-32.5489 25.6632 73.9270 -0.232 -0.648 -0.726 159 179 188
-32.0259 25.4498 73.6846 -0.588 -0.513 -0.626 172 192 201
-31.9013 25.3850 73.5924 -0.617 -0.573 -0.540 147 169 180
-27.9297 24.1850 72.7946 -0.506 -0.857 -0.097 165 188 196
-27.6751 24.0737 72.6580 -0.505 -0.851 -0.143 167 187 196
-27.2899 23.9129 72.4705 -0.444 -0.888 -0.119 167 185 195
-26.1609 22.9817 70.7796 -0.666 -0.342 -0.663 164 184 193
-26.0904 22.8614 70.5197 -0.584 -0.637 -0.503 164 182 192
-26.0147 22.7487 70.2816 -0.388 -0.242 -0.889 163 181 191
-25.8688 22.7228 70.2974 -0.246 -0.388 -0.888 163 181 191
-25.6322 22.8061 70.6339 -0.336 -0.584 -0.739 163 181 191
-25.4979 22.7649 70.6055 -0.336 -0.584 -0.739 159 177 187
-25.3607 22.7270 70.5867 -0.576 -0.424 -0.698 158 176 186
-25.2327 22.6782 70.5358 -0.569 -0.402 -0.718 159 177 187
-23.7685 22.2080 70.1726 -0.027 -0.557 -0.830 110 114 113
-23.6221 22.1795 70.1824 0.005 -0.557 -0.830 119 121 120
-22.7913 21.7768 69.6392 -0.461 -0.295 -0.837 111 111 109
-22.6650 21.7278 69.5869 -0.478 -0.316 -0.819 96 96 94
-22.5374 21.6802 69.5389 -0.483 -0.299 -0.823 85 85 83
-22.4033 21.6392 69.5107 -0.420 -0.305 -0.855 78 78 76
-21.8401 20.8326 67.8183 -0.137 -0.094 -0.986 49 48 46
-19.3266 20.5292 68.4452 -0.189 -0.165 -0.968 54 53 49
-18.6755 20.6110 69.0054 -0.263 -0.297 -0.918 55 54 50
-17.7690 19.9990 67.9844 -0.383 -0.355 -0.853 81 81 83
-17.3701 19.8742 67.8935 -0.469 -0.511 -0.720 98 98 100
-16.7673 20.0425 68.6422 -0.219 -0.207 -0.953 113 113 115
-16.6919 19.8154 68.1200 -0.614 -0.223 -0.758 113 113 114
-14.5433 18.8910 67.0053 -0.333 -0.091 -0.939 84 84 84
-14.0064 18.8557 67.2125 -0.311 -0.303 -0.901 94 94 94
-13.9974 18.7342 66.9159 -0.355 -0.544 -0.760 101 101 101
-13.2446 18.7061 67.2595 -0.308 -0.498 -0.811 94 90 87
-13.1089 18.6654 67.2329 -0.308 -0.498 -0.811 86 82 79
-11.6746 18.0625 66.5242 -0.368 -0.516 -0.773 61 57 54
-10.9027 18.0303 66.8679 -0.236 -0.304 -0.923 63 60 55
-6.5750 16.9079 66.4582 0.044 -0.351 -0.935 78 76 52
-6.5056 16.8342 66.3135 -0.406 -0.553 -0.728 85 84 53
-6.0891 16.8174 66.5003 -0.091 -0.180 -0.979 92 94 47
-5.9343 16.7836 66.5014 -0.050 -0.202 -0.978 90 92 45
-5.7857 16.7469 66.4918 -0.108 -0.101 -0.989 81 82 41
-5.4998 16.6680 66.4531 -0.063 -0.097 -0.993 82 82 54
-5.2408 16.5768 66.3690 -0.129 -0.268 -0.955 79 80 49
-4.2088 16.6212 67.0456 -0.463 0.323 -0.825 82 83 50
-2.9406 16.1443 66.5583 0.173 -0.387 -0.906 69 79 42
-1.7742 15.8263 66.4093 -0.514 -0.406 -0.756 88 80 58
-1.5213 15.7311 66.3120 -0.497 -0.332 -0.801 92 85 62
-0.1573 15.4847 66.4492 0.157 -0.412 -0.898 87 91 73
0.6976 15.1390 66.0608 -0.424 -0.388 -0.818 61 66 45
2.1787 14.9222 66.3356 -0.503 -0.473 -0.723 65 69 54
4.0566 15.2889 68.2763 -0.989 -0.080 -0.127 70 74 60
5.5603 14.3194 66.6960 -0.406 -0.468 -0.785 55 67 43
6.0876 14.1298 66.5149 -0.111 -0.401 -0.909 57 66 44
10.9265 13.4487 67.4808 -0.673 -0.316 -0.669 56 60 45
16.0890 12.7431 68.5636 -0.331 -0.606 -0.723 80 81 74
21.4193 11.8098 69.1733 -0.522 0.016 -0.853 75 89 72
22.9344 11.8746 70.1657 -0.048 -0.173 -0.984 76 87 73
-53.7808 38.3104 93.1852 -0.524 -0.851 -0.011 55 70 65
-52.8955 37.5624 91.8209 -0.466 -0.812 -0.352 57 69 67
-51.1450 36.8949 91.1267 -0.818 0.199 -0.539 58 69 63
-50.9792 36.7798 90.9327 -0.831 0.041 -0.555 65 76 70
-48.5710 35.2870 88.5592 -0.924 -0.290 -0.249 60 79 59
-48.2411 34.8358 87.6251 -0.294 0.291 -0.911 57 72 53
-48.0751 34.5566 87.0263 -0.115 -0.162 -0.980 57 72 53
-47.9258 34.5508 87.0933 -0.145 -0.177 -0.973 63 78 59
-47.0106 34.1098 86.5032 -0.799 -0.001 -0.602 34 45 37
-46.8598 34.0772 86.5048 -0.833 -0.250 -0.493 33 44 36
-43.8943 32.1263 83.3039 -0.714 -0.366 -0.597 76 98 75
-43.7495 32.0440 83.1798 -0.720 -0.342 -0.604 71 90 68
-43.6039 31.9796 83.1000 -0.594 -0.538 -0.598 73 90 71
-43.0148 31.8111 83.0049 0.051 -0.631 -0.774 86 101 82
-42.8668 31.7758 82.9984 -0.053 -0.612 -0.789 93 108 87
-42.7165 31.7629 83.0485 -0.048 -0.603 -0.796 153 166 148
