ply
format ascii 1.0
element vertex 868
property float x
property float y
property float z
property float nx
property float ny
property float nz
property uchar diffuse_red
property uchar diffuse_green
property uchar diffuse_blue
end_header
-48.5011 62.5915 90.2770 -0.798 -0.186 -0.573 110 122 102
-48.3876 62.5422 90.1220 -0.811 -0.169 -0.560 105 120 99
-48.2730 62.4943 89.9705 -0.811 -0.169 -0.560 99 113 92
-47.8152 62.4700 89.8233 0.202 -0.203 -0.958 96 111 90
-47.3628 62.4390 89.6587 -0.443 -0.314 -0.840 92 109 87
-47.2236 62.4167 89.5730 -0.728 0.126 -0.674 89 104 84
-47.1107 62.3679 89.4194 -0.731 0.024 -0.682 84 99 79
-47.0122 62.3049 89.2297 -0.707 0.032 -0.707 77 92 71
-47.1977 61.4869 87.0222 -0.844 0.188 -0.503 129 140 126
-47.0945 61.4334 86.8574 0.154 -0.028 -0.988 132 140 128
-45.9019 60.9173 85.2337 -0.274 0.062 -0.960 93 106 73
-45.8134 60.8534 85.0433 -0.214 0.033 -0.976 82 94 65
-45.6586 60.8510 85.0092 -0.214 0.033 -0.976 79 89 64
-45.5036 60.8485 84.9751 -0.214 0.033 -0.976 93 102 83
-45.3575 60.1323 82.9880 -0.564 -0.809 0.163 144 152 137
-43.7766 60.1461 82.7470 -0.903 -0.001 -0.430 115 123 110
-43.9317 59.7492 81.6875 -0.793 -0.542 -0.278 135 143 128
-43.9444 59.6075 81.3016 -0.572 -0.464 -0.677 153 161 148
-43.7154 59.2822 80.3703 -0.993 0.113 0.032 156 161 155
-42.7064 58.9720 79.3430 -0.955 -0.275 0.111 143 153 145
-42.7411 58.8221 78.9386 -0.919 -0.391 0.045 143 153 145
-41.8032 58.5906 78.1391 -0.678 -0.011 -0.735 141 151 142
-24.0621 55.6749 67.0253 -0.991 -0.106 -0.087 86 88 74
-23.6329 55.6362 66.8436 0.275 0.043 -0.960 91 91 81
-23.2716 55.6446 66.8030 0.059 0.462 -0.885 94 96 85
-22.8201 55.6936 66.8574 -0.372 0.461 -0.806 92 92 82
-22.6862 55.6759 66.7854 -0.372 0.461 -0.806 97 97 85
-21.6276 55.5287 66.1956 -0.760 0.522 -0.386 94 94 84
-20.8270 55.5737 66.1774 0.353 0.199 -0.914 92 92 84
-20.4461 55.6633 66.3558 0.346 0.218 -0.912 98 98 90
-19.6758 55.5381 65.8769 -0.529 0.065 -0.846 81 80 75
-19.5553 55.5139 65.7893 -0.262 -0.399 -0.879 89 88 83
-19.3926 55.5076 65.7436 -0.262 -0.399 -0.879 95 96 91
-19.1740 55.5251 65.7528 -0.619 -0.423 -0.662 80 81 76
-19.0903 55.4100 65.4229 -0.650 0.189 -0.736 79 79 77
-18.9263 55.4043 65.3782 -0.940 0.098 -0.326 76 78 75
-18.9138 55.3348 65.1857 0.031 0.551 -0.834 75 76 74
-18.5642 55.4067 65.3211 -0.131 0.624 -0.770 81 81 79
-18.5201 55.2024 64.7537 0.174 0.650 -0.740 83 86 77
-17.9676 55.3574 65.0808 -0.352 0.450 -0.821 79 82 73
-17.1809 55.2381 64.6152 -0.349 -0.261 -0.900 75 77 66
-17.0919 55.2011 64.4984 -0.152 -0.161 -0.975 75 77 66
-16.2530 55.1751 64.2792 -0.483 -0.673 -0.560 83 85 74
-15.1155 55.4098 64.7212 0.143 0.371 -0.918 86 88 77
-14.8901 55.4261 64.7261 0.066 0.458 -0.886 90 92 81
-14.8961 55.3510 64.5217 -0.200 0.595 -0.779 90 92 81
-14.1711 55.2020 63.9857 -0.117 0.387 -0.915 77 79 68
-13.9719 55.2075 63.9656 0.031 0.473 -0.881 83 84 76
-13.6138 54.9900 63.3068 -0.639 0.046 -0.767 101 104 95
-11.9808 55.1837 63.5492 -0.648 -0.526 -0.551 76 77 69
-11.0932 55.0925 63.1429 -0.221 0.581 -0.783 97 99 88
-10.9809 55.0641 63.0454 -0.181 0.602 -0.778 98 100 87
-10.0735 54.9790 62.6523 -0.303 -0.056 -0.951 89 91 78
-8.9149 55.1884 63.0214 0.230 -0.001 -0.973 99 101 90
-8.0006 55.2374 62.9942 -0.353 -0.086 -0.932 101 102 94
-7.7909 55.2425 62.9713 -0.263 -0.020 -0.965 110 111 103
-7.6416 55.2262 62.9003 -0.597 -0.066 -0.800 82 83 75
-7.5169 55.2013 62.8099 -0.556 -0.051 -0.830 76 77 68
-7.3291 55.1984 62.7690 -0.432 0.001 -0.902 84 86 74
-6.6098 55.1750 62.5781 0.033 0.153 -0.988 90 92 79
-6.1247 55.2745 62.7649 -0.076 0.582 -0.810 80 82 69
-5.9355 55.2713 62.7228 -0.070 0.577 -0.813 86 88 75
-4.3572 55.3321 62.6110 0.071 0.351 -0.934 94 97 87
-3.1685 55.1885 62.0080 0.189 0.059 -0.980 75 80 70
-2.9065 55.2079 62.0150 0.072 0.025 -0.997 74 78 69
-2.5441 55.1930 61.9103 -0.382 0.123 -0.916 91 97 85
-2.3904 55.1765 61.8378 -0.525 0.505 -0.685 102 108 96
-1.8092 55.2995 62.0723 -0.775 -0.045 -0.630 106 114 99
-0.9872 55.2984 61.9242 0.028 -0.521 -0.853 87 95 80
-0.6599 55.3371 61.9724 0.020 -0.471 -0.882 97 105 90
-0.3215 55.3790 62.0276 0.218 -0.291 -0.932 129 140 124
-0.0032 55.4142 62.0678 0.301 -0.314 -0.900 106 117 103
0.2512 55.4286 62.0624 0.313 -0.238 -0.919 112 123 109
2.1355 55.4234 61.7158 0.168 -0.012 -0.986 124 132 119
2.7983 55.4304 61.6181 -0.441 0.037 -0.897 112 120 105
3.0030 55.4275 61.5740 -0.259 0.159 -0.953 112 120 105
-60.6197 62.8097 92.5679 0.225 -0.803 -0.552 118 110 89
-52.5228 62.4487 90.1399 -0.934 -0.317 -0.162 68 34 35
-51.5995 62.6290 90.4667 0.068 -0.948 -0.312 59 63 41
-51.0806 62.8714 91.0351 -0.148 0.727 -0.670 60 58 37
-50.9483 62.6608 90.4375 -0.714 0.651 -0.258 79 82 57
-47.9229 62.6764 89.9403 -0.051 -0.485 -0.873 79 92 72
-47.7777 62.6603 89.8707 0.015 -0.508 -0.861 86 99 79
-47.6072 62.6704 89.8678 0.015 -0.508 -0.861 97 110 92
-47.4429 62.6738 89.8477 -0.001 -0.503 -0.864 87 100 81
-47.3598 62.5937 89.6147 -0.432 -0.316 -0.845 93 107 82
-47.0972 62.5333 89.4030 -0.691 -0.364 -0.625 92 106 82
-46.9728 62.4962 89.2797 -0.697 -0.369 -0.615 91 105 81
-47.1847 61.6481 87.0056 -0.855 0.187 -0.484 103 115 91
-45.5414 62.1579 88.1023 -0.892 0.187 -0.412 79 89 55
-45.3342 62.0474 87.7641 -0.546 0.160 -0.822 68 77 45
-45.1998 62.0216 87.6698 -0.546 0.160 -0.822 68 78 45
-44.9765 60.3393 83.0440 0.513 -0.068 -0.856 147 154 136
-43.6252 59.7585 81.2197 -0.823 -0.453 -0.343 146 154 141
-43.7135 59.4267 80.3311 -0.898 0.131 -0.419 156 161 155
-42.6930 59.1254 79.3277 -0.939 -0.330 0.098 150 160 152
-42.7550 58.9532 78.8693 -0.937 -0.347 0.045 143 153 145
-24.0275 55.8353 67.0303 -0.993 0.025 -0.112 85 87 74
-22.5948 55.8629 66.8501 -0.372 0.461 -0.806 96 96 86
-18.7418 55.7048 65.7321 0.084 0.089 -0.992 72 71 67
-18.6115 55.6844 65.6534 -0.379 0.551 -0.743 70 69 65
-18.3734 55.6342 65.4740 -0.103 0.628 -0.772 72 71 67
-18.2930 55.5929 65.3470 -0.082 0.684 -0.725 72 72 67
-18.0499 55.6198 65.3771 -0.065 0.709 -0.702 80 81 74
-18.0023 55.5649 65.2188 -0.281 0.787 -0.549 82 83 75
-17.8282 55.5628 65.1820 -0.416 0.645 -0.641 83 84 76
-17.3736 55.6023 65.2087 -0.340 0.477 -0.811 79 80 72
-17.3554 55.5354 65.0232 -0.348 0.481 -0.805 79 80 72
-17.1927 55.5283 64.9747 -0.740 0.059 -0.670 80 82 71
-16.9642 55.4741 64.7863 -0.668 -0.340 -0.662 75 77 66
-16.3175 55.2970 64.1881 -0.483 -0.673 -0.560 86 88 77
-16.2233 55.2622 64.0765 -0.843 0.097 -0.528 80 82 71
-14.8382 55.5965 64.7410 0.148 0.421 -0.895 74 76 65
-14.8401 55.5228 64.5402 -0.178 0.574 -0.799 83 85 74
-14.0439 55.4010 64.0663 0.159 0.414 -0.896 78 79 71
-13.1969 55.2276 63.4426 0.446 -0.348 -0.825 89 92 85
-12.3446 55.3390 63.5942 -0.731 -0.672 -0.116 88 89 81
-11.6199 55.3288 63.4372 0.221 -0.606 -0.764 77 78 70
-7.7729 55.4030 62.9537 -0.255 -0.005 -0.967 102 103 97
-7.7008 55.3594 62.8219 -0.487 -0.075 -0.870 80 81 74
-7.5018 55.3607 62.7900 -0.556 -0.051 -0.830 84 86 76
-7.3038 55.3616 62.7570 -0.432 0.001 -0.902 114 116 104
-7.1547 55.3452 62.6856 -0.432 0.001 -0.902 120 122 108
-6.5098 55.3646 62.6236 0.064 -0.022 -0.998 96 98 84
-6.1125 55.4342 62.7425 -0.008 -0.103 -0.995 97 99 86
-5.4565 55.4551 62.6826 -0.149 0.019 -0.989 104 106 93
-5.2512 55.4572 62.6517 -0.149 0.019 -0.989 100 102 89
-4.3099 55.3688 62.2427 -0.360 -0.020 -0.933 89 95 82
-3.9456 55.4239 62.3281 -0.503 -0.155 -0.850 77 83 69
-3.6767 55.3786 62.1567 -0.154 -0.166 -0.974 75 80 65
-3.6059 55.3347 62.0243 -0.062 -0.066 -0.996 90 98 83
-3.3483 55.3533 62.0290 0.009 -0.167 -0.986 88 98 82
-3.0710 55.3782 62.0475 0.002 -0.149 -0.989 88 97 84
-2.9161 55.3622 61.9763 -0.136 -0.172 -0.976 90 100 86
-2.6806 55.3729 61.9634 -0.003 -0.174 -0.985 92 101 88
-2.4352 55.3867 61.9572 -0.305 0.094 -0.948 92 102 88
-2.1489 55.4137 61.9800 -0.408 0.179 -0.895 99 109 98
-1.7762 55.4690 62.0641 -0.526 0.126 -0.841 106 117 105
-1.5159 55.4196 61.8830 -0.310 -0.241 -0.920 113 121 109
-1.2951 55.4244 61.8570 -0.294 -0.141 -0.945 92 100 89
-1.0284 55.4441 61.8631 0.037 -0.466 -0.884 91 101 89
0.0250 55.5836 62.0555 0.283 -0.263 -0.922 105 116 102
0.2386 55.5851 62.0215 0.235 -0.151 -0.960 105 116 102
2.2090 55.6084 61.7335 0.151 0.156 -0.976 122 130 115
2.5206 55.6394 61.7625 0.368 -0.190 -0.910 110 118 103
2.9069 55.6934 61.8410 -0.471 0.557 -0.684 120 128 113
-10.3262 49.8038 48.1449 -0.761 0.380 -0.526 96 105 88
-60.4879 63.1803 93.1092 -0.053 0.289 -0.956 130 122 101
-60.3186 63.2220 93.1919 -0.061 0.326 -0.943 108 100 79
-53.3599 64.1012 94.3236 -0.057 -0.337 -0.940 73 44 40
-52.6103 62.6755 90.3196 -0.671 -0.335 -0.662 70 26 28
-52.3723 62.5907 90.0466 -0.130 -0.297 -0.946 61 33 33
-52.0448 62.8005 90.5568 0.048 0.121 -0.991 58 37 33
-51.8721 62.8217 90.5833 0.048 0.071 -0.996 52 41 31
-51.5725 62.9941 90.9972 0.127 0.717 -0.685 57 57 39
-51.3843 63.0320 91.0660 0.102 0.774 -0.625 56 59 37
-51.2029 63.0612 91.1126 0.092 0.774 -0.626 56 60 37
-50.9344 63.1920 91.4192 -0.155 0.758 -0.634 56 58 36
-50.8227 62.9549 90.7557 -0.691 0.651 -0.315 73 76 51
-48.0516 62.8610 90.0015 -0.322 -0.428 -0.844 106 119 101
-48.0005 62.7463 89.6811 -0.633 0.422 -0.650 101 114 96
-47.8699 62.7156 89.5741 -0.738 0.422 -0.527 85 98 80
-47.7649 62.6582 89.3995 -0.628 0.425 -0.652 101 114 96
-47.3470 62.7586 89.5965 -0.422 -0.300 -0.856 92 106 82
-47.1050 62.6769 89.3313 -0.695 -0.260 -0.671 106 120 95
-46.9908 62.6295 89.1820 -0.679 -0.293 -0.673 112 126 101
-45.4223 62.2689 87.9208 -0.886 0.157 -0.436 71 78 45
-45.3240 62.2085 87.7393 -0.557 0.167 -0.814 63 73 39
-45.1907 62.1817 87.6425 -0.557 0.167 -0.814 71 81 47
-45.6315 61.1707 84.9782 0.396 0.044 -0.917 89 98 73
-43.6928 59.8461 81.0342 -0.740 -0.559 -0.374 147 153 141
-42.5309 59.1509 78.9384 -0.297 0.605 -0.739 143 153 144
-42.4615 59.0836 78.7432 -0.319 0.631 -0.707 144 154 145
-24.9822 56.0904 67.4702 -0.596 0.379 -0.708 79 83 66
-23.9957 55.9945 67.0323 -0.767 0.634 -0.094 88 90 76
-23.4936 55.9898 66.9291 0.147 -0.161 -0.976 111 112 103
-22.7473 56.0174 66.8696 -0.408 0.453 -0.792 92 93 85
-22.5714 56.0190 66.8422 -0.287 0.489 -0.823 105 107 96
-21.9366 55.9144 66.4438 -0.013 0.258 -0.966 92 93 85
-21.6061 55.9070 66.3642 -0.180 0.595 -0.783 94 94 84
-21.3925 55.8470 66.1628 0.009 0.366 -0.930 85 85 75
-21.0023 55.8656 66.1431 0.278 0.444 -0.852 81 81 71
-19.6235 56.0082 66.2816 -0.978 0.195 0.073 96 96 88
-18.6523 55.8906 65.7873 0.070 0.110 -0.991 73 72 68
-18.4939 55.8821 65.7357 -0.364 0.528 -0.767 70 69 65
-17.5811 55.7388 65.1823 -0.499 -0.107 -0.860 82 83 75
-17.3574 55.7571 65.1918 -0.549 -0.123 -0.826 80 81 73
-16.7194 55.5746 64.5815 -0.711 -0.248 -0.658 73 75 64
-16.6628 55.5241 64.4343 -0.134 0.023 -0.991 88 90 79
-16.3052 55.5227 64.3661 -0.130 0.024 -0.991 76 78 67
-15.9932 55.5758 64.4538 0.024 -0.027 -0.999 75 77 66
-14.0296 55.6287 64.2436 -0.165 0.581 -0.797 82 83 75
-13.9351 55.5933 64.1304 0.150 0.406 -0.901 78 79 71
-13.6991 55.6133 64.1421 0.145 0.394 -0.908 81 82 74
-13.4899 55.6226 64.1296 -0.242 0.699 -0.673 87 88 80
-12.7998 55.4583 63.5594 -0.038 0.489 -0.871 86 89 80
-12.4262 55.4585 63.4928 -0.764 -0.634 -0.117 97 98 90
-11.4931 55.5277 63.5123 0.284 -0.641 -0.713 95 96 88
-10.9730 55.5811 63.5634 -0.572 0.684 -0.452 110 111 103
-10.1647 55.5282 63.2742 0.071 0.530 -0.845 81 83 72
-7.9315 55.6399 63.1750 -0.562 -0.315 -0.764 119 121 110
-7.6233 55.5410 62.8511 -0.438 0.153 -0.886 79 80 73
-6.4391 55.5443 62.6464 0.003 -0.231 -0.973 108 111 94
-6.1290 55.5838 62.6979 -0.022 -0.443 -0.896 109 111 97
-5.2323 55.6199 62.6341 -0.238 -0.297 -0.925 117 121 106
-4.2311 55.5520 62.2695 -0.360 0.009 -0.933 85 92 75
-3.9891 55.5661 62.2640 -0.333 -0.014 -0.943 75 82 64
-3.5313 55.5166 62.0473 -0.366 0.100 -0.925 97 105 90
-3.3062 55.5244 62.0280 -0.011 -0.144 -0.989 103 111 98
-3.0863 55.5304 62.0045 0.014 -0.137 -0.990 110 118 105
-2.9233 55.5172 61.9392 -0.228 -0.038 -0.973 99 107 94
-2.3371 55.5771 61.9962 -0.294 0.429 -0.854 100 108 97
-2.0421 55.6073 62.0250 -0.357 0.302 -0.884 102 110 99
-1.7116 55.6490 62.0785 -0.534 0.143 -0.833 107 117 106
-1.5307 55.5733 61.8406 -0.429 0.061 -0.901 117 127 116
-1.2232 55.6068 61.8762 -0.093 0.041 -0.995 96 106 95
0.0400 55.7488 62.0339 0.364 0.054 -0.930 106 117 103
0.3430 55.7794 62.0624 0.201 0.106 -0.974 99 110 96
0.5074 55.7650 61.9936 -0.611 0.160 -0.775 98 109 95
0.5169 55.7006 61.8171 -0.770 0.430 -0.471 102 110 97
-9.9070 50.0037 48.2359 -0.954 -0.203 -0.221 111 120 103
-53.5460 64.6378 95.3410 -0.755 -0.505 -0.417 91 82 68
-53.1802 64.2800 94.3077 0.008 -0.271 -0.963 77 46 43
-51.4937 63.4254 91.6919 0.175 0.743 -0.646 50 39 30
-51.3187 63.4466 91.7173 0.154 0.761 -0.630 57 56 38
-51.1900 63.4122 91.6010 0.286 0.742 -0.607 54 58 36
-50.7570 63.5507 91.8963 -0.147 0.752 -0.642 55 59 36
-48.3162 63.0715 90.1573 -0.350 0.385 -0.854 119 132 114
-48.0584 63.0051 89.9309 -0.322 -0.428 -0.844 100 113 95
-47.9506 62.9498 89.7618 -0.627 0.421 -0.655 101 116 97
-47.8258 62.9127 89.6389 -0.722 0.425 -0.546 114 127 110
-47.7135 62.8627 89.4834 -0.628 0.425 -0.652 76 89 72
-47.3474 62.9097 89.5438 -0.422 -0.300 -0.856 91 105 81
-47.2067 62.8890 89.4622 -0.858 0.025 -0.514 104 118 93
-47.0658 62.8685 89.3811 -0.737 -0.094 -0.669 116 130 105
-46.9573 62.8151 89.2170 -0.734 -0.097 -0.672 112 126 101
-45.3842 62.4570 87.9632 -0.902 -0.017 -0.431 72 79 46
-45.2832 62.3990 87.7880 -0.833 -0.127 -0.539 61 71 37
-45.1745 62.3486 87.6321 -0.833 -0.127 -0.539 76 83 50
-45.7245 61.2311 84.7135 0.494 -0.265 -0.828 85 94 68
-44.0408 60.7652 83.1482 0.256 0.360 -0.897 102 109 91
-43.5964 60.2032 81.5491 -0.714 0.290 -0.638 139 146 131
-42.5096 59.3103 78.9388 -0.243 0.667 -0.704 142 150 139
-24.8908 56.2785 67.5398 -0.517 0.525 -0.676 75 80 62
-24.4052 56.3490 67.6420 -0.442 0.711 -0.546 86 90 75
-23.4492 56.1553 66.9444 0.102 -0.038 -0.994 99 102 93
-21.6496 56.0330 66.2863 -0.305 0.648 -0.698 95 95 85
-20.3716 56.2147 66.5446 0.439 0.093 -0.894 84 84 74
-19.5795 55.9437 65.6681 -0.287 0.056 -0.956 94 94 86
-19.3093 55.9079 65.5222 -0.234 -0.011 -0.972 85 84 79
-17.2898 55.7093 64.6178 -0.281 0.626 -0.728 78 79 71
-16.6051 55.6954 64.4558 0.030 0.043 -0.999 52 54 43
-16.3784 55.7145 64.4659 0.032 0.019 -0.999 67 69 58
-16.1957 55.7153 64.4350 -0.010 -0.031 -0.999 60 62 51
-15.9816 55.7288 64.4325 -0.010 -0.031 -0.999 62 64 53
-13.6853 55.8417 64.3191 0.278 0.126 -0.952 83 84 76
-13.4884 55.8462 64.2955 0.098 0.324 -0.941 82 83 75
-13.0629 55.9402 64.4720 0.212 0.162 -0.964 83 84 76
-12.8926 55.9339 64.4238 -0.037 -0.048 -0.998 91 94 85
-12.5529 55.6318 63.5460 -0.285 0.538 -0.793 87 88 80
-10.9148 55.7550 63.5803 -0.633 0.632 -0.447 117 118 110
-10.8419 55.7111 63.4486 -0.343 0.406 -0.847 124 126 115
-10.6484 55.7126 63.4174 -0.306 0.414 -0.858 123 125 114
-7.5277 55.7295 62.8946 -0.212 0.297 -0.931 71 74 65
-6.5395 55.6638 62.5372 0.002 -0.148 -0.989 105 108 89
-6.1678 55.7255 62.6363 -0.070 -0.449 -0.891 105 108 91
-5.4955 55.7534 62.5892 0.216 -0.124 -0.969 122 126 111
-5.3035 55.7512 62.5483 0.036 0.228 -0.973 107 111 96
-4.4163 55.7824 62.4710 -0.241 -0.140 -0.960 93 101 80
-2.8836 55.6878 61.9363 -0.203 -0.045 -0.978 107 113 101
-1.6894 55.8150 62.0625 -0.443 0.100 -0.891 106 116 105
-1.5396 55.7968 61.9859 -0.443 0.100 -0.891 112 124 112
-1.4524 55.7577 61.8645 -0.493 0.117 -0.862 120 132 120
-1.2176 55.7675 61.8482 -0.196 0.032 -0.980 98 110 98
-1.0154 55.7664 61.8085 0.025 -0.114 -0.993 101 111 100
-7.3981 52.6968 54.6782 0.199 -0.449 -0.871 117 125 110
-8.7005 51.6069 51.9711 0.420 -0.359 -0.834 100 106 96
-62.5660 66.4282 101.3472 -1.000 -0.006 -0.030 80 69 47
-53.4529 64.9153 95.6017 -0.959 -0.230 -0.168 97 88 72
-53.1805 64.4299 94.2463 -0.320 -0.319 -0.892 98 75 65
-52.0527 63.2740 90.9301 0.349 0.717 -0.603 63 33 35
-48.0541 63.1608 89.8899 -0.305 -0.446 -0.841 123 138 119
-47.9106 63.1432 89.8163 -0.582 0.448 -0.679 132 147 128
-47.7782 63.1138 89.7130 -0.644 0.420 -0.639 145 160 141
-47.6619 63.0677 89.5675 -0.628 0.425 -0.652 35 48 30
-47.4569 63.1143 89.6551 -0.108 -0.579 -0.809 84 97 78
-47.3466 63.0620 89.4940 -0.414 -0.264 -0.871 86 100 76
-46.6708 62.9306 89.0165 -0.478 0.162 -0.863 80 94 69
-45.8701 60.5250 82.3996 -0.521 -0.252 -0.815 128 135 119
-43.9829 60.9626 83.2292 0.269 0.304 -0.914 101 109 88
-43.7951 60.3113 81.4429 -0.577 0.261 -0.774 127 134 116
-43.5892 60.3541 81.5204 -0.694 0.250 -0.675 133 140 124
-43.5652 60.1107 80.8612 -0.113 0.216 -0.970 155 158 149
-42.7939 59.4717 79.0008 -0.772 0.372 -0.515 149 155 143
-42.7510 59.3822 78.7523 -0.045 -0.034 -0.998 142 148 136
-25.5099 56.8681 68.8187 0.043 0.632 -0.774 143 146 127
-24.2218 56.6650 68.0354 -0.581 0.501 -0.642 80 84 69
-24.5094 56.4434 67.4924 -0.252 -0.539 -0.804 87 91 76
-24.4292 56.4003 67.3618 -0.796 -0.437 -0.418 92 96 81
-23.4067 56.3200 66.9576 0.155 0.017 -0.988 94 97 88
-22.2356 56.4657 67.1340 0.030 0.502 -0.864 107 108 100
-21.7476 56.3710 66.7896 0.078 0.462 -0.883 92 93 85
-21.7112 56.3083 66.6142 -0.135 0.385 -0.913 92 93 85
-21.2062 56.2222 66.2898 -0.069 0.138 -0.988 106 106 94
-20.9727 56.2490 66.3190 0.408 0.017 -0.913 118 118 108
-20.6121 56.3327 66.4776 0.416 0.010 -0.909 112 112 102
-20.2813 56.4023 66.6041 0.444 0.087 -0.892 92 92 82
-19.9035 56.4925 66.7769 0.225 0.316 -0.922 86 86 76
-19.8291 56.4468 66.6405 0.064 0.321 -0.945 96 96 86
-19.5422 56.4957 66.7192 -0.003 0.260 -0.966 102 102 94
-19.4998 56.2799 66.1309 -0.978 0.197 0.064 75 75 67
-19.5471 56.1044 65.6678 -0.287 0.056 -0.956 83 83 75
-19.2935 56.0615 65.5055 -0.240 -0.008 -0.971 84 83 79
-17.3579 56.2809 65.7396 -0.338 -0.377 -0.863 89 90 82
-17.3777 56.1963 65.5156 -0.269 -0.414 -0.870 73 74 66
-17.3396 56.1364 65.3477 -0.842 0.303 -0.446 76 77 69
-17.0578 55.9534 64.8035 -0.471 0.510 -0.720 75 76 68
-16.9725 55.9142 64.6825 -0.478 0.032 -0.878 90 92 81
-16.8494 55.8908 64.5968 -0.748 -0.185 -0.637 88 90 79
-16.6868 55.8837 64.5479 -0.313 0.234 -0.920 64 66 55
-16.5081 55.8832 64.5137 -0.039 0.091 -0.995 61 63 52
-16.2899 55.8989 64.5156 -0.047 0.088 -0.995 75 77 66
-16.0864 55.9083 64.5035 -0.046 0.056 -0.997 68 70 59
-15.8460 55.9326 64.5247 -0.048 0.058 -0.997 70 72 61
-14.7099 56.1724 64.9605 0.167 -0.086 -0.982 87 89 78
-14.3921 56.1521 64.8475 -0.331 0.420 -0.845 116 118 107
-14.2767 56.1244 64.7517 -0.373 0.552 -0.745 135 137 126
-14.0702 56.1332 64.7375 -0.173 0.442 -0.880 106 107 99
-13.3016 56.0706 64.4278 -0.202 0.494 -0.846 90 91 83
-13.1760 56.0469 64.3408 -0.302 0.507 -0.807 90 91 83
-12.9608 56.0584 64.3322 -0.296 -0.016 -0.955 83 84 76
-12.7121 55.7925 63.5713 -0.270 0.734 -0.623 87 89 78
-11.3837 55.8005 63.3483 -0.004 0.526 -0.851 106 107 99
-5.9245 55.8972 62.6039 -0.317 -0.315 -0.895 100 103 86
-5.2383 55.9300 62.5658 -0.003 0.311 -0.950 111 115 100
-4.9841 55.9495 62.5715 -0.003 0.311 -0.950 99 103 88
-4.7374 55.9661 62.5709 -0.354 0.274 -0.894 91 95 78
-1.4292 55.9924 62.0328 -0.184 0.519 -0.835 120 132 120
-1.3354 55.9554 61.9160 -0.233 0.472 -0.850 113 125 113
-0.8072 55.9944 61.9239 0.206 0.221 -0.953 102 114 102
-62.5864 66.8662 102.0546 -1.000 0.020 -0.015 83 72 52
-62.6585 66.0351 99.8430 -0.925 0.376 -0.061 85 74 54
-53.3936 65.1476 95.7449 -0.956 -0.243 -0.167 97 90 72
-53.3509 64.9891 95.3126 -0.959 -0.264 -0.099 98 89 71
-53.0169 64.5875 94.1753 -0.607 -0.674 -0.420 86 67 54
-52.8949 64.5400 94.0254 -0.713 -0.563 -0.419 58 31 24
-48.2324 63.4641 90.2785 -0.357 0.378 -0.854 85 98 78
-47.8567 63.3516 89.9074 -0.550 0.450 -0.703 145 158 140
-47.7277 63.3184 89.7945 -0.628 0.425 -0.652 152 165 147
-47.6102 63.2733 89.6517 -0.628 0.425 -0.652 62 75 55
-47.4730 63.2489 89.5610 -0.108 -0.579 -0.809 74 87 66
-47.0466 63.1913 89.3277 -0.661 0.140 -0.737 90 104 79
-46.9360 63.1398 89.1692 -0.578 0.065 -0.813 87 101 76
-46.7980 63.1165 89.0810 -0.518 0.121 -0.847 74 88 63
-46.6599 63.0933 88.9933 -0.518 0.121 -0.847 85 99 73
-46.5218 63.0701 88.9055 -0.518 0.121 -0.847 60 74 48
-46.3994 63.0311 88.7784 -0.561 0.085 -0.823 69 82 56
-45.4747 61.6119 84.8068 0.502 -0.183 -0.846 83 91 70
-44.8280 61.3383 83.9543 0.494 0.531 -0.688 149 156 138
-43.8988 61.1835 83.3671 0.293 0.221 -0.930 103 111 90
-43.5616 60.5225 81.5346 -0.680 0.219 -0.700 130 137 119
-43.5612 60.3899 81.1796 -0.112 0.473 -0.874 138 142 128
-43.3831 60.4091 81.1979 -0.129 0.502 -0.856 155 158 149
-38.8612 59.6322 78.2774 0.469 -0.086 -0.879 152 158 148
-25.2706 56.9637 68.6071 0.393 0.290 -0.873 133 136 115
-24.0115 56.9129 68.2371 -0.585 0.049 -0.810 80 84 69
-24.5056 56.5897 67.4636 -0.298 -0.480 -0.825 87 91 76
-21.9008 56.6872 67.2405 0.454 -0.076 -0.888 111 112 104
-21.6685 56.4738 66.6260 -0.188 0.577 -0.795 89 90 82
-21.2133 56.3649 66.2498 0.065 0.102 -0.993 119 119 109
-20.1870 56.5921 66.6674 0.448 -0.025 -0.894 97 97 87
-19.1688 56.3399 65.8028 -0.181 0.496 -0.849 86 85 81
-17.2181 56.4896 65.8410 -0.348 0.100 -0.932 92 93 85
-17.2435 56.3256 65.4068 -0.668 0.502 -0.550 87 88 80
-17.0938 56.3129 65.3450 -0.688 0.524 -0.501 102 103 95
-17.0278 56.2649 65.2041 -0.688 0.524 -0.501 101 102 94
-17.0551 56.1777 64.9757 -0.644 0.558 -0.524 84 85 77
-14.3865 56.3049 64.8202 -0.090 -0.493 -0.866 131 133 122
-13.6284 56.2389 64.5027 -0.182 0.656 -0.732 96 97 89
-13.0188 56.2602 64.4464 -0.252 0.470 -0.846 96 98 87
-12.9397 56.2179 64.3185 -0.348 0.382 -0.856 89 91 80
-12.7467 56.2206 64.2900 -0.479 0.503 -0.720 89 91 80
-12.5151 56.2384 64.2945 -0.187 0.149 -0.971 86 88 77
-12.2643 55.9724 63.5356 -0.099 0.709 -0.699 93 94 86
-12.0535 55.9818 63.5218 -0.348 0.752 -0.560 92 93 85
-11.9524 55.9488 63.4146 -0.348 0.752 -0.560 97 98 90
-11.7202 55.9663 63.4182 -0.292 0.717 -0.634 94 95 87
-10.7114 56.0645 63.4936 -0.029 0.204 -0.979 110 112 101
-10.2717 56.1595 63.6664 0.101 0.445 -0.890 95 95 85
-9.9207 56.2204 63.7640 0.067 0.482 -0.874 81 81 71
-9.3401 56.0798 63.2798 -0.827 0.406 -0.390 90 92 81
-9.3720 55.9968 63.0634 -0.119 0.559 -0.821 95 97 86
-7.3920 56.0873 62.9377 -0.090 0.229 -0.969 71 74 64
-7.2117 56.0821 62.8904 -0.111 0.233 -0.966 93 97 82
-6.9370 56.0406 62.7282 -0.216 0.238 -0.947 106 109 88
-6.9692 55.9590 62.5156 -0.324 -0.091 -0.942 115 118 97
-5.0487 56.1528 62.6777 0.032 0.309 -0.950 115 119 104
-4.8179 56.1642 62.6651 -0.012 0.372 -0.928 103 107 92
-4.5590 56.1852 62.6733 -0.571 0.537 -0.621 101 105 90
-4.3903 56.1048 62.4267 -0.236 -0.333 -0.913 92 99 81
-4.0688 56.0778 62.2947 -0.267 0.435 -0.860 90 98 77
-2.7310 56.1233 62.1679 0.044 0.220 -0.975 95 103 90
-2.5065 56.1309 62.1465 0.064 0.185 -0.981 100 108 95
-1.5946 56.3024 62.4361 0.188 0.147 -0.971 86 97 83
-0.9982 56.3653 62.4936 0.354 0.397 -0.847 101 113 101
-52.9018 64.6812 93.9426 -0.719 -0.609 -0.336 77 57 47
-52.7905 64.6200 93.7586 -0.830 -0.432 -0.354 60 31 28
-49.9771 63.6193 90.5634 -0.367 0.640 -0.674 89 97 73
-49.5520 63.9250 91.2984 0.113 -0.562 -0.819 76 84 60
-47.8026 63.5607 89.9989 -0.550 0.450 -0.703 102 115 97
-47.6957 63.5037 89.8271 -0.641 0.341 -0.687 113 126 108
-47.5598 63.4778 89.7325 -0.625 0.408 -0.666 75 88 70
-47.4583 63.4157 89.5478 -0.632 0.419 -0.652 77 89 70
-47.3412 63.3703 89.4050 -0.632 0.419 -0.652 96 110 88
-47.1555 63.3966 89.4402 -0.604 0.192 -0.773 97 111 88
-47.0256 63.3647 89.3307 -0.604 0.192 -0.773 97 111 88
-46.9124 63.3155 89.1785 -0.415 0.327 -0.849 95 109 86
-46.7727 63.2939 89.0945 -0.436 0.322 -0.840 94 107 85
-46.6414 63.2636 88.9892 -0.424 0.275 -0.863 75 89 64
-46.5002 63.2436 88.9093 -0.435 0.277 -0.857 77 89 66
-46.3721 63.2102 88.7964 -0.684 0.287 -0.671 58 71 46
-46.2545 63.1665 88.6577 -0.684 0.287 -0.671 71 81 56
-46.1477 63.1121 88.4927 -0.814 0.222 -0.537 93 103 76
-45.4330 63.0215 88.1170 -0.654 -0.288 -0.699 94 104 72
-39.0287 59.3070 77.0142 -0.994 0.014 -0.113 146 157 141
-38.9956 59.2169 76.7678 -0.981 -0.074 -0.179 145 156 139
-24.2656 56.9345 67.9194 -0.537 0.647 -0.542 83 87 72
-24.5232 56.7255 67.4108 -0.565 0.680 -0.466 99 103 88
-23.7389 56.6132 66.9642 0.078 0.335 -0.939 84 87 78
-22.5580 56.7684 67.1563 0.153 0.417 -0.896 83 86 77
-21.3102 56.8661 67.1825 -0.113 0.584 -0.804 87 88 80
-21.5204 56.6883 66.7481 -0.180 0.559 -0.809 87 88 80
-20.9503 56.5516 66.2766 0.393 -0.079 -0.916 100 100 90
-20.5892 56.6366 66.4355 0.403 0.020 -0.915 78 78 68
-20.2428 56.7144 66.5777 0.400 -0.026 -0.916 88 88 78
-19.2929 56.8245 66.6930 -0.547 0.690 -0.475 95 95 87
-18.2894 56.6398 66.0122 -0.705 0.434 -0.561 70 69 65
-18.2187 56.5929 65.8740 -0.631 0.459 -0.625 67 66 62
-17.5370 56.6561 65.9144 -0.181 0.475 -0.861 115 114 109
-17.2242 56.6361 65.8025 -0.351 0.107 -0.930 97 98 90
-16.9597 56.4422 65.2361 -0.693 0.508 -0.511 116 118 107
-16.8097 56.3537 64.9720 -0.441 0.513 -0.736 95 97 86
-14.9287 56.3833 64.6978 -0.013 -0.489 -0.872 115 117 104
-14.5920 56.4463 64.8026 0.079 -0.463 -0.883 114 116 103
-14.2683 56.4287 64.6948 -0.067 -0.489 -0.870 124 124 114
-13.8440 56.4515 64.6759 0.079 -0.438 -0.896 88 88 78
-13.5315 56.4286 64.5562 0.151 0.192 -0.970 95 95 87
-13.3113 56.4427 64.5526 0.124 0.139 -0.982 101 101 93
-13.0556 56.4709 64.5796 -0.161 0.275 -0.948 103 103 93
-12.9210 56.4504 64.4998 -0.237 0.368 -0.899 108 108 98
-12.5198 56.4619 64.4551 -0.929 -0.270 -0.254 102 102 90
-12.3587 56.2316 63.8109 -0.518 -0.099 -0.849 87 89 76
-12.0906 56.2636 63.8459 -0.150 0.014 -0.989 87 89 78
-11.7954 56.2330 63.7091 -0.433 0.703 -0.564 95 96 88
-11.7042 56.1958 63.5928 -0.433 0.703 -0.564 83 84 76
-11.4243 56.2317 63.6359 -0.278 0.250 -0.928 86 87 79
-11.4255 56.1589 63.4420 -0.303 0.701 -0.646 85 86 78
-10.7903 56.2586 63.5885 -0.030 0.087 -0.996 89 89 81
-10.4439 56.3189 63.6843 0.034 -0.131 -0.991 86 86 76
-10.2241 56.3305 63.6738 0.032 -0.121 -0.992 79 79 69
-9.6611 56.3999 63.7531 -0.238 0.553 -0.798 76 76 66
-9.4972 56.3896 63.6950 -0.269 0.604 -0.750 76 76 66
-9.2217 56.2774 63.3441 -0.568 0.564 -0.599 98 100 89
-6.7725 56.2548 62.8244 -0.293 0.135 -0.946 119 122 101
-6.6709 56.2210 62.7152 -0.680 0.050 -0.731 121 124 103
-6.4792 56.2197 62.6758 -0.327 -0.297 -0.897 107 111 88
-5.1087 56.3582 62.7876 0.196 0.239 -0.951 112 116 101
-4.9184 56.3554 62.7444 0.023 0.314 -0.949 111 115 100
-4.6515 56.3796 62.7588 0.023 0.314 -0.949 105 109 94
-4.4769 56.3710 62.7031 -0.579 0.538 -0.613 105 109 94
-4.5093 56.2895 62.4920 -0.308 0.227 -0.924 97 104 87
-4.3925 56.2607 62.3932 -0.270 0.248 -0.930 91 98 80
-7.2554 53.2285 54.8487 -0.630 0.497 -0.597 107 113 99
-52.8937 64.8420 93.9098 -0.761 -0.482 -0.435 96 79 68
-52.7805 64.5766 93.1840 -0.992 0.089 -0.088 61 31 31
-51.3117 64.4393 92.5412 0.331 -0.530 -0.781 62 30 35
-49.6475 65.2874 94.4764 -0.921 -0.314 -0.232 77 67 52
-49.5843 64.0389 91.1515 0.113 -0.582 -0.805 81 89 67
-49.3661 64.1063 91.2888 -0.593 -0.784 -0.182 68 76 52
-47.7820 63.7343 90.0016 -0.585 0.331 -0.741 65 76 61
-47.6539 63.6997 89.8854 -0.641 0.341 -0.687 101 112 98
-47.5101 63.6819 89.8111 -0.625 0.408 -0.666 82 93 77
-47.4009 63.6276 89.6461 -0.630 0.409 -0.660 91 102 86
-46.7587 63.4598 89.0790 -0.459 0.396 -0.796 107 120 102
-46.6138 63.4434 89.0082 -0.445 0.265 -0.855 66 77 58
-46.4563 63.4400 88.9692 -0.599 0.208 -0.773 93 105 85
-46.3347 63.3998 88.8395 -0.684 0.287 -0.671 51 63 42
-46.2318 63.3409 88.6639 -0.677 0.326 -0.660 57 67 43
-45.4401 63.1662 88.0502 -0.651 -0.272 -0.709 85 94 65
-45.2603 61.3769 83.2682 -0.240 -0.397 -0.886 144 151 135
-43.8899 61.9112 84.4262 0.606 0.328 -0.725 128 136 115
-43.3880 60.9620 81.8122 -0.501 -0.439 -0.746 142 149 131
-43.3331 60.7408 81.2150 -0.051 -0.078 -0.996 151 154 145
-41.5720 59.7660 78.2943 -0.001 0.512 -0.859 149 157 142
-39.0035 59.4687 77.0187 -0.995 0.026 -0.094 139 150 134
-38.9723 59.3768 76.7690 -0.989 0.042 -0.144 138 151 133
-38.9325 59.2918 76.5358 -0.974 -0.172 -0.147 138 151 133
-38.9352 59.1765 76.2302 -0.887 -0.391 -0.246 140 153 135
-26.1041 57.0871 68.2539 -0.352 0.319 -0.880 142 145 128
-24.7590 56.9198 67.5551 -0.596 -0.748 -0.291 81 85 67
-24.1296 57.1467 68.0380 -0.537 0.647 -0.542 87 91 76
-24.3457 56.9569 67.5753 -0.554 0.695 -0.458 98 102 87
-24.4867 56.8049 67.1987 -0.669 0.519 -0.532 105 109 94
-21.6383 57.1040 67.4523 0.314 0.300 -0.901 103 104 96
-21.3340 57.0022 67.1246 -0.432 0.647 -0.629 87 88 80
-21.5367 56.8270 66.6981 -0.147 0.388 -0.910 87 88 80
-21.3377 56.5994 66.0565 -0.083 -0.438 -0.895 72 72 62
-19.3697 56.9384 66.5829 -0.555 -0.235 -0.798 82 82 74
-18.8795 56.8411 66.2320 -0.573 0.566 -0.593 101 101 93
-18.4904 56.7779 65.9904 -0.361 0.236 -0.902 73 75 65
-17.4243 56.8541 65.9904 -0.379 0.523 -0.763 117 118 109
-17.4844 56.7503 65.7264 -0.090 -0.046 -0.995 88 89 80
-17.2005 56.7955 65.7926 -0.365 0.138 -0.921 82 83 75
-16.8675 56.5537 65.0878 -0.542 0.442 -0.715 93 95 84
-16.6732 56.5600 65.0677 -0.431 0.519 -0.738 112 114 103
-16.3414 56.5482 64.9736 -0.306 0.638 -0.707 115 117 104
-13.8855 56.5854 64.6068 0.079 -0.438 -0.896 72 72 62
-13.2390 56.6979 64.7827 0.309 0.061 -0.949 108 108 98
-13.1912 56.6423 64.6262 0.141 0.153 -0.978 117 117 107
-12.9185 56.6775 64.6678 -0.144 0.316 -0.938 110 110 100
-12.3834 56.5938 64.3444 -0.469 -0.090 -0.879 114 115 101
-12.2862 56.5584 64.2319 -0.449 -0.042 -0.893 94 95 80
-12.3038 56.4042 63.8261 -0.273 0.086 -0.958 94 95 81
-11.9967 56.4518 63.8943 -0.060 -0.161 -0.985 104 104 93
-11.7807 56.4633 63.8839 -0.201 0.231 -0.952 127 128 120
-11.5781 56.4694 63.8616 -0.456 0.130 -0.881 119 120 112
-11.4392 56.4505 63.7851 -0.288 0.059 -0.956 84 85 77
-11.2856 56.4373 63.7210 -0.305 0.007 -0.952 99 100 92
-11.1214 56.4282 63.6657 -0.535 0.066 -0.842 107 108 100
-10.9995 56.4026 63.5747 -0.598 0.028 -0.801 86 86 78
-10.4964 56.4513 63.6087 -0.070 -0.209 -0.975 83 83 73
-10.2846 56.4601 63.5917 -0.070 -0.209 -0.975 86 86 76
-9.6891 56.6155 63.8912 0.293 -0.520 -0.802 81 81 71
-9.5599 56.5920 63.8043 0.378 -0.354 -0.855 76 76 66
-9.1153 56.6885 63.9763 0.305 -0.501 -0.810 76 76 66
-8.7569 56.7517 64.0759 0.278 -0.486 -0.829 82 82 72
-8.8592 56.4952 63.4148 -0.124 0.624 -0.771 107 109 98
-8.2434 56.5101 63.3374 -0.023 0.376 -0.926 74 77 66
-8.0866 56.4967 63.2722 -0.133 0.362 -0.923 99 102 93
-7.9893 56.4611 63.1594 -0.154 0.188 -0.970 121 124 115
-7.2562 56.4461 62.9806 -0.127 0.163 -0.979 106 109 99
-7.0685 56.4437 62.9388 -0.115 0.183 -0.976 104 108 93
-6.6490 56.4548 62.8886 -0.387 0.502 -0.773 111 114 93
-6.5414 56.4230 62.7837 -0.595 0.436 -0.676 108 111 90
-4.7876 56.5587 62.8114 0.044 0.374 -0.926 109 113 98
-4.5054 56.5885 62.8370 0.044 0.374 -0.926 105 109 94
-4.4047 56.5536 62.7254 -0.585 0.516 -0.626 105 109 94
-4.4262 56.4755 62.5223 -0.225 0.308 -0.924 96 103 85
-4.3082 56.4470 62.4243 -0.170 0.424 -0.890 91 99 78
-62.6181 67.9283 103.4678 -0.998 0.061 -0.032 96 88 67
-62.6137 67.2353 101.6363 -0.997 0.060 -0.047 99 86 67
-62.5653 67.0006 101.0069 -0.996 0.004 -0.090 96 83 64
-57.2713 68.0749 102.8321 -0.946 0.300 -0.119 89 83 61
-52.7160 65.0183 93.8853 -0.972 0.193 -0.135 96 76 71
-52.6938 64.8397 93.4093 -0.935 0.336 -0.112 76 55 52
-51.1699 64.5693 92.4032 0.186 -0.663 -0.725 60 31 33
-50.5695 64.7203 92.6872 0.375 -0.483 -0.791 66 54 40
-49.5256 65.3929 94.2644 -0.912 -0.383 0.147 72 60 46
-49.9185 63.9862 90.6233 -0.773 0.276 -0.571 91 98 80
-48.4878 64.1658 90.8240 -0.278 0.574 -0.770 83 91 68
-47.7575 63.9122 90.0143 -0.618 0.274 -0.737 72 82 72
-47.6455 63.8602 89.8555 -0.605 0.276 -0.747 108 116 105
-47.5021 63.8420 89.7801 -0.501 0.264 -0.825 87 95 84
-47.3870 63.7938 89.6306 -0.439 0.269 -0.857 98 106 93
-47.2450 63.7742 89.5517 -0.439 0.269 -0.857 86 97 83
-46.6928 63.6795 89.1958 -0.452 0.316 -0.834 126 137 123
-46.5857 63.6240 89.0286 -0.456 0.244 -0.856 113 124 108
-46.4301 63.6184 88.9842 -0.593 0.186 -0.783 88 99 83
-46.2998 63.5870 88.8762 -0.661 0.206 -0.721 73 82 65
-46.2022 63.5224 88.6871 -0.661 0.314 -0.682 59 68 49
-43.1046 61.2172 82.0044 -0.455 -0.155 -0.877 131 137 123
-39.6936 60.5205 79.5110 0.410 -0.076 -0.909 158 161 152
-39.5516 60.5073 79.4490 -0.294 -0.390 -0.873 150 156 146
-39.1190 59.5271 76.7766 -0.992 -0.099 0.083 143 154 138
-38.8867 59.3540 76.2749 -0.837 -0.524 -0.158 141 154 136
-25.9833 57.2929 68.3608 -0.457 0.457 -0.763 142 145 128
-24.3947 56.9942 67.2677 -0.669 0.519 -0.532 96 100 85
-23.9121 56.8999 66.9262 -0.388 0.834 -0.393 100 104 91
-21.1857 57.2188 67.2468 -0.725 -0.134 -0.676 88 88 82
-21.3198 57.0746 66.8916 -0.975 -0.155 -0.161 87 88 82
-19.2752 57.1293 66.6450 -0.481 -0.271 -0.834 89 90 82
-19.2613 57.0559 66.4482 0.253 0.415 -0.874 84 86 77
-18.8833 57.1464 66.6151 0.254 0.410 -0.876 104 105 97
-18.5169 56.6803 65.3136 -0.276 -0.690 -0.669 114 116 104
-17.5139 56.8861 65.6655 0.002 0.034 -0.999 89 91 80
-17.2348 56.9298 65.7273 -0.344 0.280 -0.896 99 101 90
-16.9768 56.8089 65.3587 -0.527 0.554 -0.644 86 88 77
-16.8783 56.7742 65.2482 -0.527 0.554 -0.644 86 88 77
-16.8395 56.7141 65.0819 -0.431 0.490 -0.758 82 84 73
-16.6835 56.7042 65.0259 -0.315 0.469 -0.825 114 116 105
-16.1701 56.7697 65.1007 -0.049 0.466 -0.883 114 116 103
-15.3421 56.6618 64.6573 0.080 0.121 -0.989 107 109 96
-15.0341 56.6390 64.5381 -0.110 0.214 -0.971 117 119 106
-14.4627 56.6495 64.4563 -0.736 0.005 -0.677 84 84 72
-12.3288 56.7674 64.3595 -0.901 -0.248 -0.356 128 126 111
-12.2478 56.6512 64.0371 -0.678 -0.030 -0.735 102 103 87
-12.1946 56.5985 63.8877 -0.308 0.058 -0.950 99 100 86
-11.9344 56.6279 63.9155 -0.142 -0.117 -0.983 100 100 89
-11.7395 56.6312 63.8869 -0.142 -0.117 -0.983 117 118 110
-11.5319 56.6394 63.8688 -0.459 0.116 -0.881 108 109 101
-11.3918 56.6209 63.7932 -0.459 0.116 -0.881 80 81 73
-11.1068 56.5858 63.6459 -0.594 0.111 -0.797 127 129 118
-10.9758 56.5637 63.5626 -0.598 0.028 -0.801 86 86 78
-10.7139 56.5925 63.5885 -0.072 -0.193 -0.978 97 97 89
-10.4635 56.6166 63.6041 0.017 -0.124 -0.992 93 93 83
-10.2776 56.6154 63.5656 -0.074 -0.203 -0.976 86 86 76
-9.7636 56.7405 63.7976 0.292 -0.509 -0.810 83 83 73
-9.5476 56.7504 63.7823 0.352 -0.401 -0.845 82 82 72
-9.1582 56.8265 63.9089 0.291 -0.489 -0.822 82 82 72
-8.8017 56.8895 64.0071 0.285 -0.496 -0.820 83 83 73
-9.1483 56.6844 63.5315 0.173 0.352 -0.920 110 112 101
-8.4583 56.5836 63.1333 -0.455 0.533 -0.713 74 77 66
-8.3074 56.5683 63.0640 -0.540 0.512 -0.668 98 101 92
-8.0138 56.6062 63.1080 -0.140 0.196 -0.971 114 117 108
-7.7280 56.6409 63.1450 -0.298 0.302 -0.906 108 111 100
-7.5338 56.6413 63.1089 -0.163 0.173 -0.971 99 102 93
-7.3203 56.6487 63.0877 -0.221 0.124 -0.967 101 104 96
-7.2236 56.6128 62.9743 -0.050 0.018 -0.999 102 105 95
-6.9799 56.6312 62.9762 -0.061 0.083 -0.995 101 105 91
-6.7083 56.6596 62.9992 -0.053 0.040 -0.998 97 100 82
-6.5722 56.6381 62.9163 -0.387 0.507 -0.770 95 98 78
-6.4358 56.6166 62.8336 -0.387 0.507 -0.770 98 100 80
-2.1410 57.2287 63.6288 0.027 0.769 -0.639 89 97 74
-1.8784 54.1991 55.5748 0.131 -0.704 -0.698 72 81 62
-62.5785 67.4574 101.7511 -0.995 0.078 -0.065 98 87 66
-62.5083 67.2702 101.2450 -0.985 -0.072 -0.156 94 83 63
-52.7488 65.5482 94.8308 -0.869 0.259 -0.422 109 97 81
-52.6821 65.4245 94.4924 -0.903 0.307 -0.301 108 97 83
-52.4907 65.4676 94.5690 -0.867 0.485 -0.118 102 90 79
-52.5201 65.2186 93.9197 -0.867 0.482 -0.128 87 74 69
-52.5830 64.1204 91.0434 -0.505 0.766 -0.397 54 31 33
-52.4433 64.1017 90.9672 0.153 0.321 -0.935 58 27 33
-50.5068 64.9481 92.8192 0.530 -0.301 -0.793 66 57 42
-49.5205 65.5539 94.2221 -0.869 -0.479 0.125 76 64 50
-49.6798 64.7882 92.2390 -0.847 0.187 -0.498 63 67 46
-49.8697 64.1926 90.7093 -0.944 0.106 -0.311 88 93 75
-49.7936 64.0977 90.4447 -0.811 -0.422 -0.405 98 101 85
-47.6847 64.1424 90.1551 -0.749 0.048 -0.661 98 106 95
-47.6032 64.0571 89.9151 -0.611 0.112 -0.784 91 99 88
-47.4674 64.0307 89.8193 -0.501 0.264 -0.825 79 87 76
-46.6569 63.8685 89.2361 -0.525 0.048 -0.850 139 147 136
-46.5542 63.8081 89.0573 -0.416 0.184 -0.890 121 129 117
-46.3937 63.8077 89.0252 -0.661 0.206 -0.721 65 73 62
-46.2698 63.7694 88.9007 -0.661 0.206 -0.721 92 100 86
-46.1461 63.7312 88.7764 -0.661 0.206 -0.721 95 104 87
-43.0817 61.3830 82.0082 -0.461 -0.158 -0.873 120 127 111
-42.5282 61.4533 82.0862 -0.631 -0.675 -0.381 149 155 145
-39.5398 60.6626 79.4293 -0.333 -0.442 -0.833 153 159 149
-39.4352 60.6207 79.2987 -0.680 -0.527 -0.509 152 155 144
-39.1334 59.7751 77.0165 -0.996 -0.080 -0.033 127 135 122
-38.9553 59.4463 76.1172 -0.844 -0.518 -0.138 141 152 135
-38.8448 59.4133 76.0090 -0.148 -0.644 -0.751 141 152 135
-38.8146 59.3221 75.7635 0.152 -0.425 -0.892 141 152 135
-38.4352 59.2592 75.5246 -0.511 -0.853 -0.104 142 151 134
-25.6343 57.4445 68.2791 -0.454 0.461 -0.763 130 135 115
-21.2973 57.1507 66.6685 -0.568 0.236 -0.788 93 89 87
-20.2683 57.0642 66.2424 -0.005 0.465 -0.885 80 79 75
-18.7939 56.7827 65.2170 -0.765 -0.638 -0.083 122 124 109
-16.8288 57.0218 65.4663 -0.519 0.531 -0.670 71 73 62
-16.0256 56.9805 65.2027 -0.058 0.473 -0.879 114 116 103
-15.8989 56.9576 65.1180 -0.371 0.560 -0.741 105 107 94
-15.9798 56.8466 64.8417 -0.165 0.217 -0.962 97 99 86
-15.9739 56.7729 64.6465 -0.234 -0.322 -0.917 90 92 79
-15.2772 56.8383 64.6842 0.080 0.121 -0.989 94 96 83
-14.8902 56.8485 64.6361 -0.122 0.247 -0.961 110 112 99
-14.0841 56.8803 64.5641 0.026 -0.307 -0.951 86 86 76
-13.6015 56.9279 64.5960 0.091 -0.326 -0.941 90 87 78
-13.2702 56.9881 64.6905 0.346 -0.065 -0.936 92 92 82
-13.1221 56.9732 64.6226 0.159 -0.176 -0.971 86 86 76
-12.9243 56.9784 64.5982 0.097 -0.189 -0.977 79 79 67
-12.2281 56.8850 64.2179 -0.202 -0.126 -0.971 127 128 114
-12.2821 56.7889 63.9757 -0.452 0.209 -0.867 114 115 101
-12.1639 56.7620 63.8821 -0.163 0.268 -0.950 99 99 87
-11.8965 56.7945 63.9159 -0.153 0.057 -0.987 97 97 87
-11.6439 56.8208 63.9363 -0.218 0.159 -0.963 109 110 102
-11.4925 56.8068 63.8702 -0.459 0.116 -0.881 108 109 103
-11.3523 56.7884 63.7946 -0.459 0.116 -0.881 88 89 82
-11.2287 56.7634 63.7051 -0.305 0.007 -0.952 102 103 95
-11.0721 56.7514 63.6432 -0.594 0.111 -0.797 123 123 113
-10.9524 56.7249 63.5503 -0.594 0.111 -0.797 86 88 77
-10.7350 56.7365 63.5390 -0.257 0.117 -0.959 105 105 95
-10.4717 56.7659 63.5653 -0.111 0.127 -0.986 98 98 88
-10.2652 56.7729 63.5439 0.032 -0.125 -0.992 92 92 82
-9.8546 56.8588 63.6905 0.292 -0.509 -0.810 90 90 80
-8.8501 57.0256 63.9353 0.269 -0.482 -0.834 78 79 68
-8.9938 56.8972 63.6252 0.172 0.346 -0.922 110 112 101
-7.6437 56.8994 63.3704 -0.298 0.543 -0.785 107 113 101
-7.5291 56.8699 63.2707 -0.370 0.525 -0.766 98 104 94
-7.3012 56.8828 63.2606 -0.306 0.510 -0.804 86 92 82
-7.1792 56.8561 63.1668 -0.005 0.487 -0.873 92 95 86
-7.0489 56.8325 63.0795 -0.325 0.366 -0.872 100 103 93
-6.8126 56.8482 63.0751 -0.319 0.380 -0.868 94 97 85
-6.6583 56.8334 63.0063 -0.107 0.228 -0.968 78 82 68
-2.3038 57.2596 63.2863 -0.274 0.709 -0.650 86 95 74
-62.5764 67.6053 101.6766 -0.977 0.182 -0.111 102 94 75
-62.4264 67.5964 101.6239 -0.951 -0.155 -0.267 93 85 66
-52.4028 65.3152 93.6962 -0.788 0.541 -0.293 85 76 67
-52.3745 65.1449 93.2449 -0.792 0.537 -0.290 78 69 59
-52.5391 64.3236 91.1262 -0.708 0.647 -0.283 56 38 35
-50.5039 65.1033 92.7712 0.528 -0.291 -0.798 63 53 36
-49.5980 65.2280 92.9211 -0.816 -0.474 -0.330 62 58 41
-49.6604 64.9631 92.2396 -0.928 0.373 -0.020 60 65 43
-49.8549 64.3597 90.6974 -0.921 0.026 -0.389 85 91 70
-49.7636 64.2820 90.4763 -0.921 0.026 -0.389 92 95 78
-49.5008 64.4036 90.7434 -0.666 -0.696 -0.268 99 104 84
-47.9201 64.3877 90.3935 -0.649 0.204 -0.733 91 99 86
-47.8064 64.3364 90.2371 -0.616 0.211 -0.759 75 83 72
-47.6571 64.3241 90.1759 -0.776 0.008 -0.630 111 119 108
-46.3687 63.9853 89.0373 -0.585 0.020 -0.811 62 72 61
-46.2537 63.9377 88.8903 -0.633 0.127 -0.764 99 107 93
-46.1202 63.9094 88.7902 -0.675 0.183 -0.715 123 132 114
-39.1425 59.9115 76.9609 -0.996 -0.080 -0.033 105 113 100
-38.9261 59.6098 76.1285 -0.966 -0.069 -0.251 133 142 125
-38.8274 59.5681 76.0001 -0.121 0.420 -0.899 142 153 136
-37.9031 59.7846 76.3869 -0.446 -0.173 -0.878 142 151 134
-23.6950 57.4621 67.5351 -0.441 0.797 -0.412 98 102 88
-21.2449 57.4854 67.1186 -0.518 -0.485 -0.705 87 83 80
-20.9880 57.2799 66.5304 -0.293 0.217 -0.931 82 81 77
-17.4940 57.1922 65.6196 0.019 -0.101 -0.995 111 113 102
-17.1534 57.1852 65.5348 -0.494 0.031 -0.869 99 101 90
-16.7875 57.1888 65.4729 -0.352 -0.191 -0.916 78 80 69
-16.6321 57.1784 65.4155 -0.352 -0.191 -0.916 79 81 70
-16.5313 57.1444 65.3067 -0.203 -0.105 -0.974 97 99 86
-15.8772 57.0394 64.9042 -0.508 -0.122 -0.853 100 102 89
-15.9235 56.9430 64.6608 -0.205 -0.425 -0.882 86 88 75
-15.5876 57.0092 64.7688 -0.495 0.035 -0.868 79 81 68
-15.2146 57.0142 64.7090 0.212 -0.088 -0.973 77 79 66
-14.7811 57.0440 64.7026 0.021 0.198 -0.980 102 104 91
-13.2887 57.1319 64.6419 0.313 -0.011 -0.950 81 81 71
-12.2170 57.0411 64.1953 -0.202 -0.126 -0.971 125 126 112
-12.1604 56.9892 64.0482 -0.425 0.242 -0.872 111 112 98
-12.0579 56.9558 63.9408 -0.151 0.257 -0.954 95 95 83
-11.8551 56.9626 63.9191 -0.153 0.057 -0.987 82 84 73
-11.6224 56.9813 63.9225 -0.200 0.097 -0.975 99 100 92
-11.4663 56.9691 63.8604 -0.447 0.111 -0.888 105 106 98
-11.2869 56.9662 63.8179 -0.464 0.128 -0.876 94 95 87
-11.1628 56.9414 63.7285 -0.271 0.053 -0.961 103 105 95
-11.0017 56.9311 63.6703 -0.414 0.006 -0.910 110 112 101
-10.9276 56.8866 63.5392 -0.527 -0.117 -0.842 96 98 87
-10.6871 56.9075 63.5470 -0.257 0.117 -0.959 112 112 102
-10.3916 56.9496 63.5998 -0.110 0.137 -0.984 105 105 95
-10.1758 56.9604 63.5859 0.048 -0.134 -0.990 99 99 89
-8.4088 57.1290 63.6829 -0.808 -0.396 -0.437 69 71 60
-8.1722 57.1460 63.6814 -0.827 -0.164 -0.538 66 68 57
-7.9710 57.0762 63.4594 -0.829 -0.138 -0.541 94 97 86
-7.8820 57.0370 63.3394 -0.825 -0.129 -0.550 103 109 97
-7.7264 57.0231 63.2726 -0.633 0.124 -0.764 108 114 102
-7.4608 57.0505 63.2927 -0.201 0.570 -0.797 108 114 104
-7.1689 57.0877 63.3330 -0.014 0.470 -0.883 98 104 94
-62.3812 69.2796 105.5443 -0.806 0.553 -0.210 96 93 76
-62.1832 67.9383 102.0082 -0.464 0.788 -0.406 92 85 66
-57.0838 68.2981 101.9431 -0.990 0.139 -0.028 86 79 60
-52.1657 65.5693 93.8612 -0.697 0.678 -0.231 91 87 72
-52.2156 65.2966 93.1598 -0.707 0.670 -0.228 80 76 62
-52.3009 64.9806 92.3529 -0.723 0.660 -0.207 67 60 48
-52.1868 64.5257 91.1444 -0.889 -0.216 -0.403 56 29 29
-52.0516 64.5005 91.0522 -0.946 -0.026 -0.322 56 29 31
-51.6731 64.7827 91.7134 0.228 -0.604 -0.763 59 29 33
-49.7565 65.1916 92.4024 -0.680 0.454 -0.576 55 50 33
-50.3188 63.6023 88.3694 -0.646 0.294 -0.705 84 89 69
-48.1249 64.6681 90.7165 -0.827 -0.215 -0.519 90 99 78
-48.0115 64.6156 90.5575 -0.827 -0.215 -0.519 89 98 81
-46.3471 64.1595 89.0408 -0.600 0.167 -0.783 81 91 80
-46.0894 64.0929 88.8165 -0.604 0.199 -0.772 122 131 113
-43.0108 61.7368 82.0680 -0.153 -0.077 -0.985 116 123 107
-41.8214 61.9459 82.3791 -0.992 0.048 0.121 142 148 136
-39.9131 60.0604 77.0879 0.304 -0.001 -0.953 149 155 143
-39.7201 60.0892 77.1250 0.306 -0.003 -0.952 148 154 142
-39.1004 60.2038 77.3018 -0.326 0.651 -0.686 128 134 122
-39.1179 60.0730 76.9643 -0.995 -0.091 -0.048 122 130 115
-38.7207 59.6744 75.8469 0.308 -0.270 -0.912 127 136 119
-38.5094 59.7151 75.9114 0.305 -0.292 -0.906 135 142 126
-38.4327 59.6574 75.7460 -0.758 0.602 -0.251 142 149 133
-37.9028 59.9284 76.3483 -0.461 -0.134 -0.877 145 151 137
-37.7657 59.9137 76.2829 -0.445 -0.197 -0.874 144 150 136
-27.6412 57.5477 68.1225 -0.209 0.857 -0.471 154 158 143
-26.8119 57.9020 68.8832 -0.510 0.680 -0.526 146 150 133
-23.4115 57.7483 67.8136 -0.711 0.652 -0.264 98 100 87
-23.2616 57.7381 67.7574 -0.568 0.721 -0.397 107 109 97
-20.7899 57.5196 66.7017 -0.658 -0.178 -0.732 76 75 71
-20.8597 57.4054 66.4175 -0.105 0.482 -0.870 75 74 70
-20.4834 57.4193 66.3798 -0.105 0.482 -0.870 167 166 162
-20.2287 57.4570 66.4279 -0.002 0.381 -0.925 143 142 138
-17.2584 57.4452 65.8128 -0.412 -0.485 -0.771 110 112 100
-17.0439 57.3822 65.6065 -0.880 -0.070 -0.470 92 94 83
-16.9285 57.3544 65.5113 -0.895 -0.017 -0.447 92 94 83
-16.6828 57.3054 65.3353 -0.671 -0.231 -0.705 92 94 83
-16.5676 57.2777 65.2403 -0.303 0.058 -0.951 94 96 83
-15.3088 57.2774 64.9919 -0.391 0.689 -0.610 83 85 72
-15.1678 57.2604 64.9198 0.040 0.465 -0.884 80 82 69
-15.0618 57.2285 64.8158 0.040 0.476 -0.879 77 79 66
-14.9719 57.1899 64.6975 0.080 0.316 -0.945 97 99 86
-14.2452 57.1899 64.5546 -0.378 0.071 -0.923 96 96 84
-14.0935 57.1771 64.4915 -0.378 0.071 -0.923 103 103 93
-13.2340 57.3058 64.6579 0.313 -0.011 -0.950 88 88 78
-13.0966 57.2865 64.5805 0.176 -0.185 -0.967 89 89 79
-12.8410 57.3158 64.6066 0.159 -0.176 -0.971 89 89 77
-12.1890 57.2042 64.1873 -0.233 -0.056 -0.971 100 101 87
-12.0261 57.1950 64.1314 -0.439 0.599 -0.669 83 85 71
-12.0723 57.1015 63.8965 -0.185 0.304 -0.935 68 70 56
-11.6173 57.1351 63.8948 -0.270 -0.008 -0.963 92 95 84
-11.4478 57.1285 63.8441 -0.429 0.097 -0.898 105 108 99
-11.1419 57.1017 63.7141 -0.254 0.049 -0.966 104 106 95
-10.8265 57.0785 63.5917 -0.414 0.006 -0.910 99 101 90
-10.6346 57.0804 63.5588 -0.244 0.128 -0.961 115 115 105
-10.2735 57.1487 63.6659 -0.186 0.349 -0.918 112 112 102
-10.1463 57.1247 63.5783 0.055 -0.114 -0.992 96 96 86
-9.9649 57.1220 63.5355 0.166 0.090 -0.982 129 129 119
-8.3318 55.6201 59.2984 -0.948 0.073 -0.310 85 94 73
6.7785 58.9750 65.0730 0.314 -0.842 -0.438 97 103 93
7.8407 59.1830 65.4063 0.275 -0.852 -0.444 101 107 96
8.1711 59.2189 65.4350 0.290 -0.839 -0.461 106 114 100
-62.2702 69.6874 106.1062 -0.804 0.553 -0.219 98 92 78
-60.1592 66.2728 96.8233 -0.969 0.242 -0.052 99 89 64
-59.0921 63.2468 88.7563 -0.748 0.596 -0.292 81 75 61
-51.9415 66.0164 94.5266 -0.678 0.688 -0.258 90 87 69
-51.9714 65.7671 93.8855 -0.681 0.685 -0.259 74 71 53
-52.0345 65.4771 93.1451 -0.699 0.677 -0.232 59 54 38
-52.0477 65.2549 92.5709 -0.576 0.719 -0.388 48 37 25
-52.1004 64.9841 91.8785 -0.600 0.713 -0.363 64 47 38
-51.9944 64.9198 91.6905 -0.894 0.079 -0.440 61 39 33
-51.9445 64.7844 91.3292 0.102 -0.019 -0.995 57 34 31
-48.1269 64.8176 90.6578 -0.827 -0.215 -0.519 91 100 79
-48.0136 64.7651 90.4989 -0.827 -0.215 -0.519 87 96 79
-47.8776 64.7381 90.4017 -0.700 -0.027 -0.714 109 117 104
-46.3198 64.3397 89.0583 -0.600 0.167 -0.783 80 90 79
-46.1932 64.3039 88.9404 -0.626 0.150 -0.765 103 114 99
-46.0589 64.2761 88.8417 -0.627 0.125 -0.769 138 147 129
-42.5552 62.0066 82.2548 0.160 0.001 -0.987 123 131 118
-39.8153 60.3978 77.5346 0.011 0.747 -0.665 142 148 134
-37.8671 59.9837 76.0731 -0.722 -0.586 -0.368 126 132 120
-37.9285 59.7133 75.3833 0.133 -0.488 -0.862 142 148 136
-25.1374 58.3123 69.2077 0.059 0.548 -0.835 130 134 117
-23.1082 58.0458 68.1134 -0.354 0.426 -0.833 101 103 90
-22.9400 58.0443 68.0762 -0.350 0.424 -0.836 106 108 97
-22.7563 58.0504 68.0555 -0.376 0.435 -0.818 100 100 92
-22.0298 57.9005 67.5222 -0.210 0.267 -0.941 97 96 92
-21.9309 57.7813 67.1931 -0.223 -0.670 -0.708 95 91 88
-21.7167 57.8017 67.2034 -0.176 -0.636 -0.751 81 77 74
-21.5506 57.7987 67.1626 -0.159 -0.619 -0.769 77 73 70
-21.3540 57.8102 67.1535 -0.438 -0.729 -0.527 82 78 75
-21.1245 57.8373 67.1782 -0.373 -0.728 -0.574 81 78 73
-20.7913 57.6660 66.6674 -0.658 -0.178 -0.732 73 72 68
-20.3538 57.6269 66.4792 -0.105 0.482 -0.870 210 209 205
-20.0983 57.6651 66.5277 -0.148 -0.093 -0.985 157 156 152
-19.9171 57.6683 66.5000 -0.148 -0.093 -0.985 90 89 84
-18.7062 57.8224 66.6597 0.359 -0.444 -0.821 87 89 78
-17.9460 57.3668 65.3260 0.254 -0.530 -0.809 122 124 110
-17.1136 57.5004 65.5077 -0.565 0.344 -0.750 89 91 80
-17.0180 57.4639 65.3941 -0.616 0.296 -0.730 97 99 88
-16.7722 57.4936 65.4225 -0.376 0.151 -0.914 98 100 89
-16.5936 57.4936 65.3869 -0.321 0.279 -0.905 98 100 89
-15.7813 57.5347 65.3323 -0.076 -0.017 -0.997 112 114 101
-15.8661 57.4200 65.0513 -0.973 0.110 0.201 99 101 88
-15.8443 57.3518 64.8700 -0.998 -0.056 -0.001 94 96 83
-15.6913 57.2631 64.6095 -0.128 -0.352 -0.927 88 90 77
-15.3358 57.3384 64.7344 -0.004 -0.195 -0.981 79 81 67
-15.1640 57.2579 64.4912 0.027 -0.254 -0.967 98 100 86
-15.0118 57.2459 64.4300 -0.065 -0.289 -0.955 119 121 107
-14.7562 57.2776 64.4616 -0.098 -0.515 -0.852 121 123 109
-14.4855 57.3154 64.5060 -0.121 -0.556 -0.822 99 101 88
-14.1727 57.2942 64.3888 0.111 0.131 -0.985 117 119 108
-13.2398 57.4548 64.6205 0.192 0.143 -0.971 95 96 88
-13.0799 57.4448 64.5629 0.157 0.081 -0.984 97 99 88
-12.9843 57.4082 64.4488 0.135 -0.138 -0.981 98 100 89
-12.3568 57.4386 64.4033 -0.493 0.343 -0.799 107 108 94
-12.0855 57.4739 64.4409 -0.329 0.492 -0.806 106 107 93
-11.9447 57.4556 64.3655 -0.269 0.518 -0.812 97 98 84
