ply
format ascii 1.0
element vertex 848
property float x
property float y
property float z
property float nx
property float ny
property float nz
property uchar diffuse_red
property uchar diffuse_green
property uchar diffuse_blue
end_header
-10.9521 -0.0449 80.3065 -0.049 -0.252 -0.967 215 233 235
-8.9950 -0.4663 80.2973 -0.370 -0.354 -0.859 144 161 159
-8.7463 -0.5563 80.1442 -0.538 -0.532 -0.654 150 169 164
-8.0214 -0.6076 80.5768 -0.258 0.302 -0.918 169 189 185
-7.8946 -0.6524 80.5035 -0.202 0.275 -0.940 171 191 187
-7.7649 -0.6964 80.4358 -0.105 0.159 -0.982 165 184 181
-5.6595 -1.1760 80.3166 -0.152 0.176 -0.973 160 181 181
-5.5126 -1.2165 80.2794 -0.170 0.190 -0.967 161 182 182
-5.3172 -1.2468 80.3271 -0.042 0.417 -0.908 157 179 179
-5.1204 -1.2771 80.3767 0.006 0.552 -0.834 158 179 181
-4.9598 -1.3149 80.3623 0.001 0.559 -0.829 158 179 181
-4.6506 -1.3931 80.3126 0.012 0.552 -0.834 157 179 181
1.9253 -2.7944 80.3425 0.203 -0.265 -0.943 167 196 200
3.7346 -3.1057 80.6592 -0.308 -0.323 -0.895 145 173 185
3.9617 -3.1374 80.7299 -0.328 -0.559 -0.761 124 152 164
5.3053 -3.4573 80.5963 -0.094 0.152 -0.984 161 187 188
8.9414 -4.9802 77.5019 0.037 0.038 -0.999 200 235 241
13.3315 -4.8047 82.1421 -0.325 0.345 -0.881 152 183 202
13.7683 -4.9399 81.9690 -0.195 0.310 -0.930 146 179 194
14.0109 -4.9766 82.0325 -0.222 0.334 -0.916 170 203 218
25.0494 -6.3768 86.0420 0.274 -0.513 -0.813 99 122 136
-45.5836 11.3824 96.2829 -0.005 0.143 -0.990 251 253 251
-45.4233 11.3801 96.4148 -0.205 -0.078 -0.976 250 253 250
-45.2692 11.3431 96.3978 -0.443 -0.217 -0.870 251 252 250
-45.1173 11.2948 96.3327 -0.566 -0.194 -0.801 250 251 248
-44.9664 11.2423 96.2488 -0.736 -0.333 -0.590 244 246 242
-44.8552 11.0096 95.3863 -0.757 -0.234 -0.610 190 191 192
-44.7072 10.9511 95.2754 -0.756 -0.237 -0.610 114 116 124
-44.5580 10.8994 95.1936 -0.741 -0.477 -0.473 77 81 96
-44.4156 10.8200 94.9914 -0.724 -0.315 -0.614 88 93 115
-44.2674 10.7659 94.8988 -0.519 -0.504 -0.690 90 96 121
-44.0804 10.8630 95.4645 -0.670 -0.398 -0.626 86 94 114
-43.6418 10.6727 95.0660 -0.716 -0.478 -0.509 124 135 157
-43.4968 10.6073 94.9237 -0.716 -0.478 -0.509 176 188 212
-42.8214 9.6573 91.5980 -0.336 -0.780 -0.528 70 86 109
-42.2859 9.8018 92.6666 0.290 -0.367 -0.884 188 208 223
-42.1293 9.7827 92.7260 0.290 -0.367 -0.884 164 184 199
-41.9361 9.8599 93.2153 0.281 -0.353 -0.893 157 177 192
-41.8406 9.6776 92.5470 -0.439 -0.262 -0.859 159 181 195
-41.3862 9.5752 92.5251 -0.793 -0.129 -0.595 183 208 213
-41.2343 9.5417 92.5207 -0.511 -0.670 -0.538 184 209 216
-41.0910 9.4874 92.4232 -0.493 -0.682 -0.540 182 207 214
-40.9500 9.4285 92.3044 -0.245 -0.724 -0.645 188 213 220
-40.8008 9.3885 92.2709 -0.141 -0.713 -0.687 75 99 108
-40.6481 9.3564 92.2730 -0.141 -0.713 -0.687 88 110 124
-40.4809 9.3556 92.4172 -0.578 -0.597 -0.557 87 106 122
-39.2622 8.7553 91.0139 0.498 -0.111 -0.860 173 190 180
-37.2288 8.4034 91.3550 -0.161 0.404 -0.900 201 214 194
-36.1030 7.7422 89.6186 -0.733 -0.501 -0.459 195 205 190
-35.5023 7.3711 88.6165 -0.375 0.015 -0.927 206 212 202
-35.3604 7.3266 88.5583 -0.375 0.015 -0.927 206 212 202
-35.2134 7.2885 88.5305 -0.349 -0.007 -0.937 206 213 202
-34.7473 7.2035 88.5906 -0.405 -0.402 -0.821 187 194 184
-34.6034 7.1611 88.5425 -0.421 -0.372 -0.827 173 180 170
-34.4604 7.1177 88.4898 -0.464 -0.338 -0.819 126 134 123
-33.3021 6.7875 88.1485 0.071 0.132 -0.989 102 106 104
-33.1494 6.7546 88.1474 0.121 -0.083 -0.989 100 102 103
-33.1085 6.6056 87.5682 -0.724 -0.287 -0.628 92 97 98
-32.9802 6.5487 87.4463 -0.724 -0.287 -0.628 102 110 109
-32.0921 6.1496 86.5824 0.057 -0.234 -0.971 64 66 74
-31.3117 6.0063 86.6790 0.141 -0.010 -0.990 58 64 81
-22.2343 3.1334 82.8269 -0.030 -0.726 -0.687 141 166 175
-22.0733 3.1031 82.8438 0.050 -0.710 -0.702 192 217 224
-21.8910 3.0830 82.9217 0.425 -0.529 -0.735 221 246 252
-17.8992 1.7811 81.0687 0.438 -0.523 -0.732 205 233 236
-17.1289 1.6076 81.0319 0.393 -0.484 -0.782 165 189 189
-15.5326 1.2744 81.0645 -0.045 -0.592 -0.805 189 210 213
-15.3688 1.2420 81.0750 -0.260 -0.539 -0.801 183 204 207
-14.7392 1.1026 81.0554 -0.690 -0.147 -0.709 175 196 199
-14.6263 1.0529 80.9498 -0.486 -0.151 -0.861 182 203 206
-14.4557 1.0223 80.9737 -0.363 -0.600 -0.713 188 209 212
-14.3246 0.9786 80.9092 -0.365 -0.597 -0.714 197 218 221
-14.2023 0.9322 80.8255 -0.272 -0.048 -0.961 201 222 226
-12.6196 0.5806 80.7701 0.119 -0.070 -0.990 172 192 195
-12.4583 0.5459 80.7692 -0.007 -0.072 -0.997 172 192 195
-12.3186 0.5048 80.7227 -0.155 -0.199 -0.968 174 194 197
-12.1456 0.4734 80.7458 -0.202 -0.241 -0.949 167 187 190
-11.5048 0.3322 80.7280 -0.230 -0.038 -0.972 157 177 176
-11.4949 0.2544 80.4156 -0.177 0.007 -0.984 156 176 174
-11.3459 0.2160 80.3885 -0.177 0.007 -0.984 159 179 178
-11.2219 0.1707 80.3108 -0.476 -0.561 -0.677 156 176 175
-11.0789 0.1306 80.2716 -0.480 -0.574 -0.663 149 169 168
-10.9221 0.0943 80.2601 -0.092 -0.345 -0.934 144 164 163
-10.7574 0.0602 80.2643 0.073 -0.365 -0.928 144 162 162
-10.5911 0.0263 80.2712 -0.039 -0.217 -0.975 146 164 164
-10.2395 0.0418 80.6453 -0.360 -0.164 -0.918 147 165 165
-10.1058 -0.0012 80.5857 -0.359 -0.139 -0.923 148 166 166
-10.0555 -0.0662 80.3619 -0.051 0.056 -0.997 148 166 166
-9.8829 -0.0988 80.3794 0.015 0.092 -0.996 146 164 164
-9.7312 -0.1370 80.3555 0.009 0.089 -0.996 145 164 162
-9.5893 -0.1778 80.3125 -0.006 0.064 -0.998 153 169 168
-9.4005 -0.2065 80.3604 0.103 0.094 -0.990 157 173 170
-9.2407 -0.2428 80.3516 -0.015 0.073 -0.997 155 171 168
-9.0789 -0.2786 80.3464 -0.015 0.073 -0.997 156 171 168
-8.9742 -0.3288 80.2317 -0.370 -0.354 -0.859 159 174 171
-8.7708 -0.3544 80.3055 0.024 0.092 -0.995 158 174 171
-8.6061 -0.4652 79.9933 -0.565 -0.415 -0.713 157 173 170
-7.9415 -0.4551 80.6212 -0.250 0.295 -0.922 157 173 170
-7.8230 -0.5021 80.5320 -0.202 0.275 -0.940 156 172 169
-7.6993 -0.5477 80.4528 -0.105 0.159 -0.982 158 174 171
-5.5916 -1.0271 80.3330 -0.152 0.176 -0.973 157 176 174
-5.4424 -1.0671 80.2994 -0.149 0.165 -0.975 156 175 173
-0.3127 -2.1638 80.2971 -0.612 0.010 -0.791 157 180 184
2.7709 -2.7859 80.4492 0.182 -0.182 -0.966 151 179 190
2.9691 -2.8208 80.4800 0.215 -0.272 -0.938 151 179 190
3.4706 -2.9394 80.4329 -0.208 -0.562 -0.801 155 185 195
3.7556 -2.9624 80.5891 -0.359 -0.135 -0.924 162 190 200
3.9178 -3.0029 80.5650 -0.249 -0.227 -0.941 151 181 190
4.0695 -3.0449 80.5256 -0.253 -0.250 -0.935 123 153 163
5.3871 -3.3055 80.6120 -0.094 0.152 -0.984 129 154 158
5.9632 -3.4171 80.6596 -0.001 0.138 -0.990 134 159 163
14.0714 -4.8233 82.0070 0.310 -0.443 -0.841 164 197 212
24.7438 -6.1779 85.8300 0.348 -0.465 -0.814 66 89 105
25.1456 -6.2118 86.0441 0.360 -0.484 -0.797 35 58 73
-46.2827 12.0395 97.6759 -0.602 -0.047 -0.797 251 255 252
-45.5526 11.5851 96.4518 -0.231 -0.120 -0.966 248 254 254
-45.3990 11.5446 96.4201 -0.231 -0.120 -0.966 247 254 255
-45.2439 11.5124 96.4235 -0.592 -0.111 -0.798 247 253 254
-44.9471 11.3815 96.1463 -0.736 -0.333 -0.590 126 131 135
-44.7996 11.3143 96.0001 -0.736 -0.333 -0.590 87 93 101
-44.6876 11.0921 95.1870 -0.754 -0.462 -0.466 82 89 102
-44.5418 11.0254 95.0412 -0.741 -0.477 -0.473 81 89 107
-44.3562 11.1252 95.6123 -0.621 -0.520 -0.587 80 90 112
-44.2492 10.9009 94.7865 -0.519 -0.504 -0.690 76 86 111
-44.0598 11.0080 95.3911 -0.639 -0.438 -0.633 86 99 116
-43.6273 10.7958 94.8993 -0.762 -0.493 -0.421 211 227 242
-43.4845 10.7231 94.7259 -0.762 -0.493 -0.421 171 187 204
-41.3684 9.7116 92.4294 -0.800 -0.116 -0.589 183 212 216
-41.2374 9.6276 92.1996 -0.538 -0.708 -0.457 183 212 216
-41.0937 9.5754 92.1113 -0.538 -0.708 -0.457 181 209 216
-40.9598 9.5010 91.9235 -0.452 -0.683 -0.573 180 207 214
-40.8088 9.4666 91.9143 -0.528 -0.693 -0.490 71 97 103
-40.6770 9.3890 91.7116 -0.487 -0.676 -0.553 89 109 123
-40.5908 9.2130 91.0656 -0.206 -0.694 -0.690 88 106 121
-39.0560 8.9267 91.2333 0.179 -0.326 -0.928 183 199 188
-38.8945 8.9104 91.3074 0.532 -0.448 -0.719 185 203 191
-38.5485 8.9158 91.6318 0.342 -0.615 -0.710 191 203 191
-37.6819 8.6262 91.2023 0.249 -0.129 -0.960 203 214 198
-36.3576 7.9895 89.7498 -0.750 -0.459 -0.475 195 203 190
-36.1100 7.8456 89.3765 -0.544 -0.208 -0.813 188 200 187
-35.9771 7.7869 89.2521 -0.561 -0.288 -0.776 195 204 190
-35.8416 7.7323 89.1465 -0.444 -0.303 -0.843 202 208 194
-35.6238 7.5553 88.6114 -0.076 -0.127 -0.989 205 217 207
-35.4843 7.5076 88.5379 -0.368 0.038 -0.929 216 230 223
-35.3317 7.4765 88.5440 -0.366 -0.001 -0.930 206 221 215
-35.1525 7.4782 88.7073 -0.417 -0.482 -0.770 183 197 192
-34.8355 7.4285 88.7805 -0.551 -0.444 -0.707 146 160 155
-34.7283 7.3415 88.5179 -0.527 -0.461 -0.714 147 159 155
-34.5886 7.2941 88.4456 -0.527 -0.461 -0.714 151 162 158
-34.4467 7.2494 88.3865 -0.579 -0.472 -0.664 154 164 158
-34.1611 7.1625 88.2797 -0.631 -0.434 -0.644 98 101 98
-34.0216 7.1154 88.2085 -0.613 -0.436 -0.659 100 102 99
-33.8875 7.0624 88.1086 -0.575 -0.454 -0.681 96 104 100
-33.8171 6.9393 87.6657 -0.479 -0.820 -0.313 91 97 94
-33.4130 6.9829 88.1972 0.076 0.104 -0.992 90 94 93
-33.2656 6.9443 88.1680 0.079 0.134 -0.988 93 98 98
-32.7182 6.5590 87.0672 -0.634 -0.701 -0.327 57 66 62
-32.0715 6.2876 86.5198 0.016 -0.178 -0.984 53 53 58
-31.8980 6.2760 86.6240 -0.617 -0.643 -0.454 51 51 57
-31.7519 6.2381 86.5963 0.028 -0.232 -0.972 90 93 99
-31.5995 6.2061 86.5981 0.089 -0.295 -0.951 135 138 147
-31.2942 6.1417 86.6012 0.152 -0.240 -0.959 120 123 140
-22.1118 3.2098 82.6082 -0.175 -0.481 -0.859 184 208 218
-21.8707 3.2192 82.8574 0.186 -0.712 -0.677 217 242 250
-17.8006 1.8523 80.8115 -0.412 0.370 -0.832 202 227 230
-15.5262 1.4055 80.9677 -0.045 -0.592 -0.805 204 225 228
-15.3772 1.3681 80.9443 -0.220 -0.807 -0.549 200 221 226
-14.7120 1.2412 81.0056 -0.683 -0.140 -0.717 163 184 187
-14.6071 1.1887 80.8822 -0.445 -0.127 -0.886 158 179 184
-14.4662 1.1483 80.8397 -0.365 -0.597 -0.714 161 182 186
-14.3240 1.1084 80.8003 -0.365 -0.597 -0.714 161 182 184
-14.1610 1.0752 80.8067 -0.272 -0.048 -0.961 156 177 178
-14.0265 1.0327 80.7500 -0.169 -0.070 -0.983 152 174 173
-13.2095 0.8657 80.7796 -0.194 -0.061 -0.979 157 178 173
-13.0669 0.8256 80.7397 -0.146 -0.177 -0.973 158 179 174
-12.2491 0.6562 80.7599 -0.007 -0.072 -0.997 155 175 171
-12.0572 0.6304 80.8218 -0.078 -0.007 -0.997 155 176 173
-11.8955 0.5955 80.8203 -0.086 -0.007 -0.996 155 176 173
-11.7393 0.5590 80.8070 -0.086 -0.007 -0.996 155 175 174
-11.1641 0.3177 80.3209 -0.194 -0.027 -0.981 155 175 174
-11.0433 0.2714 80.2366 -0.184 -0.297 -0.937 154 174 173
-10.5700 0.1633 80.2068 -0.135 -0.572 -0.809 155 173 173
-10.0602 0.1429 80.5689 -0.192 -0.564 -0.803 159 177 177
-9.1024 -0.1523 80.1957 -0.251 -0.417 -0.874 158 173 170
-8.9220 -0.1834 80.2260 -0.252 -0.284 -0.925 165 180 177
-8.6986 -0.2038 80.3375 0.038 0.080 -0.996 166 181 178
-8.5418 -0.2411 80.3216 0.024 0.092 -0.995 167 182 179
-8.3449 -0.2686 80.3811 -0.270 -0.259 -0.927 164 179 176
-6.7779 -0.5715 80.5087 -0.013 -0.153 -0.988 157 173 172
-6.8814 -0.6693 80.0176 -0.072 -0.300 -0.951 157 173 172
-6.7150 -0.7049 80.0172 -0.086 -0.298 -0.951 158 174 173
-6.3954 -0.7791 79.9921 -0.081 -0.308 -0.948 160 176 175
-6.2208 -0.8131 80.0054 -0.129 -0.244 -0.961 160 176 175
-6.0486 -0.8477 80.0142 -0.185 -0.195 -0.963 159 175 172
-5.8637 -0.8795 80.0452 -0.022 -0.242 -0.970 158 174 171
-5.3182 -0.9058 80.4141 -0.244 0.205 -0.948 159 175 172
-5.0737 -0.9256 80.5465 -0.025 0.407 -0.913 159 175 172
-4.5467 -0.9582 80.8736 0.023 0.424 -0.905 159 175 172
-4.3181 -1.0542 80.6799 -0.102 0.543 -0.833 159 176 169
-4.2017 -1.1016 80.5871 -0.123 0.557 -0.821 159 176 169
-2.7261 -1.5803 79.9145 -0.284 -0.248 -0.926 161 178 173
-2.2524 -1.5598 80.4123 -0.461 0.237 -0.855 161 179 173
1.6168 -2.3698 80.4735 -0.181 0.472 -0.863 154 179 174
3.7685 -2.8203 80.5071 -0.301 -0.228 -0.926 164 192 202
3.9560 -2.8572 80.5198 -0.249 -0.227 -0.941 169 197 207
4.0930 -2.9012 80.4590 -0.244 -0.233 -0.942 155 183 195
4.2256 -2.9458 80.3919 0.012 -0.741 -0.671 146 175 187
5.4691 -3.1534 80.6277 -0.094 0.152 -0.984 132 157 161
5.8772 -3.2245 80.6931 0.102 -0.079 -0.992 157 182 187
14.0648 -4.6760 81.8979 -0.178 0.105 -0.978 153 185 200
14.2888 -4.7141 81.9373 -0.145 0.077 -0.986 186 218 233
14.6549 -4.7397 82.1523 0.146 -0.314 -0.938 141 173 188
23.8067 -5.7308 86.0866 -0.597 0.028 -0.802 202 234 247
23.8444 -5.7863 85.8918 -0.938 0.135 -0.318 147 179 192
24.6149 -6.0265 85.5807 0.233 -0.668 -0.707 101 123 140
-46.2588 12.2078 97.6880 -0.589 -0.055 -0.806 252 255 253
-45.6810 11.7962 96.5134 -0.341 -0.577 -0.742 243 249 251
-45.5312 11.7345 96.3920 -0.209 -0.238 -0.949 235 244 249
-45.3777 11.6940 96.3601 -0.226 -0.236 -0.945 204 216 224
-45.2212 11.6681 96.3901 -0.587 -0.121 -0.800 139 153 165
-44.3394 11.2548 95.4717 -0.638 -0.551 -0.538 58 76 91
-44.1928 11.1898 95.3340 -0.639 -0.544 -0.544 100 120 133
-44.0427 11.1398 95.2604 -0.676 -0.323 -0.662 181 199 213
-43.8925 11.0904 95.1895 -0.683 -0.312 -0.660 213 231 244
-43.7575 10.9856 94.8801 -0.774 -0.465 -0.429 181 198 210
-40.9405 9.6404 91.8447 -0.462 -0.666 -0.585 174 201 208
-40.6410 9.5661 91.8014 -0.137 -0.003 -0.990 89 110 120
-40.5688 9.3578 91.0165 -0.399 -0.618 -0.677 89 107 117
-40.3859 9.3949 91.3258 -0.395 0.111 -0.912 89 105 116
-38.7135 9.0338 91.3036 0.542 -0.377 -0.751 193 209 198
-38.5466 9.0255 91.4145 -0.352 0.167 -0.921 198 210 198
-38.3925 8.9940 91.4194 -0.253 0.143 -0.957 202 213 199
-38.1417 8.8333 90.9829 -0.599 0.298 -0.744 203 213 199
-37.0461 8.3713 90.0511 -0.472 -0.619 -0.628 204 218 195
-36.9026 8.3253 89.9884 -0.472 -0.619 -0.628 205 219 196
-36.7682 8.2661 89.8634 -0.502 -0.549 -0.668 205 219 196
-36.6232 8.2226 89.8121 -0.599 -0.556 -0.577 206 218 198
-36.4830 8.1724 89.7293 -0.604 -0.561 -0.566 218 227 209
-36.3537 8.1071 89.5752 -0.760 -0.430 -0.487 205 214 198
-36.0874 7.9889 89.3247 -0.544 -0.208 -0.813 189 195 183
-35.9558 7.9285 89.1929 -0.566 -0.307 -0.765 205 213 198
-35.8207 7.8731 89.0847 -0.444 -0.303 -0.843 210 218 202
-35.7328 7.7560 88.6840 -0.135 -0.304 -0.943 209 219 204
-35.5919 7.7098 88.6180 -0.182 -0.212 -0.960 190 203 193
-35.4385 7.6795 88.6277 -0.557 -0.479 -0.678 153 169 166
-35.2812 7.6541 88.6604 -0.685 -0.587 -0.430 130 150 150
-35.1505 7.5950 88.5330 -0.685 -0.587 -0.430 134 157 157
-34.8242 7.5574 88.6623 -0.552 -0.565 -0.612 167 191 189
-33.9626 7.0944 87.5241 -0.432 -0.859 -0.275 99 109 109
-33.8436 7.0261 87.3492 -0.464 -0.852 -0.245 95 102 104
-31.8991 6.3936 86.4584 -0.581 -0.713 -0.391 116 119 124
-31.4360 6.3033 86.4922 0.240 -0.489 -0.839 144 148 160
-31.3274 6.2309 86.2913 -0.186 -0.896 -0.404 134 140 156
-30.3474 5.9292 85.9121 0.038 -0.338 -0.940 214 235 245
-29.7206 5.6559 85.3422 -0.885 0.243 -0.397 210 240 242
-24.0650 3.9067 83.1195 -0.645 -0.543 -0.538 132 164 174
-22.2579 3.3727 82.5108 -0.459 -0.614 -0.642 130 154 163
-22.1097 3.3364 82.4913 -0.198 -0.507 -0.839 178 203 210
-21.6703 3.3343 82.8630 0.134 -0.810 -0.571 210 235 239
-17.9407 2.2103 81.5171 -0.019 -0.194 -0.981 207 232 235
-17.8432 2.1529 81.3679 -0.079 -0.200 -0.977 207 232 234
-17.8054 2.0721 81.0723 -0.273 0.343 -0.899 208 233 234
-17.3809 1.9536 80.9572 -0.233 0.140 -0.962 208 231 231
-17.2714 1.9018 80.8414 -0.348 0.102 -0.932 186 210 209
-16.7011 1.8380 81.0753 -0.149 0.145 -0.978 168 189 189
-15.8500 1.5996 80.8419 -0.087 -0.510 -0.856 145 165 166
-15.6673 1.5743 80.8971 0.026 -0.368 -0.929 145 165 166
-15.5343 1.5314 80.8374 -0.085 -0.614 -0.785 145 165 166
-14.4893 1.3577 81.0348 -0.381 -0.056 -0.923 157 178 181
-14.4326 1.2889 80.8043 -0.230 -0.062 -0.971 156 177 179
-14.2858 1.2504 80.7748 -0.220 -0.069 -0.973 157 178 179
-14.1516 1.2078 80.7174 -0.220 -0.053 -0.974 158 180 176
-13.2569 1.0661 80.9152 0.080 -0.038 -0.996 157 179 168
-12.6818 0.9064 80.7631 0.072 -0.063 -0.995 155 177 164
-12.2208 0.7955 80.7106 -0.427 -0.081 -0.901 155 176 166
-12.0744 0.7562 80.6776 -0.410 0.001 -0.912 155 176 168
-11.9472 0.7113 80.6049 -0.410 0.013 -0.912 155 176 169
-11.8098 0.6694 80.5533 -0.409 0.010 -0.912 155 175 171
-11.6657 0.6295 80.5158 -0.422 0.112 -0.899 155 175 173
-11.5377 0.5850 80.4453 -0.436 0.060 -0.898 155 175 174
-11.3913 0.5457 80.4123 -0.322 0.118 -0.940 155 175 174
-11.1361 0.4566 80.2705 -0.089 -0.263 -0.961 155 175 174
-10.9852 0.4187 80.2468 -0.066 -0.305 -0.950 155 175 174
-10.8441 0.3780 80.2034 0.033 -0.336 -0.941 155 175 174
-10.6889 0.3412 80.1881 0.016 -0.332 -0.943 155 175 174
-10.5297 0.3055 80.1807 -0.086 -0.315 -0.945 155 173 173
-9.6452 0.2283 80.6316 0.114 0.066 -0.991 156 174 174
-9.4865 0.1916 80.6199 0.131 0.041 -0.991 159 175 174
-9.2333 0.1798 80.7910 0.059 0.192 -0.980 159 175 174
-9.3860 0.0614 80.1769 -0.276 -0.418 -0.866 159 175 172
-0.8835 -1.9880 79.1964 0.038 -0.293 -0.955 158 176 169
3.6579 -2.6321 80.5056 -0.663 -0.332 -0.671 147 170 174
3.8282 -2.6714 80.4933 -0.270 -0.233 -0.934 148 173 178
4.7830 -2.8539 80.5771 0.203 0.065 -0.977 152 178 185
7.4411 -3.5625 79.9940 -0.005 0.340 -0.941 189 222 227
14.2167 -4.5140 81.9859 0.155 -0.054 -0.986 135 167 182
16.3201 -4.6778 83.1399 0.152 -0.898 -0.414 142 176 186
16.7577 -4.6987 83.4333 0.193 -0.889 -0.414 153 188 194
23.7283 -5.5770 85.8919 0.031 -0.545 -0.838 203 235 248
-46.2358 12.3689 97.6691 -0.852 -0.284 -0.439 250 254 254
-45.6680 11.8981 96.2538 -0.074 -0.947 -0.312 225 232 235
-45.5115 11.8753 96.2958 -0.349 -0.788 -0.507 161 173 184
-45.3582 11.8338 96.2596 -0.392 -0.770 -0.503 107 123 138
-45.1989 11.8225 96.3505 -0.587 -0.121 -0.800 87 104 124
-44.6279 11.4641 95.3925 -0.598 -0.752 -0.277 75 94 111
-44.3293 11.3563 95.2128 -0.502 -0.771 -0.391 161 183 192
-44.1772 11.3148 95.1754 -0.628 -0.558 -0.543 201 224 232
-44.0236 11.2789 95.1623 -0.684 -0.283 -0.673 187 206 220
-43.8690 11.2467 95.1644 -0.279 0.069 -0.958 130 149 163
-41.2036 9.8953 91.9903 -0.674 -0.615 -0.408 183 211 215
-40.6081 9.7362 91.8580 -0.118 0.084 -0.989 91 114 119
-40.4415 9.7356 91.9984 -0.521 -0.592 -0.615 86 107 111
-40.3544 9.5607 91.3666 -0.360 0.106 -0.927 83 102 106
-39.0277 9.1870 90.9944 0.097 -0.459 -0.883 199 215 204
-38.8922 9.1237 90.8545 0.163 -0.740 -0.652 198 215 205
-38.7416 9.0883 90.8405 0.123 -0.776 -0.618 199 215 205
-38.5857 9.0621 90.8684 -0.800 -0.180 -0.573 202 215 202
-38.3869 9.1104 91.2339 -0.522 0.067 -0.850 203 214 200
-37.5284 8.5375 89.6559 0.116 -0.332 -0.936 203 216 198
-37.3941 8.4784 89.5319 -0.164 -0.150 -0.975 203 216 196
-37.2357 8.4567 89.5803 -0.140 0.087 -0.986 203 216 196
-37.0401 8.4906 89.8846 -0.488 -0.556 -0.672 204 217 197
-36.9325 8.3913 89.5758 -0.131 0.092 -0.987 205 219 196
-36.2063 8.1796 89.3433 -0.628 -0.278 -0.727 205 213 197
-36.0638 8.1336 89.2797 -0.647 -0.275 -0.711 180 191 175
-35.9362 8.0676 89.1225 -0.566 -0.307 -0.765 201 209 192
-35.7997 8.0141 89.0230 -0.444 -0.303 -0.843 158 162 147
-35.7149 7.8924 88.6041 -0.102 -0.356 -0.929 146 154 141
-35.5215 7.9147 88.8601 -0.678 -0.449 -0.581 132 146 139
-35.3847 7.8623 88.7659 -0.655 -0.668 -0.354 152 173 172
-35.2823 7.7665 88.4665 -0.677 -0.659 -0.328 173 198 201
-31.9060 6.5052 86.2654 -0.581 -0.713 -0.391 139 148 157
-31.1731 6.3199 86.1451 -0.555 -0.623 -0.551 151 157 173
-30.8973 6.2299 86.0180 -0.806 -0.303 -0.509 134 141 159
-30.3094 6.0820 85.9244 -0.050 -0.231 -0.972 219 236 238
-29.4536 5.6820 85.0420 -0.724 0.059 -0.687 204 245 244
-22.0927 3.4704 82.4181 -0.183 -0.479 -0.858 182 205 211
-21.9253 3.4438 82.4537 0.112 -0.374 -0.921 221 245 250
-21.7526 3.4195 82.5037 -0.067 -0.800 -0.596 210 234 237
-19.7035 2.6861 81.2974 0.275 0.243 -0.930 217 239 240
-17.7787 2.2099 81.0239 -0.381 0.215 -0.899 214 235 234
-17.0104 2.0356 80.9781 -0.165 -0.239 -0.957 149 168 166
-15.8366 1.7328 80.7611 -0.087 -0.510 -0.856 160 179 177
-15.6411 1.7123 80.8460 0.033 -0.373 -0.927 159 178 176
-15.4740 1.6814 80.8645 0.033 -0.373 -0.927 159 177 176
-15.3593 1.6319 80.7627 -0.274 -0.555 -0.786 159 178 176
-15.0858 1.5486 80.6606 -0.148 -0.633 -0.760 164 183 182
-14.9218 1.5164 80.6713 -0.183 -0.585 -0.790 164 184 182
-14.5735 1.4586 80.7362 -0.264 -0.404 -0.876 151 171 171
-14.4172 1.4234 80.7281 -0.243 -0.378 -0.894 150 170 170
-14.2637 1.3872 80.7134 -0.260 -0.261 -0.929 151 171 168
-14.1173 1.3486 80.6830 -0.349 -0.251 -0.903 155 176 169
-13.9827 1.3061 80.6265 -0.275 -0.322 -0.906 158 178 167
-13.4417 1.2230 80.7547 0.074 -0.061 -0.995 158 178 166
-12.9757 1.1147 80.7163 -0.078 -0.112 -0.991 158 178 166
-1.5305 -1.6322 79.4304 -0.036 -0.037 -0.999 160 177 169
3.4700 -2.5200 80.1303 -0.273 -0.526 -0.806 155 176 170
3.9753 -2.5093 80.6067 0.202 0.398 -0.895 154 177 171
5.5422 -2.7973 80.7863 -0.030 0.076 -0.997 153 177 175
6.2459 -2.9545 80.7543 -0.184 0.253 -0.950 157 182 180
6.3745 -3.0003 80.6798 -0.559 0.054 -0.828 153 178 176
6.4956 -3.0470 80.5950 -0.559 0.054 -0.828 159 184 182
6.6166 -3.0936 80.5103 -0.559 0.054 -0.828 153 177 176
7.5954 -3.4019 80.1038 -0.233 0.322 -0.918 191 222 224
14.3021 -4.3578 81.9910 0.207 0.064 -0.976 119 151 166
14.9815 -4.4714 82.1143 0.137 -0.450 -0.882 128 160 175
15.1733 -4.5127 82.1118 -0.223 0.244 -0.944 131 163 178
16.1044 -4.5463 82.7743 0.128 -0.902 -0.413 137 171 180
16.4381 -4.5757 82.9417 0.128 -0.902 -0.413 151 185 194
16.7305 -4.6090 83.0579 0.056 -0.923 -0.381 168 203 209
17.0300 -4.6419 83.1816 0.056 -0.923 -0.381 187 222 226
17.4583 -4.7231 83.2207 0.312 -0.911 -0.268 198 233 239
18.6702 -4.6794 84.4359 0.274 -0.935 -0.225 199 236 242
25.1880 -5.7308 85.7752 0.312 -0.511 -0.801 131 154 172
-45.4984 11.9792 96.0468 -0.285 -0.836 -0.469 83 96 110
-45.3445 11.9424 96.0298 -0.283 -0.832 -0.477 102 120 140
-45.1760 11.9797 96.3224 -0.592 -0.165 -0.789 93 109 130
-44.3196 11.4558 94.9483 -0.437 -0.788 -0.434 172 191 204
-44.1707 11.4028 94.8620 -0.407 -0.787 -0.464 135 154 166
-44.0017 11.4292 95.1116 -0.507 -0.317 -0.802 114 133 148
-43.8520 11.3783 95.0346 -0.615 -0.300 -0.729 122 141 156
-41.3254 10.0940 92.0289 0.182 -0.663 -0.726 184 212 215
-40.3136 9.7471 91.4964 -0.317 0.017 -0.948 96 117 113
-39.0802 9.5121 91.6013 0.278 0.019 -0.960 189 205 192
-39.0155 9.3134 90.8591 0.114 -0.440 -0.891 199 216 205
-38.8735 9.2621 90.7739 0.163 -0.751 -0.640 198 216 205
-37.0528 8.5811 89.5887 -0.114 0.057 -0.992 204 218 199
-36.6045 8.4721 89.5320 -0.302 0.001 -0.953 205 218 199
-36.4581 8.4310 89.4915 -0.311 -0.000 -0.950 204 216 201
-36.1799 8.3286 89.3168 -0.685 -0.200 -0.701 175 186 175
-36.0434 8.2740 89.2140 -0.704 -0.086 -0.705 167 180 169
-35.9165 8.2068 89.0521 -0.566 -0.307 -0.765 133 143 131
-35.7787 8.1550 88.9612 -0.444 -0.303 -0.843 128 137 127
-35.6354 8.1108 88.9057 -0.612 -0.279 -0.740 190 199 194
-35.5344 8.0110 88.5911 -0.664 -0.675 -0.323 189 203 203
-35.4010 7.9546 88.4783 -0.667 -0.670 -0.325 192 212 217
-22.0771 3.6037 82.3404 -0.183 -0.479 -0.858 191 215 219
-21.9569 3.5532 82.2400 -0.266 -0.452 -0.851 214 238 242
-21.7943 3.5242 82.2619 -0.397 -0.492 -0.775 212 233 235
-20.8597 3.1134 81.4075 0.333 -0.116 -0.936 215 234 234
-19.9901 2.8886 81.2446 -0.283 0.196 -0.939 217 237 236
-19.7733 2.8832 81.4068 0.179 0.164 -0.970 215 234 234
-19.6077 2.8545 81.4324 0.179 0.164 -0.970 213 232 230
-18.7791 2.6091 81.1516 0.034 0.404 -0.914 209 228 226
-18.6281 2.5737 81.1376 -0.041 0.467 -0.883 211 230 227
-18.4609 2.5449 81.1644 -0.002 0.410 -0.912 213 231 226
-18.2385 2.5389 81.3291 -0.020 -0.524 -0.851 215 232 229
-18.0788 2.5067 81.3352 -0.026 -0.443 -0.896 214 233 229
-17.9152 2.4758 81.3504 -0.005 -0.479 -0.878 215 235 231
-17.7269 2.3579 81.0373 -0.381 0.215 -0.899 215 234 231
-17.3038 2.2384 80.9175 -0.349 0.049 -0.936 187 204 200
-17.1937 2.1865 80.8028 -0.504 -0.049 -0.863 163 179 176
-16.9591 2.1831 80.9881 -0.137 -0.261 -0.956 155 172 166
-15.4335 1.9160 81.2124 -0.501 0.002 -0.866 159 176 171
-15.4970 1.8018 80.7003 -0.276 -0.494 -0.825 159 176 170
-15.4063 1.7437 80.5444 -0.277 -0.186 -0.943 159 176 170
-10.5925 0.5500 79.8437 0.049 -0.103 -0.993 161 175 175
-10.4408 0.5124 79.8218 0.039 -0.122 -0.992 160 175 174
-10.2015 0.4992 79.9719 0.210 -0.154 -0.966 159 174 173
-10.1317 0.4388 79.7888 0.070 -0.056 -0.996 158 174 173
-9.6737 0.3264 79.7269 0.097 -0.159 -0.982 159 175 172
-9.9225 0.1812 78.9333 0.191 -0.045 -0.980 159 175 171
-9.4192 0.2378 79.5875 0.128 -0.585 -0.801 159 175 172
-9.3013 0.1910 79.5003 0.094 -0.410 -0.907 159 175 171
-8.8100 0.0871 79.5002 0.079 -0.434 -0.897 158 175 169
-8.6032 0.0633 79.5805 -0.232 -0.293 -0.927 159 176 170
-7.9351 0.0025 79.9039 -0.341 -0.833 -0.437 158 174 171
-7.2619 -0.2111 79.6187 -0.524 -0.769 -0.367 157 173 172
-6.6683 -0.2940 79.7902 -0.308 -0.908 -0.285 158 174 173
-6.5221 -0.3342 79.7531 -0.256 -0.923 -0.288 156 172 171
-6.4005 -0.3801 79.6724 -0.196 -0.929 -0.313 157 173 172
-6.2868 -0.4278 79.5778 -0.183 -0.925 -0.332 154 172 172
-5.9620 -0.6466 78.9760 0.067 0.453 -0.889 153 172 168
-5.7339 -0.6680 79.0838 -0.013 -0.204 -0.979 157 176 172
-5.5690 -0.7036 79.0807 -0.004 -0.219 -0.976 156 175 171
-4.9879 -0.6479 79.7977 -0.344 -0.573 -0.744 156 175 171
-4.8408 -0.6882 79.7607 -0.344 -0.573 -0.744 159 176 169
-4.6931 -0.7285 79.7247 -0.350 -0.578 -0.737 161 178 171
-4.5530 -0.7704 79.6755 -0.332 -0.582 -0.743 161 178 171
-4.4964 -0.8301 79.4842 -0.300 -0.903 -0.309 161 178 171
-4.3951 -0.8801 79.3697 -0.271 -0.868 -0.416 162 179 171
-4.2191 -0.9851 79.0978 0.112 -0.270 -0.956 162 179 171
-4.0544 -1.0215 79.0918 0.090 -0.344 -0.935 163 180 173
-3.6563 -1.0099 79.4761 0.013 -0.467 -0.884 162 179 173
-3.5519 -1.0591 79.3676 -0.082 -0.528 -0.845 163 180 174
-2.9271 -1.2135 79.2788 -0.560 -0.468 -0.684 163 180 174
-2.4439 -1.3268 79.2344 0.278 -0.218 -0.936 159 178 172
-1.2734 -1.3798 80.0160 -0.789 -0.207 -0.579 163 182 176
-1.1554 -1.4266 79.9283 -0.479 -0.470 -0.741 161 178 172
-1.2999 -1.5219 79.4235 -0.273 -0.496 -0.824 159 176 168
-1.2850 -1.5871 79.1745 0.054 -0.298 -0.953 160 177 169
-1.1767 -1.6350 79.0746 0.060 -0.275 -0.960 161 178 170
-0.9916 -1.6688 79.0958 0.060 -0.275 -0.960 158 175 167
-0.8929 -1.7183 78.9814 0.072 -0.295 -0.953 155 175 166
-0.7904 -1.7669 78.8733 0.049 -0.280 -0.959 156 176 167
-0.5529 -1.7916 78.9759 -0.412 -0.165 -0.896 155 175 166
-0.4097 -1.8331 78.9311 -0.415 -0.165 -0.895 155 175 166
3.8972 -2.4452 80.1326 -0.462 -0.750 -0.473 156 177 168
4.5505 -2.6058 80.0432 -0.294 -0.581 -0.759 156 177 171
4.7206 -2.6450 80.0303 -0.329 -0.527 -0.784 156 177 171
5.0305 -2.7280 79.9606 -0.327 -0.535 -0.779 155 178 172
6.1168 -2.7667 80.7277 0.089 0.075 -0.993 156 178 173
6.4275 -2.8511 80.6531 -0.558 0.032 -0.829 154 177 172
6.5494 -2.8978 80.5693 -0.558 0.032 -0.829 154 176 172
6.6700 -2.9446 80.4840 -0.559 0.054 -0.828 155 177 174
7.7019 -3.2467 80.1485 -0.196 0.307 -0.931 205 232 232
8.6249 -3.3171 80.6497 -0.241 0.290 -0.926 202 232 232
10.0663 -3.8162 79.8715 0.033 0.622 -0.782 203 237 242
14.5757 -4.2426 81.9898 -0.099 -0.645 -0.758 165 197 212
14.7942 -4.2811 82.0208 0.042 -0.577 -0.816 178 210 225
14.9945 -4.3215 82.0291 0.140 -0.460 -0.877 134 166 181
15.2703 -4.3548 82.1296 -0.223 0.244 -0.944 118 150 165
15.5237 -4.3904 82.2019 0.114 -0.643 -0.758 120 152 166
16.2329 -4.4437 82.5902 0.128 -0.902 -0.413 147 181 190
15.3189 -4.7591 80.5492 -0.464 -0.288 -0.837 198 233 239
25.3200 -5.5628 85.8165 0.225 -0.700 -0.678 132 158 176
-58.1076 17.3719 106.2454 -0.296 -0.941 0.165 92 95 85
-45.6452 12.0832 95.6659 -0.136 -0.958 -0.253 87 97 101
-44.3088 11.5599 94.7056 -0.110 -0.898 -0.426 146 162 178
-44.1540 11.5320 94.7246 -0.110 -0.898 -0.426 130 147 162
-43.9789 11.5831 95.0754 -0.622 -0.298 -0.724 150 169 183
-43.8291 11.5321 94.9986 -0.632 -0.292 -0.718 163 182 196
-41.1815 10.1342 91.6584 0.225 0.045 -0.973 187 215 218
-40.2847 9.9076 91.5103 -0.310 0.021 -0.950 153 173 163
-39.7731 9.9240 92.0059 -0.157 0.599 -0.786 192 213 202
-39.6268 9.8768 91.9407 -0.157 0.599 -0.786 195 215 203
-39.3240 9.8030 91.9016 -0.209 0.764 -0.610 195 213 200
-38.8258 9.7737 92.2038 -0.050 0.334 -0.941 199 215 202
-38.9277 9.2654 90.0943 0.110 -0.665 -0.739 199 215 202
-36.5756 8.6252 89.5230 -0.302 0.001 -0.953 164 180 168
-36.4338 8.5773 89.4513 -0.477 0.026 -0.879 125 140 134
-36.2888 8.5343 89.4019 -0.645 -0.029 -0.764 104 118 117
-36.1626 8.4647 89.2309 -0.684 -0.244 -0.688 104 117 120
-36.0193 8.4197 89.1721 -0.704 -0.086 -0.705 147 156 159
-35.8985 8.3438 88.9716 -0.572 -0.305 -0.761 147 164 164
-35.7846 8.2595 88.7317 -0.637 -0.623 -0.453 175 197 196
-35.6496 8.2045 88.6262 -0.603 -0.706 -0.371 205 222 226
-30.8230 6.3667 85.3669 -0.300 -0.764 -0.571 135 144 159
-29.8363 6.2387 85.6870 0.001 0.278 -0.961 163 182 185
-24.4792 4.5278 83.3790 -0.388 -0.363 -0.847 166 216 231
-23.2813 4.1236 82.7771 -0.123 -0.546 -0.829 202 227 236
-23.1271 4.0908 82.7759 -0.123 -0.546 -0.829 192 219 228
-22.0719 3.7316 82.2330 -0.238 -0.454 -0.859 189 213 217
-21.9707 3.6713 82.0781 -0.359 -0.497 -0.790 215 239 243
-21.8174 3.6378 82.0736 -0.384 -0.538 -0.751 212 233 235
-21.6552 3.6088 82.0944 -0.307 -0.343 -0.888 212 233 234
-21.5530 3.5495 81.9442 -0.366 -0.569 -0.736 212 233 234
-21.0303 3.2633 81.2443 0.112 0.558 -0.822 214 235 236
-20.2142 3.2247 81.7766 0.218 -0.412 -0.885 216 236 235
-20.0883 3.1777 81.6956 -0.249 -0.026 -0.968 217 237 236
-19.9518 3.1358 81.6433 -0.381 0.151 -0.912 218 236 236
-19.8101 3.0962 81.6049 -0.347 0.039 -0.937 218 236 236
-19.6638 3.0587 81.5787 -0.043 -0.005 -0.999 211 230 228
-19.5231 3.0187 81.5375 0.163 0.154 -0.975 211 230 228
-19.2164 2.9498 81.5210 0.173 0.160 -0.972 218 237 235
-18.5507 2.7332 81.2183 -0.041 0.467 -0.883 209 228 224
-18.3872 2.7028 81.2351 -0.002 0.410 -0.912 209 225 220
-18.2324 2.6687 81.2292 -0.008 -0.515 -0.857 206 221 216
-18.0597 2.6419 81.2678 -0.026 -0.443 -0.896 199 216 210
-17.9033 2.6082 81.2651 -0.031 -0.473 -0.881 167 184 178
-17.8008 2.5523 81.1289 -0.386 0.179 -0.905 168 185 179
-17.6627 2.5112 81.0812 -0.372 0.209 -0.904 171 188 182
-16.9505 2.3141 80.8955 -0.156 -0.250 -0.956 168 183 178
-16.6743 2.2319 80.8004 -0.312 -0.695 -0.647 160 175 170
-12.3151 1.0738 79.8544 -0.242 -0.845 -0.477 155 171 161
-11.9942 0.9223 79.5210 -0.640 -0.696 -0.327 161 176 169
-10.6090 0.7571 80.0279 -0.438 -0.807 -0.396 158 170 167
-8.5720 0.2030 79.5348 -0.420 -0.083 -0.904 161 175 168
-8.2419 0.2110 79.8441 -0.595 -0.734 -0.328 157 172 165
-7.5912 -0.0082 79.5184 -0.310 -0.813 -0.494 154 169 166
-6.9094 -0.1437 79.5521 -0.441 -0.593 -0.674 159 173 173
-6.7687 -0.1850 79.5061 -0.454 -0.598 -0.661 158 174 173
-6.6330 -0.2274 79.4512 -0.454 -0.598 -0.661 156 172 171
-5.5772 -0.4997 79.2548 -0.220 0.033 -0.975 158 174 171
-5.0113 -0.5189 79.6545 -0.305 -0.043 -0.951 158 174 171
-4.8636 -0.5590 79.6187 -0.319 -0.042 -0.947 159 176 170
-4.6699 -0.5891 79.6619 -0.409 -0.608 -0.680 161 178 171
-4.5405 -0.6334 79.5944 -0.345 -0.553 -0.758 161 178 170
-4.4009 -0.6754 79.5447 -0.377 -0.539 -0.753 162 179 171
-4.2389 -0.7125 79.5329 -0.339 -0.522 -0.782 162 179 172
-2.9612 -1.0856 79.1216 -0.552 -0.478 -0.683 163 180 174
-1.6859 -1.2526 79.5291 -0.605 -0.083 -0.792 159 178 172
-1.5266 -1.2913 79.5090 -0.714 -0.176 -0.678 161 180 174
2.7681 -2.1552 79.6805 -0.725 0.186 -0.663 159 179 168
3.1064 -2.1672 79.9174 -0.650 0.062 -0.758 158 178 167
3.2916 -2.2035 79.9285 -0.567 -0.231 -0.790 156 176 165
3.3993 -2.3167 79.5681 -0.478 -0.108 -0.872 157 176 169
6.6470 -2.8058 80.3519 -0.468 -0.215 -0.857 156 177 172
7.9278 -3.1378 80.1069 -0.230 0.328 -0.916 165 186 183
8.0465 -3.1846 80.0203 -0.430 0.476 -0.767 181 204 201
8.7179 -3.1622 80.6739 -0.241 0.290 -0.926 191 215 213
8.8289 -3.2104 80.5753 0.050 0.368 -0.928 205 230 228
9.0378 -3.2465 80.6073 0.119 0.269 -0.956 217 243 241
9.2955 -3.2768 80.7035 0.119 0.270 -0.955 218 244 244
9.4345 -3.3216 80.6420 0.144 0.275 -0.950 213 241 240
9.5752 -3.3662 80.5826 0.123 0.267 -0.956 209 238 237
9.4270 -3.4451 80.1440 -0.025 0.140 -0.990 207 236 235
9.6410 -3.4807 80.1821 -0.014 0.117 -0.993 205 235 235
11.1019 -3.6166 80.8695 -0.526 0.224 -0.821 206 237 239
11.2051 -3.9056 79.8052 0.029 0.311 -0.950 202 236 239
14.5610 -4.0957 81.8705 -0.120 -0.658 -0.744 190 222 237
15.7069 -4.2834 82.0865 0.158 -0.784 -0.601 131 165 175
15.9834 -4.3169 82.1857 0.143 -0.781 -0.608 148 182 191
15.9269 -4.3815 81.8810 -0.423 0.302 -0.854 156 191 197
-56.2395 15.6499 100.2780 0.060 -0.983 0.171 100 99 90
-44.1355 11.6687 94.6195 0.060 -0.922 -0.382 143 162 174
-43.9724 11.6727 94.7712 -0.424 -0.747 -0.512 173 191 204
-43.8304 11.5932 94.5750 -0.839 -0.402 -0.368 170 188 200
-39.1882 9.8383 91.5034 -0.359 0.430 -0.829 200 214 200
-38.5546 9.4328 90.4282 -0.563 0.031 -0.826 207 213 198
-38.5112 9.2071 89.5717 -0.280 0.024 -0.960 211 214 197
-38.3521 9.1898 89.6359 -0.296 0.023 -0.955 211 214 196
-36.8404 8.8598 89.5904 -0.082 0.108 -0.991 131 151 136
-36.6870 8.8289 89.5961 -0.152 0.084 -0.985 105 124 113
-36.5658 8.7504 89.3864 -0.607 -0.495 -0.622 86 106 100
-36.4274 8.6977 89.2933 -0.607 -0.495 -0.622 104 122 125
-36.2916 8.6416 89.1847 -0.783 -0.330 -0.527 98 115 124
-36.1643 8.5738 89.0227 -0.724 -0.470 -0.506 103 120 132
-36.0271 8.5206 88.9267 -0.621 -0.589 -0.518 143 159 171
-35.9069 8.4443 88.7251 -0.626 -0.605 -0.492 152 170 180
-35.7961 8.3560 88.4682 -0.683 -0.672 -0.287 186 206 216
-34.2995 7.1664 85.0116 -0.543 0.210 -0.813 114 142 151
-33.4015 7.1837 85.8279 -0.849 -0.168 -0.500 65 89 76
-30.2440 7.3610 89.1590 -0.744 -0.665 0.062 124 133 148
-30.5893 6.5271 85.5743 -0.233 -0.101 -0.967 176 184 199
-29.7999 6.3901 85.6903 -0.014 0.298 -0.954 160 184 198
-24.4635 4.6614 83.3003 -0.391 -0.384 -0.836 178 207 219
-23.2899 4.2434 82.6253 -0.164 -0.788 -0.593 212 237 243
-22.2293 3.8878 82.1029 -0.464 -0.535 -0.706 192 215 221
-22.0947 3.8447 82.0444 -0.456 -0.541 -0.706 194 217 223
-21.9591 3.8022 81.9894 -0.456 -0.541 -0.706 212 236 241
-21.8185 3.7624 81.9489 -0.345 -0.370 -0.862 212 233 236
-21.6443 3.7395 82.0038 -0.282 -0.403 -0.871 212 233 236
-20.7602 3.4112 81.4422 0.005 0.606 -0.796 219 238 239
-20.0493 3.3220 81.6817 -0.249 -0.026 -0.968 216 236 235
-19.9055 3.2833 81.6484 -0.381 0.151 -0.912 213 233 232
-19.7691 3.2413 81.5957 -0.347 0.039 -0.937 212 230 230
-19.6397 3.1960 81.5246 0.153 0.165 -0.974 226 244 244
-19.4655 3.1711 81.5712 0.163 0.154 -0.975 224 242 240
-19.3012 3.1415 81.5911 0.171 0.146 -0.974 203 221 220
-19.1631 3.1001 81.5423 0.163 0.150 -0.975 181 200 198
-19.1036 3.0240 81.2908 0.056 0.440 -0.896 166 185 183
-18.9381 2.9949 81.3138 0.075 0.417 -0.906 159 178 176
-18.0405 2.7771 81.2005 -0.026 -0.443 -0.896 151 168 162
-17.8788 2.7457 81.2111 -0.012 -0.477 -0.879 149 166 160
-17.7511 2.7001 81.1369 -0.386 0.179 -0.905 148 165 159
-17.6164 2.6574 81.0805 -0.388 0.170 -0.906 148 165 159
-16.3735 2.2870 80.6514 0.033 -0.814 -0.581 161 176 171
-13.9467 1.7062 80.3763 -0.151 -0.598 -0.787 162 173 167
-13.7969 1.6688 80.3534 -0.282 -0.582 -0.762 162 173 169
-13.6567 1.6282 80.3095 -0.315 -0.542 -0.779 161 174 167
-13.5175 1.5872 80.2634 -0.439 -0.467 -0.768 160 173 166
-12.5988 1.4543 80.5031 -0.076 -0.894 -0.442 162 175 168
-12.2599 1.3907 80.5341 -0.219 -0.901 -0.374 161 174 168
-12.1702 1.3336 80.3830 -0.278 -0.767 -0.579 159 171 166
-12.0285 1.2930 80.3406 -0.423 -0.656 -0.625 158 171 164
-11.8916 1.2509 80.2882 -0.444 -0.627 -0.640 158 171 164
-11.7525 1.2096 80.2404 -0.579 -0.601 -0.551 156 169 160
-10.5141 0.8339 79.7869 -0.333 -0.824 -0.458 163 174 168
-10.4997 0.6764 79.1760 0.266 0.346 -0.900 160 169 164
-9.9272 0.5978 79.3422 0.247 0.350 -0.903 161 171 164
-9.7282 0.5735 79.4117 -0.004 0.243 -0.970 164 175 166
-7.0260 0.0362 79.5381 -0.486 -0.607 -0.629 162 175 175
-6.8990 -0.0085 79.4674 -0.469 -0.609 -0.640 163 177 177
-6.7648 -0.0513 79.4098 -0.469 -0.609 -0.640 163 179 178
-6.6306 -0.0941 79.3524 -0.469 -0.609 -0.640 155 171 170
-5.5136 -0.3520 79.2631 -0.230 0.022 -0.973 158 173 168
-5.3802 -0.3951 79.2040 -0.244 0.011 -0.970 161 176 171
-2.8598 -1.0007 78.9089 -0.209 0.019 -0.978 164 181 175
-2.6683 -1.0321 78.9443 0.174 -0.144 -0.974 173 190 184
-1.6494 -1.1097 79.4863 -0.605 -0.083 -0.792 166 183 177
-1.5165 -1.1534 79.4240 -0.626 -0.081 -0.776 163 180 174
-1.4003 -1.2004 79.3352 -0.626 -0.081 -0.776 163 180 174
3.1138 -2.2225 79.0543 -0.044 0.094 -0.995 156 176 167
8.0182 -2.9839 80.1289 -0.239 0.323 -0.916 136 155 150
8.1495 -3.0293 80.0590 -0.430 0.476 -0.767 135 155 150
9.5404 -3.2883 80.1933 -0.004 0.077 -0.997 175 200 196
9.7227 -3.3277 80.1896 -0.004 0.077 -0.997 188 214 211
9.8794 -3.3702 80.1521 0.200 0.286 -0.937 208 235 232
10.0851 -3.4069 80.1783 0.113 0.533 -0.838 210 237 234
13.7981 -3.8449 81.5396 -0.058 -0.840 -0.540 193 224 236
14.9411 -4.0296 81.7613 0.012 -0.747 -0.665 182 214 228
15.2838 -4.0557 81.9436 -0.038 -0.602 -0.798 191 223 237
15.4942 -4.0950 81.9632 0.128 -0.483 -0.866 192 224 237
15.0583 -4.2562 80.9630 -0.183 -0.475 -0.861 170 204 213
15.2171 -4.3000 80.9222 -0.167 -0.477 -0.863 166 200 208
15.4458 -4.3371 80.9656 0.044 -0.611 -0.790 171 206 212
15.5512 -4.4444 80.6293 -0.614 -0.599 -0.514 198 233 239
22.4056 -4.9242 84.4420 -0.447 -0.881 -0.153 201 234 244
22.5094 -4.9754 84.3259 -0.449 -0.881 -0.148 196 225 235
-43.9597 11.7867 94.5712 -0.400 -0.814 -0.421 151 173 187
-43.8346 11.6427 94.1093 -0.773 -0.592 -0.227 158 178 192
-43.1607 11.1626 92.7801 -0.909 -0.281 -0.309 71 89 99
-42.9758 11.2396 93.2351 -0.248 -0.324 -0.913 83 102 111
-41.3745 10.6604 92.2827 0.402 0.230 -0.886 187 206 198
-40.2196 10.2457 91.6071 -0.393 0.062 -0.917 187 201 180
-39.5014 9.6528 89.8722 -0.876 -0.353 -0.328 201 214 195
-39.0459 9.5642 89.9002 -0.231 -0.023 -0.973 202 214 199
-38.7587 9.4728 89.7783 -0.264 -0.003 -0.964 204 215 199
-38.6282 9.4036 89.6143 -0.322 0.027 -0.946 208 213 199
-38.4832 9.3612 89.5674 -0.280 0.024 -0.960 211 213 200
-38.1292 9.3874 89.9623 -0.538 -0.087 -0.839 211 214 199
-37.9797 9.3511 89.9433 -0.495 -0.105 -0.862 203 205 191
-37.4042 9.1683 89.7005 -0.127 0.081 -0.989 175 192 181
-37.2559 9.1300 89.6725 -0.199 0.101 -0.975 132 152 142
-37.1042 9.0968 89.6673 -0.177 0.109 -0.978 94 114 103
-36.9607 9.0508 89.6053 -0.338 -0.000 -0.941 89 106 95
-36.8106 9.0150 89.5884 -0.109 0.080 -0.991 95 112 103
-36.6838 8.9439 89.4141 -0.603 -0.498 -0.623 105 122 114
-36.5586 8.8713 89.2323 -0.631 -0.512 -0.582 112 129 126
-36.4195 8.8199 89.1453 -0.598 -0.457 -0.659 129 146 151
-36.2889 8.7564 89.0037 -0.730 -0.468 -0.499 111 129 140
-36.1542 8.6995 88.8915 -0.724 -0.470 -0.506 116 135 149
-36.0221 8.6392 88.7638 -0.627 -0.622 -0.469 138 155 168
-35.9118 8.5492 88.5012 -0.677 -0.633 -0.375 170 192 203
-31.9308 6.5963 84.1189 -0.508 -0.795 -0.331 156 171 188
-24.6835 4.7775 82.9585 -0.157 -0.719 -0.677 175 209 208
-23.5674 4.4503 82.5947 -0.529 -0.629 -0.570 190 219 226
-22.5189 4.2038 82.4921 -0.490 -0.582 -0.649 200 223 229
-21.9680 3.9224 81.8420 -0.582 -0.301 -0.755 207 227 233
-21.8411 3.8756 81.7628 -0.582 -0.301 -0.755 216 237 239
-21.4967 3.8282 81.8612 -0.527 -0.748 -0.403 216 237 238
-20.1708 3.4973 81.6558 0.202 -0.406 -0.891 165 185 184
-20.0102 3.4665 81.6677 -0.249 -0.026 -0.968 160 180 179
-19.8592 3.4312 81.6535 -0.381 0.151 -0.912 147 167 166
-19.7280 3.3865 81.5865 -0.347 0.039 -0.937 135 155 154
-19.5761 3.3515 81.5743 0.171 0.146 -0.974 133 153 152
-18.8615 3.1554 81.3941 0.075 0.417 -0.906 154 173 171
-18.0214 2.9124 81.1331 -0.026 -0.443 -0.896 158 175 169
-17.8619 2.8801 81.1380 -0.012 -0.477 -0.879 158 175 169
-17.5972 2.7927 81.0133 -0.438 -0.053 -0.898 158 175 169
-16.9313 2.4811 80.3392 -0.504 -0.421 -0.754 161 176 173
-16.2671 2.3615 80.4182 -0.057 -0.781 -0.622 157 172 165
-15.6499 2.2222 80.3802 -0.280 -0.730 -0.623 158 173 166
-14.3575 1.8709 80.0675 0.210 -0.051 -0.976 158 173 166
-14.1139 1.8665 80.2514 -0.051 -0.521 -0.852 154 169 162
-13.9424 1.8368 80.2762 -0.151 -0.598 -0.787 156 169 162
-13.7918 1.7998 80.2552 -0.290 -0.581 -0.761 159 172 165
-13.6445 1.7616 80.2267 -0.332 -0.529 -0.781 162 175 168
-13.5071 1.7200 80.1768 -0.439 -0.467 -0.768 160 173 166
-13.3519 1.6844 80.1653 -0.408 -0.516 -0.753 159 172 165
-13.2030 1.6467 80.1400 -0.355 -0.530 -0.770 164 177 170
-13.0426 1.6127 80.1390 -0.181 -0.646 -0.742 165 178 171
-12.8844 1.5779 80.1329 -0.143 -0.703 -0.697 165 178 171
-12.6516 1.5674 80.2834 -0.076 -0.894 -0.442 163 176 169
-12.3198 1.5020 80.3008 -0.219 -0.901 -0.374 162 175 168
-12.1919 1.4571 80.2298 -0.278 -0.767 -0.579 178 191 184
-12.0540 1.4154 80.1799 -0.315 -0.721 -0.618 177 190 183
-11.7626 1.3369 80.1121 -0.579 -0.601 -0.551 173 186 179
-11.6408 1.2902 80.0294 -0.563 -0.622 -0.544 167 180 173
-11.5351 1.2387 79.9145 -0.343 -0.499 -0.796 168 181 174
-11.3911 1.1990 79.8774 -0.343 -0.499 -0.796 170 183 176
-11.2472 1.1593 79.8403 -0.343 -0.499 -0.796 159 172 165
-11.1032 1.1196 79.8033 -0.343 -0.499 -0.796 151 164 157
-10.9616 1.0792 79.7615 -0.394 -0.575 -0.717 154 167 160
-10.8278 1.0365 79.7041 -0.396 -0.685 -0.611 155 168 161
-10.6985 0.9925 79.6381 -0.434 -0.807 -0.400 147 160 153
-10.5541 0.9529 79.6020 -0.333 -0.824 -0.458 145 156 150
-10.2118 0.8083 79.3164 0.236 0.373 -0.897 122 133 127
-9.6542 0.7249 79.4493 -0.004 0.243 -0.970 127 138 130
-9.4843 0.6924 79.4617 0.130 0.180 -0.975 111 122 114
-9.2943 0.6652 79.5119 0.278 0.240 -0.930 114 126 116
-9.1042 0.6379 79.5616 0.278 0.240 -0.930 117 129 119
-7.0347 0.1666 79.4189 -0.486 -0.607 -0.629 89 101 99
-6.9022 0.1233 79.3583 -0.486 -0.607 -0.629 89 104 101
-6.7715 0.0797 79.2947 -0.490 -0.606 -0.627 92 107 104
-6.6388 0.0365 79.2348 -0.501 -0.604 -0.619 81 96 93
-5.6140 -0.1681 79.2772 -0.224 0.016 -0.975 94 106 102
-5.4671 -0.2081 79.2414 -0.236 0.011 -0.972 82 94 90
-5.3278 -0.2498 79.1924 -0.244 0.011 -0.970 80 95 90
-4.9120 -0.2282 79.6203 -0.319 -0.042 -0.947 80 95 90
-4.7700 -0.2698 79.5743 -0.319 -0.042 -0.947 81 94 92
-4.6786 -0.3227 79.4418 -0.416 -0.599 -0.684 70 83 81
-4.3805 -0.4025 79.3747 -0.374 -0.541 -0.753 77 90 90
-4.2279 -0.4416 79.3472 -0.339 -0.522 -0.782 79 93 93
-3.5639 -0.5868 79.3251 0.204 0.017 -0.979 71 88 83
-3.3877 -0.6211 79.3358 0.127 0.124 -0.984 72 89 83
-2.8138 -0.8570 78.8832 -0.197 -0.057 -0.979 98 113 110
-2.2525 -0.9539 78.9658 0.255 0.012 -0.967 103 116 113
-2.0581 -0.9850 79.0042 -0.034 0.107 -0.994 103 118 115
-1.3741 -1.0595 79.2761 -0.690 -0.228 -0.686 122 137 134
-1.4275 -1.1392 78.9190 -0.214 -0.127 -0.969 110 125 122
-1.2762 -1.1791 78.8873 -0.064 -0.333 -0.941 118 130 127
-1.0921 -1.2127 78.9070 0.032 -0.485 -0.874 119 134 128
-0.9044 -1.2458 78.9321 0.032 -0.485 -0.874 113 130 122
-0.7404 -1.2834 78.9197 0.048 -0.417 -0.907 118 134 126
-0.5894 -1.3235 78.8868 -0.138 -0.468 -0.873 124 141 133
-0.4231 -1.3608 78.8776 -0.487 -0.220 -0.845 135 152 144
-0.2921 -1.4047 78.8136 -0.487 -0.220 -0.845 148 165 157
-0.1836 -1.4526 78.7152 -0.367 -0.097 -0.925 156 173 165
0.5404 -1.4570 79.2951 0.209 0.248 -0.946 154 173 164
0.7123 -1.4940 79.2918 0.312 0.381 -0.870 159 176 168
7.4194 -2.7960 79.7145 0.002 -0.774 -0.633 148 169 164
7.5963 -2.8350 79.7074 -0.068 -0.768 -0.636 147 170 164
7.8101 -2.8692 79.7495 -0.391 -0.634 -0.667 150 173 167
9.7154 -2.9989 80.8123 0.130 0.258 -0.957 155 180 176
9.6319 -3.1338 80.2137 -0.002 0.064 -0.998 142 167 163
9.8152 -3.1731 80.2109 -0.002 0.064 -0.998 140 165 162
10.0155 -3.2103 80.2300 0.200 0.286 -0.937 142 167 164
10.4605 -3.2798 80.3244 0.109 0.536 -0.837 141 166 163
11.2559 -3.3087 80.8673 -0.523 0.233 -0.820 168 194 191
10.9873 -3.4015 80.2815 0.118 0.442 -0.889 179 205 202
11.1793 -3.4402 80.2878 0.118 0.442 -0.889 213 240 237
11.3860 -3.4774 80.3124 0.107 0.421 -0.901 216 244 240
11.5580 -3.5186 80.2926 0.181 0.382 -0.906 215 243 239
11.7030 -3.5628 80.2386 0.210 0.397 -0.894 210 238 234
12.7612 -3.5664 81.0977 -0.231 0.104 -0.967 206 234 230
14.5325 -3.8023 81.6333 0.011 -0.633 -0.774 196 226 231
14.7532 -3.8400 81.6672 0.011 -0.633 -0.774 192 222 230
15.2174 -3.9136 81.7614 -0.006 -0.599 -0.801 196 228 237
15.4134 -3.9542 81.7637 0.037 -0.594 -0.803 192 225 233
15.5833 -3.9975 81.7340 0.141 -0.663 -0.735 189 223 228
15.0664 -4.1081 80.8730 -0.216 -0.317 -0.923 189 224 228
15.2162 -4.1528 80.8214 -0.184 -0.485 -0.855 179 214 217
15.4312 -4.1911 80.8482 0.048 -0.605 -0.795 173 208 211
15.4588 -4.2474 80.6499 -0.682 -0.525 -0.509 188 223 226
15.5683 -4.2958 80.5504 -0.649 -0.558 -0.517 196 231 235
-43.8401 11.6866 93.6255 -0.730 -0.668 -0.147 176 200 212
-43.3996 11.5260 93.3597 -0.904 -0.160 -0.396 204 226 232
-43.2656 11.4294 93.0926 -0.904 -0.160 -0.396 94 115 121
-43.1073 11.4174 93.1752 -0.242 -0.299 -0.923 83 104 110
-42.9572 11.3770 93.1406 -0.252 -0.286 -0.925 84 106 112
-42.8520 11.1917 92.5041 -0.470 0.522 -0.712 85 106 111
-41.9464 10.9795 92.4170 -0.384 0.171 -0.907 177 193 205
-41.3466 10.8227 92.2961 0.400 0.238 -0.885 186 204 191
-40.1395 10.5208 92.1057 -0.124 -0.491 -0.862 194 207 188
-39.9812 10.4986 92.1487 -0.121 -0.474 -0.872 197 210 191
-39.8467 10.4247 91.9701 -0.004 -0.509 -0.861 200 213 195
-39.8505 10.0601 90.5457 -0.424 -0.539 -0.728 201 214 196
-39.2747 9.8718 90.2822 -0.413 -0.362 -0.836 202 215 197
-39.2169 9.6579 89.4956 0.124 -0.018 -0.992 202 215 197
-39.0608 9.6374 89.5434 0.109 -0.014 -0.994 202 215 196
-38.9081 9.6098 89.5605 0.109 -0.014 -0.994 203 216 196
-38.4524 9.5203 89.5842 -0.259 0.017 -0.966 207 215 201
-38.1005 9.5430 89.9601 -0.574 -0.079 -0.815 207 215 203
-37.9527 9.5035 89.9272 -0.512 -0.052 -0.858 210 216 204
-37.5212 9.3653 89.7411 -0.268 -0.115 -0.957 111 123 115
-37.3763 9.3214 89.6881 -0.283 -0.120 -0.952 88 103 99
-37.2253 9.2871 89.6781 -0.185 0.085 -0.979 95 114 110
-37.0746 9.2524 89.6658 -0.163 0.076 -0.984 105 122 117
-36.9565 9.1665 89.4276 -0.707 -0.520 -0.480 102 118 113
-36.6853 9.0516 89.2013 -0.673 -0.554 -0.491 122 138 137
-36.5508 8.9931 89.0829 -0.673 -0.554 -0.491 131 147 149
-36.4000 8.9591 89.0740 -0.584 -0.449 -0.676 148 165 172
-36.2518 8.9211 89.0467 -0.544 -0.567 -0.619 120 138 149
-30.2940 6.8621 85.8896 -0.200 -0.535 -0.821 196 211 226
-24.9939 4.9630 82.8182 -0.173 -0.782 -0.599 199 236 226
-24.7100 4.8845 82.7441 -0.178 -0.783 -0.596 176 210 203
-24.0758 4.7671 82.8048 -0.330 -0.641 -0.693 180 205 219
-22.7029 4.3452 82.2821 -0.326 -0.269 -0.906 204 227 233
-22.5529 4.3101 82.2679 -0.429 -0.305 -0.850 215 238 243
-21.9488 4.0571 81.7756 -0.563 -0.253 -0.787 219 239 245
-21.8198 4.0113 81.7021 -0.564 -0.263 -0.783 193 214 216
-21.6455 3.9890 81.7577 -0.527 -0.748 -0.403 194 215 216
-20.7306 3.7850 81.7103 -0.019 0.606 -0.795 139 159 160
-20.5779 3.7508 81.7017 0.005 0.606 -0.796 136 156 155
-20.1479 3.6342 81.5986 0.202 -0.406 -0.891 146 166 165
-19.9711 3.6112 81.6537 -0.249 -0.026 -0.968 146 166 165
-18.9548 3.3436 81.4412 0.050 0.440 -0.897 155 174 172
-18.7844 3.3166 81.4751 0.076 0.415 -0.906 154 173 171
-18.4775 3.2470 81.4547 0.068 0.415 -0.907 154 173 169
-18.4029 3.1776 81.2449 -0.201 0.152 -0.968 155 174 170
-18.0778 3.0153 80.8780 -0.046 -0.548 -0.835 157 174 168
-17.9486 2.9705 80.8089 0.012 -0.557 -0.830 155 174 168
-17.4962 2.8633 80.7611 -0.715 -0.360 -0.599 156 173 167
-16.3192 2.4688 80.1849 0.106 -0.512 -0.852 161 176 169
-16.0369 2.3897 80.1071 -0.027 -0.165 -0.986 158 173 166
-15.9018 2.3478 80.0544 -0.179 -0.041 -0.983 160 175 168
-15.7189 2.3240 80.1113 -0.184 -0.100 -0.978 163 178 171
-15.5676 2.2882 80.0952 -0.070 -0.023 -0.997 166 181 174
-15.4188 2.2514 80.0733 -0.067 -0.061 -0.996 166 181 174
-15.2668 2.2157 80.0584 -0.128 -0.203 -0.971 167 182 175
-15.1209 2.1777 80.0294 -0.003 -0.051 -0.999 164 179 172
-14.7782 2.1200 80.0848 -0.156 -0.178 -0.972 155 170 163
-14.1015 1.9997 80.1691 -0.051 -0.521 -0.852 170 185 178
-13.9387 1.9671 80.1749 -0.138 -0.601 -0.787 165 178 171
-13.8076 1.9234 80.1117 -0.213 -0.401 -0.891 159 172 165
-13.6389 1.8927 80.1298 -0.323 -0.529 -0.784 156 169 162
-13.4930 1.8540 80.0984 -0.427 -0.474 -0.770 155 168 161
-13.3450 1.8160 80.0713 -0.408 -0.516 -0.753 153 166 159
-13.1961 1.7784 80.0462 -0.355 -0.530 -0.770 149 162 155
-13.0442 1.7417 80.0272 -0.181 -0.646 -0.742 148 161 154
-12.8928 1.7047 80.0069 -0.143 -0.703 -0.697 133 146 139
-12.5429 1.6461 80.0645 -0.048 -0.786 -0.616 121 134 127
-12.2199 1.5782 80.0639 -0.277 -0.767 -0.578 90 103 96
-11.7776 1.4624 79.9740 -0.563 -0.622 -0.544 97 110 103
-11.6530 1.4167 79.8974 -0.563 -0.622 -0.544 89 102 95
-11.5247 1.3721 79.8285 -0.514 -0.642 -0.569 92 105 98
