ply
format ascii 1.0
element vertex 878
property float x
property float y
property float z
property float nx
property float ny
property float nz
property uchar diffuse_red
property uchar diffuse_green
property uchar diffuse_blue
end_header
51.5040 23.5912 81.6739 0.626 -0.774 -0.092 126 139 130
51.6594 23.7860 82.1233 -0.066 -0.237 -0.969 128 141 132
51.8030 23.7645 82.1554 0.131 -0.101 -0.986 135 148 141
51.9430 23.6882 82.0817 0.271 0.113 -0.956 140 155 150
52.0814 23.5959 81.9767 0.536 -0.085 -0.840 142 157 154
52.1935 23.1419 81.1710 0.793 -0.171 -0.585 141 157 154
53.8564 23.9288 83.5124 0.710 0.214 -0.671 127 147 140
54.0073 23.9673 83.6623 0.099 -0.194 -0.976 132 150 144
58.8329 25.7400 89.4860 0.964 -0.195 -0.183 97 118 120
59.3187 26.5064 91.1896 0.290 -0.916 -0.277 107 126 124
59.9984 26.6967 91.8970 -0.226 0.466 -0.855 113 133 131
62.0899 27.3085 94.1237 0.413 -0.145 -0.899 132 157 155
63.5195 28.2406 96.6223 0.901 -0.059 -0.429 154 163 156
63.7405 28.4135 97.0631 0.901 -0.059 -0.429 110 115 108
-19.3660 34.4018 65.7726 -0.204 -0.782 -0.588 53 64 58
-19.1285 34.3343 65.7655 -0.178 -0.664 -0.727 55 64 59
-6.4181 29.3218 62.7420 0.327 -0.188 -0.926 69 70 64
-6.1224 29.1880 62.6392 0.356 -0.538 -0.764 77 78 72
-5.9770 29.1801 62.6981 0.158 -0.434 -0.887 70 71 65
-4.6158 28.7153 62.5106 0.058 -0.157 -0.986 81 80 76
-4.4314 28.6731 62.5244 0.072 -0.181 -0.981 82 81 77
-4.0680 28.5927 62.5570 0.031 -0.246 -0.969 71 70 66
-3.6292 28.4465 62.5033 -0.077 -0.343 -0.936 63 62 60
-3.4585 28.4151 62.5307 -0.070 -0.377 -0.924 59 58 56
-3.2493 28.3502 62.5142 -0.054 -0.362 -0.930 61 57 54
-2.9542 28.2101 62.3992 0.059 -0.096 -0.994 65 61 58
-2.6682 28.1944 62.5148 0.209 -0.196 -0.958 72 69 64
-2.5034 28.1674 62.5476 0.190 -0.159 -0.969 53 50 45
-2.3381 28.1399 62.5795 0.350 -0.379 -0.857 54 51 46
-2.1622 28.1030 62.5990 0.455 -0.487 -0.745 56 53 48
-2.0320 28.1063 62.6715 0.445 -0.491 -0.749 58 55 50
3.0844 26.3288 61.9090 0.329 -0.530 -0.782 76 75 71
6.3477 25.2957 61.6129 0.196 -0.481 -0.855 76 71 68
6.4923 25.2793 61.6553 0.196 -0.481 -0.855 85 80 77
6.6461 25.2538 61.6851 0.179 -0.463 -0.868 93 88 85
6.8057 25.2222 61.7066 -0.180 -0.527 -0.831 93 88 85
6.9850 25.1708 61.7005 -0.180 -0.527 -0.831 84 79 76
7.1847 25.0986 61.6654 -0.180 -0.530 -0.829 84 79 76
8.0259 24.8926 61.7031 0.314 -0.539 -0.781 78 74 71
8.1690 24.8766 61.7456 0.127 -0.377 -0.917 73 69 66
8.3200 24.8524 61.7765 0.127 -0.377 -0.917 73 69 66
15.4784 23.3700 62.6101 0.235 -0.296 -0.926 96 88 85
17.8739 22.8864 62.9125 0.336 -0.498 -0.800 141 128 119
18.1598 22.8404 62.9708 0.304 -0.463 -0.833 128 116 104
18.9384 22.8042 63.2981 0.460 -0.537 -0.707 122 105 95
19.0401 22.8355 63.4091 0.398 -0.404 -0.824 156 139 129
19.2999 22.8236 63.5186 0.175 -0.088 -0.981 170 153 143
21.0405 22.4991 63.7893 0.183 -0.370 -0.911 160 147 138
21.1788 22.4807 63.8246 0.183 -0.370 -0.911 155 142 134
22.4808 22.2256 64.0037 0.275 -0.547 -0.791 110 94 81
24.7436 22.0160 64.7573 0.295 -0.329 -0.897 75 59 46
29.0626 21.7196 66.3915 0.156 -0.325 -0.933 91 74 67
29.1702 21.7559 66.5149 0.087 -0.293 -0.952 91 74 67
29.3161 21.7179 66.5171 0.169 -0.299 -0.939 91 75 68
29.4393 21.7242 66.5917 0.162 -0.442 -0.882 93 79 70
29.5714 21.7129 66.6376 0.125 -0.476 -0.871 102 89 80
29.7539 21.6015 66.5195 0.336 -0.450 -0.828 115 102 93
31.2753 21.5949 67.2802 0.333 -0.556 -0.761 130 117 109
31.6169 21.6816 67.6177 0.346 -0.342 -0.873 124 111 103
32.2146 21.7724 68.0933 0.236 -0.590 -0.772 105 92 84
38.1886 21.6880 70.9700 0.209 -0.103 -0.972 99 86 80
38.3248 21.6680 71.0014 0.209 -0.103 -0.972 123 110 102
38.8373 21.7051 71.3319 0.510 -0.372 -0.775 111 101 92
39.5063 21.6502 71.5682 0.337 -0.630 -0.700 94 84 75
41.3819 22.1313 73.4315 0.106 -0.767 -0.633 76 67 62
41.5125 22.1465 73.5268 0.122 -0.781 -0.612 75 66 61
41.6590 22.0805 73.4763 0.047 -0.162 -0.986 74 64 62
41.8028 22.0269 73.4480 0.243 -0.053 -0.969 77 66 62
41.9520 21.9430 73.3650 0.263 0.018 -0.965 117 108 103
42.0834 21.9530 73.4508 -0.109 -0.195 -0.975 112 103 98
42.2152 21.9614 73.5337 -0.181 -0.035 -0.983 105 96 91
42.3545 21.9281 73.5414 0.149 -0.178 -0.973 96 88 85
42.9946 22.1000 74.1919 0.413 -0.679 -0.607 89 81 79
43.1290 22.0993 74.2589 0.256 -0.672 -0.695 89 81 79
43.2644 22.0927 74.3152 0.256 -0.672 -0.695 89 82 77
44.8498 22.3749 75.6550 0.549 0.036 -0.835 110 106 97
45.1301 22.2996 75.6551 0.391 0.120 -0.912 112 108 97
46.7609 22.3925 76.6596 0.840 -0.298 -0.453 126 124 112
49.3796 23.1115 79.3509 0.462 -0.662 -0.590 111 123 110
49.5209 23.1788 79.5500 0.511 -0.630 -0.584 112 124 110
49.6623 23.1963 79.6549 0.511 -0.630 -0.584 110 122 108
49.8051 23.3147 79.9516 0.172 -0.119 -0.978 110 122 108
49.9471 23.3190 80.0318 0.159 -0.154 -0.975 109 123 108
50.5112 23.1807 80.0569 0.564 -0.450 -0.692 116 134 122
51.2422 23.6378 81.2933 0.920 -0.371 -0.130 119 135 125
51.3865 23.6508 81.3911 0.961 -0.188 -0.204 119 135 125
51.5197 23.4558 81.0900 0.662 -0.581 -0.474 119 135 125
52.1115 23.7274 81.9046 0.541 -0.052 -0.839 143 158 153
53.7459 24.1164 83.4711 0.764 0.117 -0.635 135 154 148
53.8901 24.0951 83.5042 0.302 -0.385 -0.872 135 154 148
54.0397 24.1215 83.6302 0.121 -0.212 -0.970 140 157 151
54.3029 23.8701 83.2883 0.063 -0.228 -0.972 124 143 137
55.4514 24.7248 85.4891 0.311 -0.493 -0.812 41 53 49
55.6086 24.7758 85.6654 -0.139 -0.588 -0.797 34 49 46
58.8763 25.9378 89.5246 0.953 -0.274 -0.131 75 96 98
59.0225 25.8964 89.5206 0.914 -0.397 -0.084 91 111 109
60.3402 27.4547 93.1387 0.247 -0.843 -0.477 112 133 128
63.3685 28.3365 96.3460 0.851 -0.014 -0.524 183 201 198
63.5714 28.4543 96.6720 0.851 -0.014 -0.524 128 137 127
63.7753 28.5728 96.9998 0.851 -0.014 -0.524 103 108 101
63.9767 28.6803 97.3056 0.819 0.060 -0.570 88 93 87
66.7980 27.7077 96.8994 0.923 -0.374 -0.084 92 100 102
-18.9023 34.3484 65.5266 -0.201 -0.768 -0.608 61 70 66
-18.6798 34.2915 65.5324 -0.249 -0.645 -0.722 50 61 54
-3.5467 28.5448 62.3890 0.077 -0.482 -0.873 62 58 55
-3.3813 28.5178 62.4222 0.294 -0.458 -0.839 58 54 51
-2.7878 28.3512 62.4096 0.060 -0.008 -0.998 79 76 71
-2.6406 28.3396 62.4626 0.139 -0.085 -0.987 81 78 73
-2.4643 28.3025 62.4821 -0.074 -0.080 -0.994 75 72 67
-2.3139 28.2881 62.5313 0.122 -0.158 -0.980 80 77 72
-2.2060 28.3113 62.6298 0.464 -0.425 -0.778 74 71 66
-2.0770 28.3160 62.7041 0.464 -0.425 -0.778 70 67 62
-0.4890 27.4917 61.9574 -0.174 -0.312 -0.934 71 67 64
-0.3014 27.4416 61.9584 0.222 -0.532 -0.817 68 67 63
6.4140 25.3935 61.5093 0.118 -0.514 -0.850 77 72 69
6.5552 25.3804 61.5562 0.177 -0.491 -0.853 82 77 74
6.7010 25.3627 61.5968 0.141 -0.457 -0.878 83 78 75
7.2052 25.2415 61.6246 -0.035 -0.544 -0.839 84 79 76
7.8404 25.1154 61.7095 0.191 -0.359 -0.914 81 77 74
7.9994 25.0833 61.7297 0.191 -0.364 -0.912 79 75 72
8.1995 25.0087 61.6908 0.128 -0.349 -0.928 73 69 66
8.5827 25.0084 61.8847 0.042 -0.461 -0.886 68 63 60
9.1842 24.9134 62.0110 0.131 -0.610 -0.781 63 58 54
9.6413 24.8348 62.0950 0.066 -0.427 -0.902 78 73 69
10.0176 24.7053 62.0421 0.026 -0.502 -0.864 66 61 58
10.1993 24.6470 62.0245 -0.071 0.108 -0.992 68 63 60
10.9285 24.4077 61.9440 0.328 -0.630 -0.704 64 56 53
11.0736 24.3877 61.9799 0.336 -0.679 -0.653 81 74 68
11.2130 24.3738 62.0245 0.350 -0.673 -0.652 73 66 60
15.2764 23.4753 62.3947 0.197 -0.333 -0.922 75 66 61
16.7188 23.2452 62.6935 0.085 -0.570 -0.817 121 112 105
17.7716 23.0225 62.8085 0.334 -0.505 -0.796 123 110 101
17.9394 22.9676 62.7903 0.331 -0.516 -0.790 145 132 123
18.1931 22.9628 62.9100 0.364 -0.447 -0.817 135 123 111
18.3089 22.9749 62.9915 0.354 -0.442 -0.824 127 115 103
18.4372 22.9708 63.0489 0.354 -0.442 -0.824 118 106 94
18.8112 22.9731 63.2432 0.407 -0.390 -0.826 93 76 66
18.9460 22.9606 63.2881 0.381 -0.394 -0.836 109 92 82
19.0679 22.9654 63.3589 0.398 -0.404 -0.824 125 108 98
19.1935 22.9652 63.4224 0.119 -0.383 -0.916 113 96 86
20.2088 22.7787 63.5865 0.419 -0.440 -0.794 138 124 113
20.3475 22.7602 63.6220 0.361 -0.367 -0.857 104 90 79
20.4912 22.7347 63.6470 0.286 -0.374 -0.882 114 100 89
20.6007 22.7569 63.7443 0.300 -0.339 -0.892 123 109 98
29.1326 21.7660 66.2090 0.209 -0.340 -0.917 104 87 80
29.4651 21.8564 66.5481 0.170 -0.394 -0.903 92 79 70
29.6369 21.7664 66.4658 0.254 -0.390 -0.885 118 105 96
31.1554 21.7680 67.2397 0.261 -0.428 -0.865 124 111 103
31.6507 21.7971 67.5459 0.366 -0.328 -0.871 130 117 109
32.2492 21.8861 68.0175 0.368 -0.609 -0.703 135 122 114
33.0708 21.7584 68.1940 0.313 -0.672 -0.671 108 95 89
34.4737 21.7772 68.9417 0.548 -0.092 -0.831 118 108 99
38.0857 21.8209 70.8575 0.516 -0.369 -0.773 95 82 76
38.8686 21.8247 71.2622 0.463 -0.231 -0.856 125 115 106
39.2282 21.9543 71.6889 0.553 -0.170 -0.816 83 73 64
39.3667 21.9266 71.7071 0.207 -0.634 -0.745 89 79 70
39.5068 21.8921 71.7132 0.011 -0.576 -0.818 100 90 81
41.1531 22.2177 73.1624 0.011 -0.542 -0.840 98 89 82
41.2913 22.1941 73.1879 0.032 -0.537 -0.843 87 78 71
41.4226 22.2042 73.2736 0.227 -0.731 -0.644 73 64 59
41.5520 22.2246 73.3778 0.261 -0.599 -0.757 65 56 51
41.6876 22.2141 73.4269 0.260 -0.599 -0.757 69 60 55
41.9760 22.1005 73.3593 0.209 0.291 -0.934 94 83 79
43.4338 22.1843 74.2572 -0.057 -0.629 -0.775 104 95 88
45.0180 22.4834 75.6249 0.380 0.148 -0.913 112 108 99
46.9323 22.4465 76.5273 0.042 0.354 -0.934 128 126 114
49.2688 23.2043 79.1410 -0.030 -0.571 -0.820 103 114 98
49.4096 23.2260 79.2533 0.264 -0.707 -0.656 111 123 109
49.5508 23.2747 79.4167 0.241 -0.835 -0.494 120 132 118
49.6917 23.2553 79.4517 0.247 -0.839 -0.484 111 123 109
49.8327 23.2429 79.4999 0.687 -0.569 -0.452 109 123 108
49.9745 23.2886 79.6581 0.687 -0.569 -0.452 109 123 108
51.2693 23.7056 81.1010 0.907 -0.399 -0.135 112 128 118
51.4172 23.7928 81.3403 0.933 -0.312 -0.181 112 128 118
51.7105 23.8894 81.6711 0.296 -0.944 -0.146 115 128 118
51.8623 24.0100 81.9754 -0.064 -0.278 -0.959 123 136 127
52.0025 23.9403 81.9152 0.005 -0.268 -0.964 128 141 134
52.2535 23.4099 81.0436 0.508 -0.246 -0.825 141 158 152
54.4969 24.1485 83.5738 0.559 -0.444 -0.700 131 150 144
55.3364 24.8895 85.3959 0.214 -0.666 -0.714 65 80 77
55.4817 24.8607 85.4154 0.287 -0.512 -0.810 51 66 63
56.3908 25.8393 87.7205 0.807 -0.590 -0.000 30 49 43
56.4829 24.5852 85.4046 -0.426 0.624 -0.655 32 51 45
59.0469 26.0089 89.3883 0.758 -0.644 0.101 82 101 98
63.8020 28.7060 96.8833 0.688 0.295 -0.663 98 103 96
64.3848 29.4778 98.6330 0.867 -0.331 -0.373 91 98 90
-19.1568 34.6146 65.5189 0.499 0.110 -0.860 68 79 75
-18.9678 34.5833 65.5560 0.465 0.128 -0.876 61 70 66
-18.7405 34.5227 65.5577 -0.095 -0.307 -0.947 50 62 54
-14.1711 32.6744 64.4077 0.129 -0.729 -0.673 53 61 46
-14.1081 32.7379 64.5588 0.344 -0.821 -0.455 53 61 47
-9.8600 31.0325 63.5141 -0.116 0.131 -0.985 63 64 59
-9.5641 30.9046 63.4241 -0.098 0.151 -0.984 69 70 65
-4.7143 29.0249 62.3576 -0.072 -0.483 -0.872 59 58 54
-0.3643 27.5465 61.7904 -0.023 -0.393 -0.919 77 74 69
-0.2302 27.5446 61.8548 0.245 -0.525 -0.815 82 81 76
3.9183 26.6119 62.2090 -0.080 -0.731 -0.678 61 57 54
6.1859 25.7854 61.8084 0.037 -0.545 -0.838 78 73 70
6.3266 25.7735 61.8575 0.025 -0.544 -0.839 78 73 70
6.5239 25.7047 61.8285 0.031 -0.477 -0.878 72 67 64
7.9665 25.2811 61.7654 0.280 -0.304 -0.911 79 75 72
9.6587 24.9806 62.0599 0.154 -0.351 -0.924 66 61 58
9.8470 24.9157 62.0337 -0.055 -0.519 -0.853 67 62 59
9.9866 24.9028 62.0802 0.254 -0.528 -0.811 67 62 59
11.0212 24.4702 61.7935 -0.121 -0.554 -0.824 64 56 53
15.2968 23.9196 62.9289 0.527 -0.375 -0.763 85 77 74
17.9588 23.1079 62.7562 0.328 -0.277 -0.903 138 125 116
18.0717 23.1236 62.8428 0.393 -0.190 -0.900 143 131 119
18.4828 23.0771 62.9640 0.372 -0.193 -0.908 149 137 125
18.6063 23.0792 63.0306 0.372 -0.340 -0.864 121 109 97
19.2244 23.0908 63.3659 0.399 -0.318 -0.860 119 102 92
19.3501 23.0907 63.4294 0.343 -0.328 -0.880 118 101 91
19.4818 23.0824 63.4806 0.362 -0.325 -0.873 135 118 108
20.3789 22.8846 63.5645 0.335 -0.396 -0.855 143 129 118
20.5202 22.8624 63.5945 0.327 -0.407 -0.853 125 111 100
20.6068 22.9167 63.7402 0.314 -0.432 -0.845 129 115 104
25.1800 22.2644 64.8357 0.170 -0.510 -0.843 126 111 98
25.3253 22.2317 64.8481 0.151 -0.513 -0.845 152 139 128
29.1104 21.9910 66.3161 0.177 -0.294 -0.939 97 80 73
29.4954 21.9797 66.4901 0.221 -0.347 -0.911 126 113 104
29.6298 21.9640 66.5287 0.221 -0.347 -0.911 122 109 100
29.7776 21.9212 66.5234 0.424 -0.230 -0.876 134 121 112
29.9044 21.9204 66.5863 0.442 -0.211 -0.872 150 137 128
33.1017 21.8800 68.1318 0.266 -0.222 -0.938 116 103 97
36.5480 21.9658 70.0403 0.367 -0.490 -0.790 117 108 99
38.6347 21.9574 71.0828 0.380 -0.428 -0.820 122 112 103
38.7715 21.9352 71.1103 0.409 -0.410 -0.815 129 119 110
38.9116 21.8999 71.1153 0.146 -0.556 -0.818 135 125 116
38.9809 22.1345 71.5905 0.443 -0.136 -0.886 133 123 114
39.1105 22.1423 71.6707 0.400 -0.160 -0.902 104 94 85
39.2432 22.1382 71.7304 0.400 -0.160 -0.902 89 79 70
39.3903 22.0767 71.6896 0.181 -0.613 -0.769 113 103 94
39.5340 22.0280 71.6712 0.008 -0.565 -0.825 120 110 101
39.7925 22.0463 71.8366 0.155 -0.815 -0.559 120 110 101
41.7189 22.3336 73.3524 0.509 -0.583 -0.633 78 67 63
41.8501 22.3461 73.4424 0.395 -0.050 -0.917 98 87 83
43.1922 22.3300 74.0927 0.324 -0.622 -0.713 89 80 80
43.3334 22.2845 74.0790 0.303 -0.601 -0.740 90 81 77
45.9846 22.8242 76.4357 0.290 0.572 -0.767 89 87 75
47.0911 22.7148 76.7916 0.156 0.322 -0.934 128 126 114
47.5065 22.6548 76.8897 0.217 0.099 -0.971 128 126 113
47.7814 22.6586 77.0363 0.075 0.297 -0.952 121 122 108
49.1580 23.3846 79.0961 0.123 -0.611 -0.782 109 117 100
49.2989 23.3661 79.1328 0.123 -0.611 -0.782 98 108 92
49.7241 23.6151 79.8154 0.728 -0.649 -0.222 113 124 108
50.0048 23.4350 79.6201 0.351 -0.844 -0.405 111 123 109
50.2960 23.7792 80.4134 0.003 -0.262 -0.965 108 122 109
50.4389 23.7871 80.5006 0.126 -0.331 -0.935 108 121 110
52.4336 23.6387 81.2338 0.886 -0.383 -0.262 136 153 147
55.3646 25.0099 85.2921 0.214 -0.666 -0.714 80 96 95
56.5172 25.6334 87.0462 -0.403 -0.212 -0.890 29 50 43
62.2957 27.5717 93.6123 0.212 -0.975 -0.060 107 135 133
63.9137 29.6493 98.3299 0.959 -0.158 -0.235 95 103 93
64.4460 29.7199 98.7322 0.864 -0.422 -0.276 87 94 86
-19.1401 34.7872 65.4725 0.454 0.164 -0.876 49 60 54
-18.8877 34.7076 65.4516 -0.137 -0.268 -0.954 53 64 58
-18.6353 34.6276 65.4300 -0.133 -0.280 -0.951 44 56 48
-15.0152 33.0665 64.3479 0.364 -0.603 -0.710 62 75 58
-14.6411 32.8857 64.1998 0.236 -0.650 -0.722 55 66 52
-14.0884 32.7891 64.2993 0.129 -0.729 -0.673 50 58 43
-5.4279 29.4589 62.4661 0.033 -0.347 -0.937 71 70 66
-5.2594 29.4310 62.4992 0.005 -0.447 -0.895 70 69 65
-1.9953 28.3440 62.1224 0.125 0.203 -0.971 90 86 83
-1.8113 28.2990 62.1315 0.178 -0.233 -0.956 82 78 75
-0.5700 27.7803 61.7916 -0.033 -0.310 -0.950 73 70 65
-0.3809 27.7288 61.7911 -0.037 -0.246 -0.968 75 74 69
-0.3064 27.7812 61.9267 -0.142 -0.301 -0.943 82 81 76
1.4425 27.1416 61.6179 -0.125 -0.480 -0.868 76 75 71
1.5946 27.1219 61.6582 -0.132 -0.491 -0.861 76 75 71
5.5329 26.0867 61.7195 -0.101 -0.074 -0.992 65 57 55
5.6880 26.0609 61.7499 0.010 -0.172 -0.985 62 54 52
5.8020 26.0760 61.8359 0.247 -0.510 -0.824 63 55 53
6.0198 25.9874 61.7806 -0.063 -0.449 -0.891 64 56 54
6.1793 25.9568 61.8044 -0.094 -0.428 -0.899 70 65 61
6.4911 25.9026 61.8610 -0.104 -0.471 -0.876 81 76 72
7.8365 25.4474 61.6923 0.397 0.081 -0.914 81 76 72
8.3298 25.3338 61.7300 -0.046 -0.028 -0.999 75 70 66
9.6753 25.1274 62.0260 0.407 -0.087 -0.909 67 59 57
9.8649 25.0609 61.9979 0.396 -0.033 -0.917 67 62 59
14.8348 24.1845 62.8783 -0.444 -0.375 -0.814 86 77 72
15.0179 24.1165 62.8441 -0.421 -0.351 -0.837 87 78 73
18.0953 23.2587 62.8007 0.394 -0.187 -0.900 123 111 99
18.4977 23.2235 62.9389 0.372 -0.193 -0.908 186 174 162
18.6228 23.2237 63.0026 0.381 -0.323 -0.866 183 171 159
19.2476 23.2270 63.3251 0.397 -0.457 -0.796 127 110 100
19.3735 23.2265 63.3880 0.343 -0.328 -0.880 124 107 97
22.5303 22.6609 63.9306 0.350 -0.319 -0.881 140 124 111
22.8034 22.6267 64.0051 0.102 -0.386 -0.917 156 140 127
25.2287 22.3582 64.7320 0.156 -0.488 -0.859 118 103 90
25.3691 22.3332 64.7565 0.202 -0.493 -0.846 162 149 138
25.5033 22.3185 64.7971 0.201 -0.519 -0.831 182 170 158
29.0389 22.0667 66.1175 0.457 -0.347 -0.819 119 102 95
30.6870 22.0597 66.9394 0.392 -0.153 -0.907 95 82 74
30.9277 22.0880 67.1142 0.225 -0.432 -0.874 147 134 126
31.0667 22.0623 67.1366 0.282 -0.427 -0.859 133 120 112
32.5572 22.1537 68.0622 0.375 -0.205 -0.904 130 117 111
32.6903 22.1419 68.1077 0.158 -0.477 -0.864 127 114 108
32.8348 22.1028 68.1078 0.116 -0.507 -0.854 124 111 105
32.9706 22.0842 68.1417 0.162 -0.489 -0.857 119 106 100
33.7411 22.0814 68.5269 0.219 -0.665 -0.714 121 108 99
36.0752 22.0430 69.6375 0.182 -0.224 -0.957 91 80 74
39.0123 22.2543 71.5199 0.433 -0.272 -0.859 141 131 122
39.1425 22.2595 71.5955 0.439 -0.274 -0.855 124 114 105
39.2772 22.2473 71.6410 0.454 -0.283 -0.845 115 105 96
39.4282 22.1700 71.5730 0.008 -0.565 -0.825 124 114 105
39.5663 22.1431 71.5928 0.008 -0.565 -0.825 119 109 100
39.7047 22.1143 71.6091 0.010 -0.564 -0.826 128 118 109
40.4924 22.1213 72.0212 0.485 -0.564 -0.668 123 112 106
41.8739 22.5056 73.4387 0.401 -0.040 -0.915 111 100 96
42.0256 22.4077 73.3326 0.074 0.031 -0.997 120 111 106
42.1593 22.4065 73.3982 -0.087 0.104 -0.991 110 101 96
43.2466 22.2961 73.7428 0.685 -0.418 -0.597 90 80 79
43.3752 22.3302 73.8716 -0.016 -0.513 -0.858 90 80 77
43.5154 22.2873 73.8623 -0.007 -0.481 -0.877 92 83 77
43.7835 22.2841 73.9922 0.016 -0.472 -0.881 92 83 74
49.3288 23.3755 78.8396 0.513 -0.821 -0.252 105 114 97
49.7557 23.8774 79.9932 0.783 -0.620 -0.052 120 128 113
49.8951 23.6762 79.6880 0.926 -0.244 -0.289 121 129 114
50.0340 23.5214 79.4692 0.335 -0.855 -0.395 121 130 114
50.4691 23.9169 80.4284 0.139 -0.204 -0.969 109 120 108
51.4775 24.0569 81.2006 0.902 0.037 -0.430 126 138 128
52.6367 24.1437 81.9500 0.627 -0.634 -0.452 137 154 146
56.3756 25.6493 86.6560 0.727 -0.074 -0.682 37 58 51
56.5478 25.7712 86.9709 -0.440 -0.311 -0.842 27 48 41
57.5947 24.8919 85.8588 0.908 -0.186 -0.376 111 134 126
57.7497 24.9185 85.9869 0.904 -0.286 -0.317 104 127 120
60.2989 26.7001 90.6059 0.229 -0.609 -0.759 104 125 118
60.4659 26.7384 90.7620 0.309 -0.736 -0.602 108 131 123
60.7250 26.5239 90.4925 -0.103 0.619 -0.779 109 132 124
61.1035 26.7660 91.1365 -0.247 -0.360 -0.900 104 130 121
64.1878 30.5797 99.8220 0.963 0.036 -0.267 97 105 97
-19.1934 35.0136 65.4903 0.351 0.081 -0.933 49 61 57
-18.8191 34.8404 65.3576 -0.108 -0.324 -0.940 47 58 53
-12.8773 32.4594 63.9358 0.001 -0.090 -0.996 74 76 71
-11.4145 31.8514 63.5451 -0.250 0.053 -0.967 67 67 65
-7.3420 30.4435 62.9873 -0.175 -0.175 -0.969 69 69 67
-7.1583 30.4048 63.0082 -0.247 -0.133 -0.960 80 79 77
-5.5803 29.6445 62.3927 -0.167 -0.365 -0.916 86 85 81
-5.3996 29.6061 62.4126 0.033 -0.347 -0.937 83 82 78
-5.2182 29.5669 62.4316 0.005 -0.447 -0.895 79 78 74
-2.2741 28.6425 62.2019 0.211 0.083 -0.974 79 75 72
-0.0657 27.8500 61.8455 0.060 -0.825 -0.562 86 85 80
6.3699 26.0599 61.7723 -0.078 -0.444 -0.893 86 79 73
6.5416 26.0166 61.7788 -0.078 -0.444 -0.893 94 87 81
6.9104 25.9035 61.7551 0.205 -0.264 -0.943 73 66 60
7.1563 25.7837 61.6567 -0.157 -0.550 -0.820 71 64 58
9.7802 25.1793 61.8601 -0.083 -0.393 -0.916 73 65 62
10.0600 25.1526 61.9521 -0.101 -0.374 -0.922 67 63 60
10.1940 25.1456 62.0069 -0.377 -0.460 -0.803 67 62 59
10.5252 25.0626 62.0201 0.064 -0.676 -0.734 66 61 58
11.4678 24.5839 61.6066 0.093 -0.442 -0.892 82 77 71
14.5767 24.0536 62.1934 -0.194 -0.167 -0.967 72 63 56
19.3662 23.4042 63.4090 0.151 -0.395 -0.906 127 110 100
20.4408 23.1344 63.4509 0.049 -0.626 -0.778 133 121 109
22.5553 22.7935 63.8869 0.273 -0.452 -0.849 121 105 92
27.7534 22.5278 66.0227 0.374 -0.118 -0.920 119 105 96
27.8854 22.5180 66.0712 0.369 -0.109 -0.923 120 106 97
30.4621 22.1860 66.7576 0.171 -0.442 -0.881 93 80 71
30.9626 22.2014 67.0395 0.259 -0.448 -0.856 131 118 110
31.4965 22.1457 67.2060 0.139 -0.487 -0.862 147 134 126
31.6146 22.1659 67.3034 0.141 -0.400 -0.906 162 149 141
31.7588 22.1279 67.3055 0.106 -0.413 -0.904 126 113 105
33.4123 22.1408 68.1661 0.274 -0.501 -0.821 143 130 122
34.1769 22.4906 69.2036 0.686 -0.071 -0.724 121 108 99
40.6623 22.2087 71.9608 0.222 -0.668 -0.710 117 108 101
41.9044 22.6293 73.3714 0.665 -0.284 -0.691 117 109 101
42.0487 22.5715 73.3370 0.064 0.025 -0.998 109 100 93
42.1863 22.5493 73.3653 -0.036 0.036 -0.999 106 99 91
43.9398 22.4642 74.0942 0.121 -0.584 -0.802 90 81 75
44.0753 22.4545 74.1448 0.179 -0.580 -0.795 94 85 78
44.2114 22.4398 74.1862 0.179 -0.580 -0.795 99 90 83
44.3521 22.3876 74.1603 0.181 -0.596 -0.783 91 84 76
44.4890 22.3641 74.1860 0.178 -0.564 -0.806 96 89 81
44.8332 22.8885 75.3353 0.051 -0.581 -0.812 103 98 92
49.7803 23.5294 79.0304 0.437 -0.799 -0.414 122 129 113
50.2138 24.0458 80.2103 -0.214 -0.471 -0.856 126 132 118
50.3563 24.0395 80.2706 0.056 -0.510 -0.858 125 131 119
50.4986 24.0267 80.3188 0.106 -0.491 -0.865 117 125 114
51.0635 23.8766 80.3255 0.690 -0.322 -0.649 119 127 116
51.2081 23.9223 80.4836 0.773 -0.185 -0.607 128 136 125
51.3600 24.1084 80.9065 0.955 -0.217 -0.202 127 137 128
53.7214 24.6637 83.1341 0.263 -0.653 -0.710 136 153 147
56.4146 25.8380 86.6808 0.725 -0.361 -0.587 45 66 59
56.5789 25.9125 86.9024 -0.440 -0.311 -0.842 32 53 46
57.2723 24.7467 85.0851 0.797 -0.072 -0.600 111 134 126
57.5976 24.8905 85.5172 0.837 -0.122 -0.534 113 136 128
57.7545 24.9289 85.6679 0.864 -0.145 -0.483 111 134 127
60.3301 26.8434 90.5316 0.195 -0.522 -0.830 94 115 108
60.4874 26.8438 90.6120 0.305 -0.743 -0.596 98 121 113
61.4170 26.7883 90.9791 0.142 -0.919 -0.367 104 129 123
63.4509 29.3321 96.7392 0.966 -0.035 -0.255 110 133 134
63.7877 29.8847 97.9375 0.966 -0.035 -0.255 103 119 116
61.8139 16.3341 71.7372 0.380 -0.504 -0.776 103 112 102
-19.1240 35.1462 65.3956 -0.079 -0.299 -0.951 56 68 66
-18.7939 35.0065 65.3036 -0.167 -0.475 -0.864 60 72 70
-18.5564 34.9373 65.2957 -0.167 -0.475 -0.864 70 83 78
-18.1242 34.8316 65.3184 -0.376 -0.556 -0.741 32 48 36
-14.9915 33.4094 64.2677 -0.131 0.138 -0.982 64 76 62
-14.7291 33.3158 64.2271 -0.143 0.118 -0.983 60 71 57
-14.1592 33.0918 64.1002 -0.156 0.045 -0.987 84 92 79
-13.8914 32.9927 64.0522 -0.150 0.036 -0.988 62 73 59
-13.6157 32.8869 63.9955 -0.193 0.021 -0.981 71 82 68
-12.8789 32.6396 63.9099 0.003 -0.091 -0.996 75 77 72
-12.1349 32.3834 63.8115 -0.067 -0.584 -0.809 78 80 75
-10.8734 31.9319 63.6130 -0.067 -0.124 -0.990 73 73 71
-7.3349 30.6113 62.9557 -0.175 -0.175 -0.969 69 69 67
-7.1513 30.5726 62.9768 -0.228 -0.127 -0.965 78 77 73
-5.3944 29.7731 62.3842 -0.015 -0.427 -0.904 89 88 84
-5.1918 29.7156 62.3801 -0.004 -0.421 -0.907 85 84 80
-4.7875 29.6007 62.3716 -0.085 -0.539 -0.838 74 73 69
-4.6313 29.5828 62.4174 -0.180 -0.575 -0.798 68 67 63
-4.4300 29.5256 62.4132 -0.180 -0.575 -0.798 67 66 62
-4.2407 29.5973 62.6417 0.188 -0.345 -0.920 73 70 65
-2.2608 28.8002 62.1662 0.349 -0.131 -0.928 60 56 53
-2.0728 28.7518 62.1716 0.341 -0.103 -0.934 73 69 66
-0.9755 28.2433 61.7845 0.023 -0.701 -0.712 71 70 65
-0.7792 28.1856 61.7768 0.045 -0.683 -0.729 72 71 66
-0.5493 28.0970 61.7289 -0.072 -0.424 -0.903 74 73 68
-0.3966 28.0784 61.7717 0.222 -0.370 -0.902 75 74 69
-0.1931 28.0133 61.7540 -0.001 -0.433 -0.902 82 81 76
-0.0516 28.0048 61.8098 0.231 -0.539 -0.810 78 77 72
0.0271 28.1766 62.1677 -0.086 -0.570 -0.817 76 75 70
0.2337 28.1084 62.1458 0.168 -0.406 -0.898 69 68 63
0.4118 28.0663 62.1579 0.189 -0.293 -0.937 71 70 65
4.7779 26.5243 61.5089 0.628 -0.228 -0.744 75 74 70
5.8955 26.3129 61.6823 0.059 -0.139 -0.989 67 57 56
6.2847 26.1807 61.6342 -0.112 -0.110 -0.988 69 62 57
6.4208 26.1735 61.6895 -0.055 -0.210 -0.976 76 69 63
6.5968 26.1256 61.6899 -0.055 -0.210 -0.976 78 71 65
7.0854 26.0212 61.7435 0.131 -0.521 -0.844 79 72 66
10.5800 25.1673 61.9284 0.064 -0.676 -0.734 71 67 64
10.7483 25.1223 61.9301 0.061 -0.675 -0.735 71 67 64
11.4866 24.7265 61.5701 0.192 -0.304 -0.933 78 75 68
11.5789 24.7644 61.6870 0.179 -0.272 -0.946 77 74 65
11.5643 24.9223 61.9721 0.009 -0.525 -0.851 77 74 67
15.0978 24.1979 62.4163 0.347 -0.531 -0.773 87 76 72
15.6479 24.1423 62.5915 0.437 -0.224 -0.871 49 42 36
17.2304 23.7358 62.6385 0.260 -0.244 -0.934 118 109 100
17.3674 23.7211 62.6806 0.260 -0.244 -0.934 127 118 109
17.5073 23.7027 62.7172 0.171 -0.302 -0.938 124 116 105
17.6451 23.6868 62.7574 0.245 -0.398 -0.884 133 125 114
17.7847 23.6686 62.7943 0.230 -0.388 -0.892 136 126 116
17.9163 23.6608 62.8462 0.233 -0.384 -0.894 120 110 100
19.4322 23.4820 63.2814 0.211 -0.433 -0.877 120 106 95
19.7344 23.4122 63.3047 0.063 -0.444 -0.894 138 124 113
19.8016 23.4931 63.4885 0.237 -0.250 -0.939 120 106 95
19.9425 23.4723 63.5212 0.241 -0.258 -0.936 132 118 107
30.0901 22.3550 66.5808 0.353 -0.174 -0.919 70 56 47
30.4850 22.3247 66.7243 0.426 -0.252 -0.869 162 148 139
31.5276 22.2670 67.1444 0.131 -0.472 -0.872 125 110 103
31.7844 22.2614 67.2639 0.077 -0.503 -0.861 142 129 121
33.4545 22.2340 68.0571 0.254 -0.521 -0.815 156 143 135
38.2788 22.5250 71.0342 0.721 -0.535 -0.441 115 102 94
38.5318 22.5601 71.2272 0.610 -0.486 -0.626 110 100 90
38.7872 22.5889 71.4096 0.111 -0.198 -0.974 110 97 87
39.6047 22.4804 71.6218 0.169 0.250 -0.953 106 98 87
39.7634 22.3681 71.4941 0.129 -0.043 -0.991 102 94 83
39.8870 22.4011 71.6176 0.126 -0.017 -0.992 98 90 78
40.6834 22.3732 71.9685 0.298 0.162 -0.941 105 95 86
41.4252 22.6276 72.8146 0.396 -0.383 -0.835 108 99 90
42.0765 22.7094 73.2951 0.569 -0.568 -0.594 104 99 88
42.2136 22.6898 73.3281 0.278 -0.673 -0.685 105 98 88
42.3384 22.7408 73.4856 0.246 -0.669 -0.701 104 97 87
43.8582 22.4241 73.6674 -0.143 -0.441 -0.886 95 85 82
43.9871 22.4591 73.7972 -0.106 -0.496 -0.862 93 83 81
44.8611 23.0342 75.3041 0.368 -0.391 -0.844 99 94 88
46.4725 23.4114 76.8170 0.695 -0.372 -0.615 93 90 81
46.6062 23.4788 77.0095 0.152 0.110 -0.982 93 90 81
47.9905 23.5867 77.9088 0.802 0.323 -0.502 118 116 104
48.1305 23.5686 77.9462 0.808 0.343 -0.480 116 116 104
49.9538 23.8463 79.3819 0.935 -0.256 -0.245 122 129 113
50.3854 24.1270 80.1198 -0.090 -0.351 -0.932 132 138 126
50.5278 24.1255 80.1891 0.123 -0.313 -0.942 123 131 118
50.6644 23.9422 79.9186 0.583 -0.418 -0.697 119 127 113
50.8060 23.9319 79.9712 0.581 -0.490 -0.650 125 133 120
51.0926 23.9871 80.2182 0.509 -0.443 -0.738 123 133 122
51.2336 23.9571 80.2338 0.509 -0.468 -0.722 127 137 126
52.7085 24.5528 82.0826 0.829 -0.455 -0.326 136 153 145
53.8369 24.2366 82.0672 0.068 -0.830 -0.554 137 154 148
56.4463 25.9826 86.6195 0.740 -0.320 -0.592 73 94 87
57.7793 25.0396 85.5469 0.792 -0.142 -0.593 113 136 129
62.6335 28.2906 94.0208 0.864 0.296 -0.406 108 133 130
65.3926 26.4511 92.0087 -0.338 0.037 -0.941 105 111 98
-19.1078 35.4340 65.5606 -0.402 -0.277 -0.873 60 71 73
-13.9399 33.2114 64.0710 -0.156 0.045 -0.987 67 78 64
-13.6509 33.0948 64.0018 -0.155 -0.086 -0.984 60 71 57
-13.3234 32.9468 63.8942 -0.437 -0.268 -0.859 53 61 50
-13.1967 32.9597 63.9821 -0.252 -0.211 -0.944 59 64 58
-12.8752 32.8156 63.8787 -0.207 -0.272 -0.940 67 69 64
-12.6021 32.7102 63.8221 -0.190 -0.312 -0.931 73 75 70
-12.3077 32.5869 63.7434 -0.049 -0.619 -0.784 87 89 84
-5.1591 29.8589 62.3218 -0.016 -0.416 -0.909 90 89 85
-4.7393 29.7301 62.2962 -0.097 -0.518 -0.850 59 58 54
-4.5645 29.6960 62.3215 -0.187 -0.506 -0.842 65 64 60
-4.3362 29.6148 62.2872 -0.185 -0.517 -0.836 73 72 68
-4.1320 29.6735 62.4985 0.272 -0.281 -0.920 72 69 64
-1.0317 28.3422 61.6086 -0.147 -0.193 -0.970 81 81 76
-0.8267 28.2763 61.5906 -0.147 -0.193 -0.970 95 94 89
-0.1387 28.1312 61.6704 0.374 0.058 -0.926 78 77 72
0.1218 28.2577 62.0352 0.175 -0.402 -0.899 71 71 63
0.2800 28.2340 62.0714 0.203 -0.304 -0.931 96 95 90
0.4345 28.2138 62.1122 0.188 -0.310 -0.932 65 64 59
0.6769 28.1114 62.0457 0.078 -0.302 -0.950 52 51 46
3.8660 26.6959 61.0455 0.031 -0.277 -0.960 95 91 88
5.5596 26.5559 61.6424 -0.028 -0.160 -0.987 85 74 74
6.7968 26.2182 61.6442 -0.122 -0.263 -0.957 72 65 57
6.9240 26.2199 61.7116 0.257 -0.607 -0.752 86 77 70
7.0907 26.1810 61.7239 0.266 -0.630 -0.730 87 78 71
7.2024 26.1987 61.8131 0.276 -0.658 -0.700 78 69 62
7.3054 26.2257 61.9148 0.141 -0.386 -0.912 85 76 69
7.7162 25.9327 61.5819 0.219 -0.100 -0.971 79 68 61
7.8876 25.8878 61.5856 0.241 -0.124 -0.962 79 69 60
7.9863 25.9187 61.6924 0.249 -0.174 -0.953 81 71 62
10.2008 25.4680 61.9794 0.214 -0.332 -0.919 77 73 70
11.4081 24.8367 61.4247 0.164 -0.659 -0.734 76 73 67
11.6109 25.0347 61.8922 0.018 -0.500 -0.866 81 78 72
15.1347 24.3183 62.3501 0.347 -0.531 -0.773 98 87 81
15.4118 24.2880 62.4341 0.236 -0.507 -0.829 99 88 82
19.1057 23.5814 62.9960 -0.003 -0.495 -0.869 146 133 124
19.4861 23.5762 63.1784 0.341 -0.598 -0.726 130 116 107
19.7875 23.5069 63.2028 0.142 -0.508 -0.849 143 130 121
19.8740 23.5611 63.3465 0.262 -0.481 -0.837 130 116 107
21.0980 23.2500 63.3906 0.360 -0.364 -0.859 141 127 116
24.4351 22.9451 64.5131 0.195 -0.544 -0.816 160 146 135
24.5825 22.9098 64.5226 0.268 -0.292 -0.918 166 152 141
27.8034 22.7963 65.9393 0.179 -0.500 -0.847 136 122 111
27.9433 22.7716 65.9645 0.171 -0.372 -0.913 134 120 109
29.3583 22.4833 66.1471 0.130 -0.416 -0.900 107 88 82
29.9928 22.4800 66.4613 0.460 -0.275 -0.844 132 118 109
30.5011 22.4780 66.7144 0.387 -0.259 -0.885 118 104 95
30.9245 22.3866 66.7596 0.093 -0.489 -0.867 98 84 75
31.5676 22.3681 67.0501 0.132 -0.363 -0.922 103 89 80
33.3467 22.3822 67.9743 0.239 -0.443 -0.864 138 125 117
33.4833 22.3606 68.0033 0.217 -0.259 -0.941 133 120 112
34.2865 22.2697 68.2412 0.031 -0.271 -0.962 124 111 103
34.7586 22.3798 68.6827 0.224 -0.723 -0.653 132 121 115
35.0214 22.3647 68.7876 0.170 -0.607 -0.777 110 99 93
35.2780 22.3670 68.9213 0.482 -0.468 -0.741 105 94 88
38.4302 22.6865 71.1018 0.679 0.003 -0.734 126 113 105
38.6809 22.7321 71.3125 0.099 -0.198 -0.975 111 101 91
38.8106 22.7397 71.3920 0.272 -0.297 -0.915 113 101 88
41.3204 22.7622 72.7006 0.424 -0.376 -0.824 93 84 75
41.4533 22.7628 72.7689 0.424 -0.376 -0.824 87 78 69
41.8323 22.8731 73.1635 0.683 -0.313 -0.660 99 95 84
41.9667 22.8689 73.2236 0.366 -0.327 -0.871 99 95 84
42.1107 22.8114 73.1904 0.525 -0.499 -0.690 98 94 83
44.4918 23.0892 74.9047 0.532 -0.536 -0.656 84 77 71
45.1666 23.1298 75.3202 0.493 -0.480 -0.726 80 75 69
46.7768 23.5758 76.9556 0.023 -0.047 -0.999 98 95 86
48.0167 23.8393 78.0675 0.793 0.343 -0.503 111 109 97
48.4365 23.8433 78.2869 0.264 -0.291 -0.920 120 122 111
48.5770 23.8215 78.3176 0.269 -0.298 -0.916 120 122 111
48.7175 23.7991 78.3472 0.417 -0.079 -0.905 120 123 114
48.8576 23.7959 78.4121 0.417 -0.079 -0.905 125 126 118
49.7024 24.0825 79.3670 0.348 0.595 -0.724 124 133 116
49.8437 24.0631 79.4026 0.418 0.551 -0.722 124 131 115
50.4145 24.2213 79.9825 -0.107 -0.166 -0.980 129 137 124
50.5558 24.1845 79.9860 -0.092 -0.151 -0.984 124 132 119
51.2600 24.0137 80.0266 0.511 -0.474 -0.717 127 139 127
51.8369 24.1488 80.5669 0.723 -0.610 -0.325 122 134 124
52.1285 24.2355 80.8741 0.743 -0.606 -0.284 115 129 120
53.8632 24.3378 81.9385 0.660 0.402 -0.635 135 152 146
54.6430 24.7863 83.1592 0.739 -0.523 -0.423 134 153 149
55.1101 24.9898 83.7702 0.542 -0.477 -0.692 130 149 147
57.9635 25.2006 85.5994 0.875 -0.185 -0.447 110 131 131
58.2279 25.0369 85.4312 0.137 -0.011 -0.991 97 117 118
60.4018 27.1682 90.4589 0.566 -0.713 -0.415 69 92 80
61.2097 26.6619 89.9331 -0.154 0.372 -0.915 104 130 115
-14.8004 33.7344 64.2382 0.036 -0.055 -0.998 70 80 71
-14.4931 33.6042 64.1542 -0.163 -0.148 -0.975 61 71 60
-14.2414 33.5180 64.1229 -0.134 0.005 -0.991 62 72 61
-13.9648 33.4116 64.0669 -0.129 -0.021 -0.991 67 77 66
-13.7150 33.3263 64.0361 -0.129 -0.021 -0.991 70 80 69
-13.4676 33.2424 64.0070 -0.237 -0.156 -0.959 67 74 66
-13.3209 33.2396 64.0758 0.222 -0.007 -0.975 60 66 59
-13.1199 33.1929 64.0914 0.181 0.011 -0.983 63 65 61
-12.2814 32.7442 63.6902 -0.079 -0.459 -0.885 80 82 77
-10.9462 32.3468 63.6340 -0.273 -0.516 -0.812 88 96 93
-10.2054 32.0839 63.5248 -0.363 -0.507 -0.782 69 74 68
-9.6444 31.8508 63.3797 0.099 -0.477 -0.873 60 62 57
-9.2591 31.6459 63.1977 -0.298 -0.079 -0.951 87 89 84
-7.2438 30.8819 62.8111 -0.190 -0.251 -0.949 64 65 60
-5.1210 29.9975 62.2576 -0.016 -0.416 -0.909 94 95 90
-2.0634 29.0829 62.1203 0.494 -0.397 -0.773 70 66 63
-1.8488 29.0101 62.0947 -0.068 -0.350 -0.934 70 66 63
-1.5289 28.8413 61.9462 -0.278 -0.277 -0.920 70 66 63
-0.8503 28.4658 61.5988 -0.118 -0.168 -0.979 83 82 77
-0.1579 28.3167 61.6743 0.374 0.058 -0.926 78 77 72
-0.0986 28.3845 61.8285 0.190 -0.553 -0.811 74 73 68
0.0878 28.3346 61.8310 0.177 -0.660 -0.730 67 67 59
0.2130 28.3415 61.9068 0.176 -0.661 -0.729 73 72 67
0.3435 28.3436 61.9764 0.402 -0.364 -0.840 82 81 76
0.4706 28.3488 62.0502 0.263 -0.217 -0.940 85 84 79
0.6675 28.2887 62.0392 0.077 0.062 -0.995 70 69 64
5.9184 26.6208 61.6244 0.066 -0.121 -0.990 99 89 88
6.9933 26.3138 61.6028 0.086 -0.684 -0.724 83 76 70
9.7705 25.6842 61.8471 0.033 -0.347 -0.937 59 51 48
10.2522 25.5768 61.8930 0.223 -0.358 -0.907 83 79 76
11.6383 25.1685 61.8423 0.045 -0.501 -0.864 93 90 83
15.1570 24.4565 62.3093 0.341 -0.286 -0.896 104 93 87
15.2819 24.4581 62.3753 0.338 -0.284 -0.898 98 87 81
15.4475 24.4097 62.3699 0.236 -0.507 -0.829 103 92 86
18.9892 23.7365 62.9199 -0.024 -0.431 -0.902 128 116 104
19.1163 23.7344 62.9801 0.356 -0.496 -0.792 144 131 122
19.6402 23.7051 63.1905 0.287 -0.428 -0.857 140 127 118
19.9212 23.6639 63.2565 0.485 -0.375 -0.790 127 116 107
20.9499 23.4517 63.3856 0.193 -0.319 -0.928 143 133 123
27.9920 22.8614 65.8530 0.087 -0.431 -0.898 125 111 98
32.6434 22.7326 67.9622 0.306 -0.332 -0.892 110 97 88
32.7851 22.7003 67.9744 0.411 -0.284 -0.867 122 109 100
33.3678 22.5281 67.9520 0.213 -0.487 -0.847 123 110 101
33.7517 22.5292 68.1478 0.218 -0.123 -0.968 111 98 90
33.8847 22.5170 68.1924 0.058 -0.161 -0.985 121 108 100
34.5490 22.4566 68.4164 0.623 -0.129 -0.772 129 116 110
36.4362 22.5943 69.6211 0.443 0.030 -0.896 91 84 73
38.4414 22.8814 71.1594 0.362 -0.580 -0.730 157 144 135
38.5793 22.8577 71.1855 0.264 -0.553 -0.790 132 119 110
38.7057 22.8775 71.2855 0.099 -0.198 -0.975 119 107 97
38.8384 22.8737 71.3456 0.292 -0.299 -0.908 117 107 95
40.0263 22.8759 71.9487 0.536 -0.620 -0.572 115 108 90
40.5166 23.0575 72.5294 -0.188 0.275 -0.943 110 100 90
41.3491 22.8942 72.6494 0.424 -0.380 -0.822 84 75 66
41.9969 22.9939 73.1591 0.201 -0.682 -0.703 92 88 77
42.1453 22.9112 73.0821 0.384 -0.620 -0.685 91 87 76
42.2871 22.8638 73.0665 -0.120 -0.289 -0.950 91 87 76
43.9118 22.7164 73.6152 0.100 0.171 -0.980 94 84 82
44.9235 23.2656 75.1339 0.510 -0.447 -0.735 90 85 79
45.0599 23.2626 75.1971 0.508 -0.298 -0.808 93 88 82
45.3298 23.2853 75.3751 0.051 -0.034 -0.998 92 89 82
48.3257 24.0068 78.2107 -0.180 -0.582 -0.793 115 114 102
49.7328 24.2446 79.3569 0.500 0.316 -0.806 125 132 116
49.8752 24.2983 79.5273 0.688 0.238 -0.685 128 135 119
50.0171 24.3016 79.6051 0.708 0.198 -0.677 131 135 120
50.4469 24.4349 80.0666 0.115 0.046 -0.992 123 131 118
51.6145 24.8848 81.4816 0.966 -0.248 -0.068 113 126 116
53.2293 25.0898 82.6723 0.580 -0.266 -0.770 128 145 139
53.3831 25.1687 82.8948 0.817 0.003 -0.577 129 145 140
53.7477 24.4613 81.7797 0.485 -0.021 -0.874 135 151 147
53.8876 24.4212 81.7766 0.515 0.038 -0.856 135 152 146
56.8104 26.2539 86.6160 -0.406 0.629 -0.663 97 120 112
56.9261 26.0477 86.2955 -0.382 0.631 -0.675 74 97 90
57.0402 25.8406 85.9729 -0.385 0.627 -0.677 58 81 75
57.6857 25.2900 85.2874 0.553 0.076 -0.829 112 137 134
58.1480 25.3619 85.6525 0.242 -0.070 -0.968 104 124 124
58.3990 25.1372 85.3664 0.616 -0.360 -0.701 73 94 95
60.2708 27.2912 90.2658 0.122 -0.927 -0.355 62 84 64
60.7769 27.4260 90.7684 -0.041 -0.317 -0.947 77 99 78
60.9448 27.4648 90.9244 -0.246 0.017 -0.969 84 108 85
61.3559 26.6562 89.6470 0.909 0.154 -0.386 106 136 115
62.9412 29.4235 95.5278 0.922 0.156 -0.354 112 130 125
-18.1704 35.3085 65.0584 -0.337 -0.499 -0.799 85 100 94
-17.8851 35.2008 65.0053 -0.337 -0.499 -0.799 86 101 94
-15.0491 33.9990 64.2364 -0.043 -0.138 -0.990 49 59 50
-14.7490 33.8746 64.1602 -0.109 -0.179 -0.978 51 61 50
-14.2676 33.7200 64.1199 -0.202 -0.138 -0.970 55 65 54
-13.9864 33.6095 64.0596 -0.221 -0.109 -0.969 56 66 55
-13.6978 33.4927 63.9914 -0.251 -0.194 -0.948 61 71 60
-13.4207 33.3846 63.9334 -0.247 -0.152 -0.957 70 78 67
-12.2748 32.9175 63.6565 -0.077 -0.093 -0.993 75 77 72
-9.7625 32.0090 63.2608 -0.210 -0.470 -0.857 66 68 63
-9.5377 31.9381 63.2445 -0.210 -0.470 -0.857 73 75 70
-9.2030 31.7748 63.1145 -0.322 -0.256 -0.912 89 91 86
-7.2277 31.0423 62.7701 -0.139 -0.357 -0.924 65 66 61
-7.1356 31.0817 62.8886 -0.058 -0.337 -0.940 72 73 68
-5.1215 30.1697 62.2356 0.068 -0.225 -0.972 82 83 78
-4.9256 30.1173 62.2385 -0.013 -0.281 -0.960 71 72 67
-4.7273 30.0627 62.2385 0.003 -0.261 -0.965 59 60 55
-2.0607 29.2505 62.0968 0.309 -0.504 -0.806 71 68 63
-1.7836 29.1207 61.9990 -0.114 -0.240 -0.964 69 66 61
-1.5016 28.9858 61.8944 -0.278 -0.277 -0.920 70 67 62
-0.1782 28.5038 61.6796 0.347 0.059 -0.936 79 78 73
0.1167 28.4761 61.7777 0.169 -0.598 -0.783 83 82 77
0.3774 28.4805 61.9170 0.399 -0.361 -0.843 90 89 84
0.5009 28.4892 61.9952 0.261 -0.341 -0.903 87 86 81
7.6410 26.3415 61.6649 0.194 -0.015 -0.981 72 63 56
8.8633 25.9992 61.6548 -0.033 -0.043 -0.999 70 61 56
9.1617 25.9540 61.7224 0.136 -0.253 -0.958 71 62 55
9.3143 25.9276 61.7511 0.136 -0.253 -0.958 103 94 87
9.4908 25.8751 61.7439 0.150 -0.231 -0.961 86 77 72
9.8059 25.8107 61.7850 0.054 -0.314 -0.948 48 40 37
10.4495 25.6654 61.8435 0.250 -0.291 -0.923 58 54 51
10.8149 25.5432 61.8041 0.188 -0.455 -0.870 76 72 69
12.6729 25.3154 62.3235 0.010 -0.676 -0.736 73 71 59
12.9521 25.2872 62.4127 -0.050 -0.792 -0.608 86 84 72
15.1696 24.6068 62.2855 0.290 -0.290 -0.912 93 82 76
15.3180 24.5795 62.3105 0.382 -0.279 -0.881 77 66 60
15.4832 24.5314 62.3057 0.236 -0.507 -0.829 88 77 71
16.1024 24.5470 62.6462 0.302 -0.444 -0.843 103 94 89
19.9173 23.8381 63.2716 0.444 -0.512 -0.735 128 118 108
21.1750 23.4766 63.2444 0.347 -0.239 -0.907 122 112 102
22.7543 23.3651 63.8359 0.223 -0.515 -0.828 142 129 121
22.9062 23.3244 63.8381 0.295 -0.319 -0.901 87 74 66
23.0541 23.2898 63.8493 0.256 -0.280 -0.925 43 30 22
23.1938 23.2676 63.8791 0.208 -0.284 -0.936 47 34 26
23.6040 23.2144 63.9884 0.095 -0.112 -0.989 101 88 80
23.8684 23.1930 64.0826 0.116 -0.533 -0.838 129 116 108
24.0045 23.1760 64.1199 0.135 -0.513 -0.848 115 102 94
24.4895 23.2042 64.4159 0.282 -0.613 -0.738 112 98 89
24.6208 23.1953 64.4657 0.296 -0.604 -0.740 102 88 79
25.4710 23.0357 64.6021 0.067 -0.419 -0.906 129 116 107
27.4971 23.0205 65.5952 0.383 -0.126 -0.915 137 123 110
27.7396 23.0407 65.7542 0.212 -0.375 -0.902 149 135 122
27.8651 23.0430 65.8216 0.212 -0.358 -0.909 137 123 110
27.9872 23.0520 65.8995 0.157 -0.387 -0.908 117 103 90
28.1176 23.0453 65.9530 0.130 -0.525 -0.841 137 123 110
29.1560 22.7498 65.9358 0.546 -0.382 -0.746 134 115 108
32.8241 22.8031 67.8811 0.186 -0.647 -0.740 122 109 100
33.7720 22.6780 68.1300 0.308 -0.610 -0.730 126 113 105
33.9126 22.6460 68.1422 0.614 -0.427 -0.664 129 116 108
34.0394 22.6499 68.2132 0.057 -0.180 -0.982 133 120 112
35.9533 22.7027 69.2739 0.340 -0.458 -0.821 110 104 92
38.4697 23.0133 71.1095 0.578 -0.469 -0.668 146 133 124
38.6077 22.9895 71.1354 0.358 -0.537 -0.764 134 124 112
38.7331 23.0132 71.2421 0.368 -0.532 -0.763 123 113 100
38.8633 23.0192 71.3185 0.369 -0.576 -0.730 125 113 99
39.0905 23.1640 71.6978 0.669 -0.725 -0.164 117 105 91
39.6466 23.0558 71.7801 0.312 0.331 -0.890 113 104 89
39.9170 23.0318 71.8723 0.362 -0.437 -0.824 112 105 89
40.1901 22.9952 71.9431 0.520 -0.612 -0.596 119 112 96
40.3225 22.9950 72.0094 0.528 -0.638 -0.561 104 95 80
40.3908 23.2872 72.5782 -0.036 -0.005 -0.999 105 95 83
41.6318 23.0903 72.8433 0.805 -0.327 -0.496 91 84 74
42.1659 23.0895 73.1109 -0.011 -0.297 -0.955 86 82 71
42.4389 23.0564 73.1878 0.698 -0.173 -0.695 91 84 74
42.5674 23.0874 73.3092 0.698 -0.173 -0.695 86 79 69
44.8212 23.3591 74.9415 0.681 -0.652 -0.333 101 96 90
44.9539 23.3887 75.0625 0.652 -0.575 -0.495 119 114 108
45.6341 23.3925 75.4121 0.495 -0.352 -0.794 100 97 88
46.9744 23.8497 76.9231 0.667 -0.380 -0.641 104 101 92
47.5284 23.8590 77.2192 0.144 -0.375 -0.916 95 93 81
47.6680 23.8380 77.2512 0.097 -0.481 -0.871 97 93 82
48.0741 24.1936 78.1060 0.712 -0.010 -0.702 105 103 91
48.2148 24.1731 78.1394 0.611 0.044 -0.790 106 104 92
48.9173 24.0846 78.3314 0.124 -0.624 -0.772 114 115 107
49.0575 24.0987 78.4278 0.595 -0.416 -0.687 115 117 106
49.1977 24.1301 78.5559 0.589 -0.411 -0.696 114 118 104
49.3383 24.1915 78.7391 0.598 -0.375 -0.708 117 121 107
50.0488 24.5188 79.6955 0.541 -0.166 -0.825 121 128 112
50.3330 24.5043 79.8121 0.041 -0.262 -0.964 122 128 114
51.0305 24.1469 79.5099 0.825 -0.280 -0.491 133 139 127
51.7992 25.1825 81.7907 0.948 -0.301 -0.101 118 130 120
52.5352 25.2965 82.3700 0.295 0.662 -0.689 121 138 130
53.1064 25.1448 82.3804 -0.540 0.151 -0.828 131 148 139
53.4989 24.6921 81.7503 -0.087 -0.056 -0.995 128 145 137
53.7786 24.6037 81.7295 0.569 -0.303 -0.765 135 152 144
53.9206 24.5824 81.7622 0.641 -0.295 -0.708 135 152 143
55.1581 25.1708 83.4616 0.844 0.024 -0.536 145 164 160
55.3180 25.2623 83.7092 0.277 0.277 -0.920 136 156 154
55.4856 25.4028 84.0506 0.847 -0.229 -0.480 125 144 142
56.2110 26.2452 85.9565 0.112 -0.973 -0.202 122 143 138
58.4424 25.3368 85.4195 0.341 0.002 -0.940 72 92 93
58.5940 25.3487 85.5176 0.463 -0.076 -0.883 48 68 68
58.7655 25.4496 85.7886 0.727 -0.161 -0.668 30 48 47
63.0440 29.8157 95.9275 0.909 0.162 -0.384 113 131 125
65.0943 29.9560 97.2168 0.583 -0.796 0.164 87 88 74
65.5722 30.3721 98.2184 0.796 -0.603 0.046 101 102 88
-18.9157 35.8445 65.2913 -0.511 -0.296 -0.807 79 91 91
-16.0384 34.6223 64.5138 -0.249 -0.543 -0.802 58 70 56
-15.1273 34.2433 64.2820 -0.205 -0.253 -0.945 40 52 40
-14.7773 34.0788 64.1587 -0.358 -0.225 -0.906 35 47 35
-12.2855 33.1052 63.6398 -0.077 -0.093 -0.993 70 72 67
-11.4798 32.7931 63.4769 -0.158 -0.497 -0.853 92 97 93
-7.1928 31.1866 62.7091 -0.139 -0.357 -0.924 76 75 71
-7.0234 31.1596 62.7453 -0.145 -0.357 -0.923 78 77 73
-5.1178 30.3384 62.2089 0.069 -0.283 -0.957 80 81 76
-4.9572 30.3169 62.2506 0.036 -0.297 -0.954 72 73 68
-4.7583 30.2617 62.2502 0.027 -0.318 -0.948 63 65 60
-3.6949 29.8005 61.9454 -0.330 -0.311 -0.891 74 73 68
-2.3622 29.4505 61.9788 -0.170 -0.338 -0.926 90 90 82
-2.0274 29.3905 62.0381 0.322 -0.510 -0.798 75 74 69
-1.8079 29.3128 62.0071 0.005 -0.360 -0.933 56 55 50
-1.5006 29.1544 61.8733 -0.270 -0.320 -0.908 66 65 60
-0.2458 28.7350 61.7410 0.275 -0.588 -0.760 83 84 79
-0.0498 28.6762 61.7327 0.553 -0.029 -0.832 78 79 73
0.1390 28.6239 61.7323 0.295 -0.626 -0.722 88 87 82
0.3412 28.6833 61.9423 0.395 -0.319 -0.861 94 93 88
0.5125 28.6473 61.9629 0.275 -0.366 -0.889 69 68 63
7.0310 26.6057 61.5258 -0.017 -0.422 -0.906 73 66 60
7.2695 26.4916 61.4380 -0.072 -0.381 -0.922 102 95 89
8.4648 26.3163 61.7204 0.066 -0.385 -0.921 94 85 78
8.6348 26.2720 61.7252 0.428 -0.242 -0.871 83 74 69
9.1842 26.0951 61.6795 0.158 -0.374 -0.914 75 66 61
9.3412 26.0638 61.7016 0.072 -0.340 -0.938 98 89 84
9.6718 25.9828 61.7205 0.054 -0.314 -0.948 69 60 55
9.8419 25.9366 61.7220 0.072 -0.288 -0.955 55 47 44
9.9917 25.9127 61.7539 0.180 -0.176 -0.968 53 48 45
10.2998 25.8551 61.8039 0.294 -0.137 -0.946 51 47 44
12.9806 25.4202 62.3612 -0.104 -0.810 -0.578 87 84 73
13.1022 25.4273 62.4353 -0.186 -0.811 -0.555 91 84 74
16.1471 24.4979 62.2752 0.391 -0.427 -0.815 109 100 95
16.9858 24.3920 62.5045 0.187 -0.122 -0.975 125 119 107
19.4902 23.9014 62.8713 0.412 -0.597 -0.688 127 114 105
22.7880 23.4847 63.7722 0.213 -0.546 -0.811 154 141 133
22.9328 23.4549 63.7907 0.238 -0.549 -0.801 146 133 125
23.0782 23.4241 63.8078 0.212 -0.517 -0.829 173 160 152
24.0223 23.3204 64.0941 0.086 -0.267 -0.960 91 78 70
27.4427 23.0675 65.3548 0.403 -0.308 -0.862 164 150 139
27.5602 23.0839 65.4437 0.180 -0.366 -0.913 144 130 117
28.3687 22.9889 65.6776 0.095 -0.382 -0.919 132 118 105
28.4982 22.9830 65.7321 0.093 -0.319 -0.943 110 96 83
28.9276 22.8848 65.7694 0.149 -0.590 -0.793 134 115 108
29.0623 22.8682 65.8069 0.149 -0.590 -0.793 142 123 116
30.0540 22.9114 66.3847 0.143 -0.213 -0.967 127 113 104
30.3128 22.9012 66.4964 0.297 -0.462 -0.836 117 103 94
32.6989 22.9928 67.8639 0.449 -0.513 -0.731 111 98 89
32.8467 22.9455 67.8521 0.110 -0.552 -0.826 121 108 99
33.2534 22.8917 67.9588 0.064 -0.487 -0.871 98 85 76
34.0689 22.7750 68.1566 0.647 -0.068 -0.759 132 119 110
36.3371 22.9342 69.5879 0.194 -0.241 -0.951 110 104 92
36.6012 22.9211 69.6970 0.444 -0.144 -0.884 126 122 108
36.8580 22.9316 69.8453 0.395 0.285 -0.874 130 129 113
38.5002 23.1371 71.0459 0.547 -0.541 -0.639 129 119 109
38.6462 23.0826 71.0201 0.384 -0.582 -0.717 124 115 101
38.7644 23.1339 71.1730 0.368 -0.532 -0.763 125 116 99
38.8948 23.1392 71.2483 0.577 -0.463 -0.673 126 114 98
39.0450 23.0667 71.1918 0.648 -0.720 -0.250 126 114 98
39.5422 23.1906 71.6676 0.300 -0.163 -0.940 111 99 85
39.6776 23.1775 71.7120 0.236 -0.418 -0.877 110 101 86
39.8210 23.1301 71.6978 0.269 -0.389 -0.881 113 106 90
39.9560 23.1183 71.7441 0.269 -0.389 -0.881 118 110 97
40.0965 23.0821 71.7490 0.273 -0.401 -0.875 121 114 98
40.2362 23.0490 71.7590 0.263 -0.400 -0.878 122 115 99
40.7533 23.1050 72.1212 0.280 -0.581 -0.764 101 91 82
41.2449 23.3021 72.7275 0.568 0.302 -0.766 104 94 85
41.3780 23.3043 72.7984 0.553 0.292 -0.780 95 86 77
41.5080 23.3228 72.8976 0.553 0.292 -0.780 89 80 71
41.6536 23.2595 72.8556 0.705 -0.205 -0.679 90 83 73
41.7774 23.3124 73.0141 0.643 -0.254 -0.722 83 79 68
41.9069 23.3355 73.1214 0.643 -0.254 -0.722 77 73 62
42.0456 23.3086 73.1423 0.100 -0.165 -0.981 74 70 58
42.4584 23.2439 73.2322 0.412 -0.135 -0.901 93 89 78
42.5888 23.2647 73.3357 0.367 -0.416 -0.832 91 84 76
45.9398 23.4810 75.4159 0.495 -0.343 -0.798 101 98 89
47.5564 24.0344 77.2369 -0.007 -0.451 -0.892 103 101 89
47.6970 23.9932 77.2327 -0.000 -0.475 -0.880 103 101 89
47.9711 24.1086 77.5806 0.778 -0.471 -0.415 99 97 85
48.1094 24.1447 77.7161 0.854 -0.282 -0.437 98 96 84
48.2436 24.3577 78.1715 0.586 -0.006 -0.810 96 96 84
48.3845 24.3312 78.1941 -0.262 -0.313 -0.913 95 95 83
48.6661 24.2796 78.2417 -0.350 -0.401 -0.847 109 111 100
49.0876 24.1919 78.2943 0.266 -0.445 -0.855 114 117 106
50.5045 24.6016 79.7532 0.257 -0.865 -0.431 123 131 118
50.6455 24.5622 79.7524 0.222 -0.871 -0.438 123 131 120
50.7851 24.4901 79.6915 0.618 -0.431 -0.658 127 135 124
50.9257 24.4528 79.6943 0.654 -0.375 -0.656 132 138 128
51.3775 24.9768 80.8758 0.844 0.025 -0.536 127 138 129
51.8260 25.2553 81.6086 0.882 -0.471 0.034 121 131 122
52.5752 25.5564 82.5338 0.368 0.161 -0.916 122 138 128
53.0189 25.6029 82.8417 -0.439 -0.881 -0.179 126 142 131
53.5233 24.7695 81.5780 0.018 -0.179 -0.984 128 144 132
53.6634 24.7290 81.5749 0.651 -0.260 -0.714 129 145 133
53.8057 24.7113 81.6142 0.708 -0.349 -0.614 128 144 132
53.9519 24.7294 81.7208 0.725 -0.417 -0.548 128 144 132
54.1051 24.8068 81.9388 0.710 -0.410 -0.573 125 142 130
55.1955 25.3588 83.4926 0.843 0.031 -0.537 151 170 166
55.3617 25.4936 83.8216 0.263 0.514 -0.816 130 151 146
55.5099 25.4977 83.9037 0.826 0.167 -0.538 110 129 127
55.6693 25.5765 84.1274 0.830 0.166 -0.533 93 114 109
57.9128 25.6532 85.3959 -0.404 0.118 -0.907 107 128 129
58.4816 25.5169 85.4341 0.341 0.002 -0.940 70 90 91
58.6316 25.5206 85.5163 0.414 -0.098 -0.905 47 67 67
58.7846 25.5373 85.6237 0.461 -0.094 -0.882 30 48 47
60.9971 27.7138 90.7001 -0.288 -0.799 -0.527 71 96 69
61.1679 27.7629 90.8754 -0.292 -0.815 -0.501 77 105 74
62.7640 29.4588 94.7666 0.958 -0.081 -0.275 112 131 127
63.0364 29.8289 95.5776 0.951 -0.033 -0.307 111 130 124
63.2874 30.1174 96.2291 0.952 -0.099 -0.289 109 130 123
64.9880 29.6924 96.3111 0.590 -0.794 0.146 87 88 74
-16.4765 34.9219 64.4750 -0.228 -0.672 -0.704 86 99 89
-16.2114 34.8271 64.4365 -0.220 -0.652 -0.726 70 83 72
-15.9578 34.7412 64.4082 -0.249 -0.543 -0.802 59 73 58
-15.6688 34.6267 64.3458 -0.032 -0.472 -0.881 53 65 51
-15.1064 34.4087 64.2332 -0.205 -0.253 -0.945 32 44 32
-13.2865 33.6360 63.7469 -0.114 -0.350 -0.930 68 78 67
-12.2962 33.2931 63.6231 -0.077 -0.093 -0.993 69 72 65
-9.0645 31.8925 62.7079 -0.130 -0.596 -0.792 93 95 90
-8.8614 31.8385 62.7121 0.267 -0.451 -0.852 95 97 92
-8.7685 31.8776 62.8298 0.270 -0.446 -0.854 76 78 73
