ply
format ascii 1.0
element vertex 877
property float x
property float y
property float z
property float nx
property float ny
property float nz
property uchar diffuse_red
property uchar diffuse_green
property uchar diffuse_blue
end_header
32.3486 24.5116 66.6476 0.520 -0.432 -0.737 145 134 130
32.4641 24.5101 66.7300 0.520 -0.432 -0.737 145 134 130
32.5868 24.5020 66.7960 0.405 -0.364 -0.839 145 134 130
33.5184 24.3740 67.0801 0.605 0.032 -0.796 95 85 76
34.4938 24.3151 67.6235 0.371 -0.424 -0.826 110 102 91
34.6408 24.2824 67.6272 0.386 -0.406 -0.829 131 123 112
35.4850 24.3648 68.5337 0.390 0.100 -0.915 95 109 73
35.8968 24.2966 68.6215 0.462 -0.368 -0.807 85 99 63
36.0159 24.2934 68.7008 0.466 -0.392 -0.793 84 98 62
38.0140 24.1450 69.7228 0.381 -0.185 -0.906 93 79 61
38.1360 24.1392 69.7961 0.353 -0.175 -0.919 57 53 24
38.2664 24.1237 69.8437 0.338 -0.174 -0.925 55 55 23
38.3950 24.1102 69.8968 0.340 -0.182 -0.923 81 82 50
38.6674 24.0651 69.9545 0.329 -0.377 -0.866 103 102 69
38.7829 24.0674 70.0491 0.641 -0.494 -0.587 102 102 69
39.2391 24.0852 70.4515 0.657 0.028 -0.753 98 110 70
39.5939 24.0845 70.7172 0.467 0.238 -0.851 107 120 77
41.5956 23.9523 71.7948 0.361 -0.306 -0.881 84 74 65
41.7127 23.9555 71.8938 0.323 -0.373 -0.870 91 81 72
41.8231 23.9685 72.0194 0.294 -0.196 -0.935 97 87 78
41.9386 23.9745 72.1262 0.398 -0.571 -0.718 109 96 88
42.8600 24.0352 73.0200 0.426 -0.304 -0.852 117 103 94
42.9925 24.0180 73.0638 0.136 -0.523 -0.841 139 125 116
43.1272 23.9975 73.0984 0.136 -0.523 -0.841 142 128 119
43.3868 23.9710 73.2076 0.168 -0.495 -0.852 115 101 92
45.0268 23.8773 74.1385 0.140 -0.658 -0.740 119 108 102
45.7706 24.0816 75.3678 0.441 0.343 -0.829 91 86 80
45.8945 24.0819 75.4623 0.645 -0.159 -0.747 90 85 79
47.3817 24.1020 76.6502 0.564 -0.259 -0.784 103 99 88
47.5301 24.0558 76.6109 0.375 -0.159 -0.913 109 105 93
47.6504 24.0665 76.7367 0.416 -0.117 -0.902 106 104 91
47.7677 24.0837 76.8816 0.474 -0.072 -0.877 107 105 90
47.8836 24.1047 77.0377 0.461 -0.089 -0.883 103 101 88
48.0346 24.0521 76.9794 0.467 -0.218 -0.857 98 96 83
48.1874 23.9949 76.9078 0.332 -0.543 -0.771 100 96 84
48.3195 23.9813 76.9627 0.520 -0.462 -0.719 97 97 83
48.5607 24.0049 77.2220 0.194 -0.661 -0.725 93 97 83
48.7085 23.9567 77.1759 0.400 -0.383 -0.833 105 107 94
48.8387 23.9477 77.2446 0.391 -0.272 -0.879 115 117 104
48.9662 23.9446 77.3306 0.354 -0.148 -0.923 120 120 108
49.2167 23.9498 77.5366 0.563 -0.083 -0.823 111 111 99
51.1486 24.2557 79.9949 0.636 0.215 -0.741 135 148 135
51.4397 24.1650 79.9179 0.815 -0.423 -0.396 120 134 121
52.0125 24.4096 81.1502 0.752 -0.583 -0.308 108 124 114
52.1304 24.4536 81.3829 0.799 -0.539 -0.266 111 126 119
52.2500 24.4939 81.6052 0.789 -0.532 -0.307 112 127 120
52.3292 24.6699 82.2406 0.785 -0.614 0.081 134 149 142
53.8210 24.5961 83.1246 0.861 -0.472 -0.190 141 157 154
53.8990 24.8294 83.9468 0.501 -0.250 -0.829 148 164 161
54.0399 24.8073 83.9808 0.549 -0.281 -0.787 154 170 167
54.1918 24.7371 83.8658 0.399 -0.162 -0.902 149 165 162
54.3274 24.7366 83.9664 0.153 -0.481 -0.863 142 158 155
54.4681 24.7139 83.9981 -0.319 -0.445 -0.837 135 151 148
54.6119 24.6760 83.9826 0.369 -0.824 -0.429 120 136 133
59.6974 25.4026 90.1967 0.669 -0.658 -0.347 114 135 131
60.2743 25.7088 91.6334 0.809 -0.533 -0.249 118 144 147
61.4654 26.0976 93.8039 0.820 -0.329 -0.468 116 136 145
61.6194 26.1952 94.2393 0.762 -0.377 -0.527 67 87 95
61.9152 26.0985 94.1461 0.344 0.492 -0.800 63 82 84
62.1945 25.7707 93.2846 0.259 0.797 -0.545 33 52 53
62.3411 25.7388 93.2909 0.258 0.797 -0.546 29 47 50
63.6458 26.7196 97.4836 0.969 0.180 -0.172 61 80 68
66.1911 20.6739 79.6281 0.936 -0.347 -0.058 102 113 104
-14.1546 34.7011 64.2899 -0.181 0.022 -0.983 59 65 61
-12.6032 34.2454 63.9761 -0.249 -0.367 -0.896 73 77 77
-7.3816 32.6722 62.7917 -0.326 -0.379 -0.866 58 58 56
-6.9067 32.5535 62.7631 -0.176 -0.431 -0.885 65 66 61
-3.8633 31.5993 61.9515 -0.100 -0.242 -0.965 78 84 72
-3.6435 31.5466 61.9456 0.030 -0.226 -0.974 74 80 68
0.8062 30.4309 61.6674 0.478 -0.187 -0.858 65 74 57
0.9769 30.4016 61.7008 0.093 -0.221 -0.971 65 71 57
4.6385 29.3351 60.9893 0.638 -0.103 -0.763 40 42 39
4.7515 29.3360 61.0775 0.722 -0.300 -0.624 51 53 50
5.0874 29.2759 61.1348 0.212 -0.062 -0.975 54 56 53
6.3197 28.9647 61.0508 0.227 0.062 -0.972 18 18 16
7.6120 28.6788 61.0939 0.247 -0.128 -0.961 102 103 97
10.1350 28.1936 61.4153 0.232 -0.498 -0.836 110 107 96
10.3360 28.1407 61.3947 0.189 -0.299 -0.935 117 115 103
10.4888 28.1169 61.4322 0.177 -0.297 -0.938 123 121 108
18.6452 26.4933 62.2926 0.199 -0.242 -0.950 125 117 106
18.9436 26.4419 62.3501 0.184 -0.334 -0.924 135 127 116
19.0999 26.4112 62.3679 0.172 -0.330 -0.928 148 140 129
20.1163 26.2481 62.6027 0.417 -0.009 -0.909 121 117 105
26.8346 25.2366 64.3705 0.286 -0.170 -0.943 142 136 124
26.9646 25.2221 64.4214 0.321 -0.218 -0.922 150 144 132
27.1235 25.1840 64.4170 0.439 -0.197 -0.876 132 122 110
27.2522 25.1705 64.4701 0.370 -0.104 -0.923 110 100 88
30.0377 24.8115 65.3992 0.479 -0.334 -0.812 164 152 140
33.1242 24.5832 66.9800 0.359 -0.399 -0.844 128 117 112
33.2544 24.5677 67.0277 0.438 -0.387 -0.811 151 140 132
33.4604 24.5905 67.2569 0.606 -0.092 -0.790 101 91 82
34.5178 24.4510 67.5990 0.291 -0.108 -0.951 123 115 104
37.9107 24.2941 69.6428 0.218 -0.733 -0.644 109 98 80
38.7055 24.1855 69.8876 0.244 -0.256 -0.935 108 108 69
39.2502 24.2393 70.4725 0.783 0.030 -0.621 100 113 71
39.2387 24.4015 70.9912 0.017 -0.692 -0.722 102 114 73
40.3503 24.1962 71.1603 0.639 -0.510 -0.576 94 89 70
41.4796 24.1201 71.7628 0.232 -0.167 -0.958 89 79 70
41.6185 24.0931 71.7797 0.416 -0.340 -0.844 95 85 76
41.7392 24.0914 71.8651 0.319 -0.378 -0.869 102 92 83
41.8534 24.0991 71.9760 0.463 -0.405 -0.788 107 97 88
41.9768 24.0940 72.0523 0.398 -0.571 -0.718 111 98 90
42.9025 24.1486 72.9263 0.221 -0.500 -0.837 123 109 100
43.0301 24.1387 72.9902 0.184 -0.504 -0.844 131 117 108
43.2967 24.1014 73.0697 0.041 -0.432 -0.901 133 119 110
43.4222 24.0946 73.1421 0.163 -0.492 -0.855 106 92 83
43.5670 24.0581 73.1322 0.216 -0.428 -0.878 99 85 76
44.1527 24.0922 73.6841 0.123 -0.194 -0.973 119 109 100
44.9305 24.0165 74.0233 0.244 -0.471 -0.848 91 80 74
45.3060 24.2150 74.9511 0.783 -0.272 -0.559 108 95 89
45.4126 24.2448 75.1282 0.828 -0.234 -0.509 107 96 90
45.9320 24.2023 75.3810 0.202 -0.315 -0.927 91 87 78
46.0559 24.2028 75.4758 0.511 -0.104 -0.853 90 85 79
46.1856 24.1926 75.5405 0.537 -0.196 -0.820 91 86 80
47.5855 24.1385 76.4180 0.568 -0.424 -0.705 101 99 86
47.6959 24.1695 76.6018 0.589 -0.395 -0.705 100 98 85
47.8115 24.1902 76.7561 0.652 -0.469 -0.595 98 99 83
47.9252 24.2157 76.9246 0.642 -0.472 -0.604 97 98 84
48.2182 24.1278 76.8595 0.317 -0.553 -0.770 99 97 84
48.5989 24.1216 77.1258 0.194 -0.661 -0.725 90 94 80
48.7391 24.0902 77.1292 0.400 -0.383 -0.833 93 97 83
48.8665 24.0874 77.2158 0.452 -0.276 -0.849 100 102 89
48.9960 24.0797 77.2884 0.333 -0.113 -0.936 107 108 95
50.3746 24.1254 78.4746 0.545 -0.697 -0.466 127 130 119
50.5045 24.1201 78.5550 0.723 -0.311 -0.617 128 131 120
51.1709 24.4163 80.0195 0.625 0.210 -0.752 134 147 135
51.9416 24.4541 80.7224 0.853 0.249 -0.458 122 138 127
53.3264 24.6960 82.5509 0.500 -0.290 -0.816 137 152 147
53.5969 24.6837 82.7147 0.552 -0.382 -0.741 136 153 147
53.9426 24.9192 83.7404 0.521 -0.493 -0.697 148 165 159
54.0792 24.9141 83.8264 0.564 -0.591 -0.577 154 171 165
54.6502 24.7825 83.8286 0.365 -0.822 -0.437 110 126 123
55.6481 25.2948 86.2448 0.593 -0.801 0.082 46 62 59
55.7532 25.4961 86.9783 0.643 -0.762 0.084 38 54 51
57.8857 25.3298 88.0427 0.211 0.267 -0.940 79 99 100
58.1677 25.3404 88.2894 0.636 0.627 -0.450 70 90 90
60.1606 25.7934 91.2621 0.798 0.099 -0.595 108 133 131
60.3064 25.8733 91.6314 0.817 0.259 -0.515 101 125 125
61.3464 26.1914 93.4483 0.812 -0.321 -0.487 167 191 195
61.4991 26.2798 93.8504 0.697 -0.342 -0.630 163 187 191
61.6514 26.3324 94.1362 0.756 -0.357 -0.548 137 160 164
61.8003 26.3032 94.1534 0.787 -0.261 -0.559 98 121 125
61.9521 26.3300 94.3548 0.787 -0.261 -0.559 59 81 85
62.3844 26.0476 93.7618 0.258 0.797 -0.546 25 48 53
62.5310 26.0084 93.7448 0.253 0.793 -0.555 29 51 53
63.5067 26.7155 96.7777 0.976 0.144 -0.164 59 80 65
65.6547 23.5463 88.0916 0.973 -0.185 -0.135 90 91 73
-18.0395 36.1580 65.4848 -0.286 -0.202 -0.937 87 106 100
-17.7512 36.0809 65.4523 -0.352 -0.099 -0.931 108 123 117
-17.3535 35.9502 65.3284 -0.374 -0.104 -0.922 93 106 98
-16.9356 35.8091 65.1864 -0.405 -0.104 -0.908 101 114 104
-16.4576 35.6382 64.9930 -0.405 -0.104 -0.908 106 119 109
-14.1471 34.8148 64.0673 0.174 -0.737 -0.653 69 75 71
-13.9250 34.7675 64.0814 -0.031 -0.525 -0.850 75 81 77
-13.6846 34.7110 64.0794 -0.151 -0.474 -0.867 66 72 68
-10.5176 33.6904 63.1594 0.422 0.042 -0.906 100 113 103
-3.6355 31.7104 61.9289 0.026 -0.230 -0.973 76 83 68
-3.4381 31.6692 61.9440 0.026 -0.230 -0.973 70 78 63
-2.6544 31.4432 61.8022 0.048 -0.347 -0.937 39 50 36
-0.3016 30.8788 61.7450 0.151 -0.134 -0.979 39 50 43
0.6893 30.5951 61.5722 0.281 -0.381 -0.881 72 88 58
0.8579 30.5670 61.6079 0.172 -0.298 -0.939 65 79 53
2.2992 30.1586 61.3705 0.279 -0.492 -0.825 29 37 26
5.3197 29.3694 61.0883 -0.080 -0.364 -0.928 26 28 25
6.4685 29.1043 61.0945 0.227 0.062 -0.972 119 119 117
6.6278 29.0784 61.1301 0.227 0.062 -0.972 105 105 103
7.2822 28.9638 61.2510 0.488 -0.252 -0.836 77 78 73
10.2936 28.3241 61.4452 0.099 -0.458 -0.883 125 126 110
10.4858 28.2763 61.4351 0.122 -0.516 -0.848 130 131 115
10.6803 28.2269 61.4216 0.163 -0.585 -0.795 128 129 113
12.0187 27.8213 61.1159 0.094 -0.173 -0.981 124 122 110
12.1874 27.8562 61.3553 0.080 -0.357 -0.931 150 148 136
14.1859 27.4479 61.5365 0.044 -0.078 -0.996 153 151 138
18.6715 26.6298 62.2606 0.126 -0.197 -0.972 124 118 106
21.0176 26.2385 62.7577 0.584 -0.364 -0.725 160 154 140
21.3099 26.1890 62.8173 0.243 -0.189 -0.951 126 120 108
22.5643 25.9250 62.9061 0.226 -0.202 -0.953 100 94 82
27.1424 25.3235 64.3996 0.411 -0.076 -0.909 75 65 53
27.9034 25.2520 64.7399 0.251 -0.404 -0.880 158 146 134
30.1231 24.8917 65.2423 0.403 -0.379 -0.833 161 149 137
31.0165 24.6957 65.2795 0.801 -0.207 -0.561 141 128 120
31.1203 24.9114 66.0544 0.013 -0.519 -0.855 141 128 120
32.4311 24.7495 66.5154 0.142 -0.286 -0.948 145 134 128
32.5696 24.7259 66.5433 0.142 -0.286 -0.948 145 134 130
32.8446 24.6806 66.6032 0.180 -0.275 -0.945 149 138 134
33.1623 24.7050 66.9205 0.449 -0.381 -0.808 131 120 114
33.2832 24.6986 66.9907 0.449 -0.381 -0.808 132 122 113
33.9674 24.7033 67.5195 0.183 -0.032 -0.983 119 109 100
34.4098 24.6042 67.5315 0.206 -0.193 -0.959 136 128 117
34.9020 24.5714 67.7951 0.686 -0.080 -0.724 132 126 114
37.4541 24.1788 68.4425 0.400 -0.265 -0.878 86 103 75
40.8581 24.3255 71.4720 0.383 -0.487 -0.785 109 103 88
40.9622 24.3463 71.6174 0.471 -0.219 -0.855 100 92 81
41.0863 24.3402 71.6909 0.447 -0.138 -0.884 80 70 61
41.8685 24.2514 71.9911 0.640 -0.116 -0.760 102 92 83
43.2681 24.3236 73.2751 0.009 -0.227 -0.974 120 107 98
43.5225 24.3062 73.4100 0.145 -0.328 -0.933 106 93 84
43.6599 24.2815 73.4333 0.148 -0.316 -0.937 100 87 78
43.8347 24.1974 73.2929 0.304 -0.528 -0.793 101 88 80
43.9637 24.1853 73.3505 0.304 -0.528 -0.793 98 88 79
45.6865 24.3860 75.2923 0.525 -0.372 -0.766 92 85 77
46.0872 24.3344 75.4266 0.277 0.116 -0.954 93 89 80
46.3604 24.2881 75.4822 0.069 -0.258 -0.964 97 93 84
46.5001 24.2590 75.4929 0.007 -0.658 -0.753 97 93 84
47.6194 24.2651 76.3527 0.581 -0.441 -0.684 96 94 81
47.7342 24.2868 76.5091 0.554 -0.430 -0.713 93 94 80
47.8540 24.2989 76.6383 0.598 -0.407 -0.691 93 94 78
48.1146 24.2793 76.7706 0.384 -0.466 -0.797 99 97 84
48.3652 24.2820 76.9675 0.377 -0.494 -0.784 98 99 85
48.5056 24.2502 76.9702 0.394 -0.563 -0.726 88 91 77
49.0120 24.2468 77.3391 0.590 -0.557 -0.584 95 98 85
50.4214 24.2170 78.3011 0.756 -0.332 -0.564 126 129 118
50.5365 24.2507 78.4963 0.717 -0.323 -0.617 126 129 118
50.8976 24.3149 78.9749 0.443 0.194 -0.875 128 131 122
54.1072 25.0685 83.8194 0.300 0.395 -0.868 154 171 165
54.6814 24.9225 83.7785 0.291 0.313 -0.904 129 145 142
55.8123 25.4771 86.4193 0.792 -0.611 -0.004 58 77 73
55.9249 25.6431 87.0404 0.782 -0.623 -0.033 42 61 57
56.1464 26.0353 88.4737 0.898 -0.439 0.032 34 53 47
57.9165 25.4830 88.0182 0.135 0.312 -0.940 78 98 98
58.3249 25.7021 89.0325 0.644 0.623 -0.444 55 71 70
58.4630 25.7719 89.3620 0.669 0.601 -0.436 71 85 85
59.1796 25.8207 90.0575 -0.225 0.009 -0.974 115 134 130
61.3799 26.3716 93.4894 0.694 -0.398 -0.599 177 203 202
61.5300 26.3893 93.6592 0.705 -0.389 -0.593 169 195 194
61.6826 26.4539 93.9825 0.795 -0.299 -0.527 164 190 191
61.8323 26.4438 94.0620 0.807 -0.245 -0.537 151 178 183
61.9848 26.4841 94.3070 0.811 -0.239 -0.534 120 147 152
62.1393 26.5483 94.6304 0.884 -0.192 -0.426 55 84 88
62.4282 26.3598 94.2381 0.258 0.797 -0.546 34 61 69
62.5773 26.3435 94.2973 0.253 0.793 -0.554 42 68 72
62.7217 26.2692 94.1656 0.429 0.781 -0.455 49 72 68
62.8661 26.2025 94.0587 0.498 0.752 -0.432 66 88 77
63.5632 27.0874 97.4409 0.974 0.146 -0.176 60 79 67
63.7710 27.5476 99.0839 0.989 0.006 -0.147 71 85 73
65.5922 23.9246 88.7458 0.947 -0.265 -0.183 103 102 84
-18.0354 36.3415 65.4668 -0.302 -0.209 -0.930 84 101 98
-17.6236 36.2036 65.3324 -0.284 -0.247 -0.927 89 104 99
-17.2485 36.0833 65.2270 -0.306 -0.253 -0.918 95 108 100
-16.5944 35.8254 64.8885 0.093 0.095 -0.991 80 93 84
-16.4637 35.8246 64.9839 -0.407 -0.141 -0.902 88 101 91
-14.1682 35.0052 64.0719 0.110 0.080 -0.991 70 76 72
-13.8716 34.9207 64.0227 0.121 0.070 -0.990 104 110 106
-13.7195 34.9081 64.0961 -0.185 -0.062 -0.981 92 98 94
-13.4708 34.8472 64.0867 -0.291 -0.107 -0.951 74 80 76
-10.5576 33.8863 63.1827 0.561 -0.290 -0.775 76 90 77
-10.3893 33.8638 63.2368 0.527 -0.327 -0.784 46 60 47
-9.1934 33.5069 62.9861 -0.362 -0.385 -0.849 65 69 68
-7.8183 33.1163 62.7618 -0.320 -0.456 -0.831 72 74 69
-3.4643 31.8513 61.9602 -0.011 0.048 -0.999 82 91 74
-3.2921 31.8233 61.9993 0.031 0.075 -0.997 64 73 57
-3.0228 31.7435 61.9447 0.006 0.020 -1.000 33 45 31
-2.5610 31.5607 61.7034 0.083 -0.477 -0.875 59 71 57
1.0352 30.6338 61.4204 0.261 -0.028 -0.965 68 84 54
5.9790 29.3485 60.9955 0.227 0.062 -0.972 87 89 86
6.2985 29.2962 61.0669 0.227 0.062 -0.972 96 98 95
6.6937 29.1996 61.0527 -0.012 -0.340 -0.940 73 73 71
7.3756 29.0014 60.9269 0.559 -0.341 -0.756 78 78 76
7.4013 29.0533 61.1126 0.567 -0.291 -0.771 66 68 63
10.7248 28.3573 61.3668 0.136 -0.355 -0.925 111 113 93
11.9387 28.0272 61.2157 0.191 -0.069 -0.979 107 105 90
12.0002 28.0591 61.3643 0.003 -0.323 -0.946 111 109 94
12.3454 27.9846 61.3837 -0.049 -0.396 -0.917 123 121 108
14.0775 27.6011 61.4493 0.371 0.030 -0.928 62 63 49
14.2036 27.5923 61.5155 0.068 -0.076 -0.995 116 114 101
14.3682 27.5587 61.5309 0.056 -0.098 -0.994 130 130 118
20.8568 26.3477 62.5013 0.455 -0.382 -0.805 117 111 99
20.9562 26.3565 62.6042 0.495 -0.404 -0.770 128 122 110
21.1046 26.3301 62.6304 0.487 -0.397 -0.778 147 141 129
21.3493 26.3148 62.7647 0.280 -0.107 -0.954 144 138 126
22.6359 26.0257 62.7999 0.128 -0.209 -0.970 101 95 83
25.0213 25.7403 63.6698 0.493 -0.505 -0.708 118 112 100
26.2921 25.6223 64.2426 0.446 -0.212 -0.870 122 115 103
27.9382 25.3783 64.6917 0.251 -0.404 -0.880 80 68 56
30.1574 25.0171 65.1938 0.387 -0.427 -0.817 151 139 127
30.9764 24.8883 65.3935 0.070 -0.454 -0.888 140 127 119
32.8784 24.8062 66.5544 0.164 -0.290 -0.943 154 143 138
33.1936 24.8333 66.8775 0.449 -0.381 -0.808 116 105 99
33.3570 24.7848 66.8439 0.412 -0.089 -0.907 154 144 135
33.4820 24.7743 66.9038 0.486 -0.139 -0.863 159 149 140
34.8205 24.6971 67.6586 0.306 -0.512 -0.803 149 142 129
37.4548 24.3410 68.4877 0.458 -0.215 -0.863 84 99 72
38.2456 24.5068 69.6123 0.535 -0.523 -0.663 62 66 28
38.4925 24.4920 69.7498 0.566 -0.364 -0.739 105 114 70
38.6259 24.4727 69.7876 0.358 -0.109 -0.927 105 114 70
38.7455 24.4701 69.8688 0.276 -0.488 -0.828 113 120 77
40.9868 24.4851 71.5955 0.471 -0.219 -0.855 121 113 104
41.1096 24.4807 71.6736 0.443 -0.130 -0.887 109 99 90
41.7836 24.3755 71.8405 0.320 0.040 -0.946 95 85 76
41.8926 24.3910 71.9719 0.412 -0.006 -0.911 99 89 80
42.2560 24.3867 72.2300 0.546 -0.053 -0.836 163 150 141
43.6410 24.4914 73.6036 0.110 -0.172 -0.979 118 106 97
44.0713 24.3883 73.5948 0.615 -0.188 -0.766 90 77 69
46.0904 24.5182 75.5240 0.277 -0.089 -0.957 96 92 83
48.3976 24.6927 77.8121 0.701 -0.088 -0.707 89 93 79
48.5605 24.6130 77.6781 0.463 -0.786 -0.410 87 93 78
49.7532 24.5059 78.2275 -0.281 -0.191 -0.940 109 118 101
51.0424 24.4906 79.1440 0.170 0.118 -0.978 137 139 130
52.1962 24.9565 81.5041 0.899 0.130 -0.418 125 136 128
54.1385 25.2092 83.7699 0.475 -0.298 -0.828 151 168 160
54.2791 25.1870 83.8039 0.426 -0.171 -0.888 147 164 158
55.9746 25.6760 86.6438 0.756 -0.654 -0.024 62 83 78
56.1296 25.5774 86.4433 0.853 -0.487 -0.188 50 71 64
56.2606 25.6337 86.7222 0.842 -0.472 -0.260 39 60 53
57.9453 25.6595 88.0667 0.117 0.323 -0.939 89 109 108
58.4831 26.0928 89.8609 0.664 0.607 -0.438 54 68 68
58.7680 26.1610 90.2933 0.760 -0.646 0.067 99 113 113
59.2095 26.0170 90.1615 -0.191 0.021 -0.981 117 133 130
59.3568 25.9458 90.0433 -0.216 0.016 -0.976 118 135 129
59.4947 26.1514 90.8067 0.853 -0.483 -0.196 116 135 130
61.4122 26.5191 93.4235 0.804 0.078 -0.589 175 201 198
61.8633 26.5667 93.9142 0.848 -0.284 -0.448 169 199 203
62.0179 26.6461 94.2850 0.811 -0.239 -0.534 167 198 203
62.4735 26.6898 94.7664 0.263 0.777 -0.573 45 75 85
62.6234 26.6718 94.8207 0.277 0.782 -0.558 28 55 60
62.7700 26.6130 94.7418 0.269 0.787 -0.554 35 59 58
62.9174 26.5705 94.7158 0.374 0.764 -0.526 58 80 74
63.8017 27.6799 98.9403 0.989 0.016 -0.150 78 90 80
65.6526 24.2195 89.2148 0.952 -0.235 -0.197 109 108 90
65.6043 20.8811 78.4584 -0.497 -0.077 -0.864 100 105 83
-17.8626 36.4423 65.3100 -0.326 -0.415 -0.849 89 104 101
-16.6671 36.0448 64.9347 -0.313 -0.259 -0.914 97 110 100
-16.3101 35.9321 64.8417 -0.315 -0.259 -0.913 77 89 77
-14.1986 35.2006 64.0843 0.110 0.080 -0.991 86 92 88
-13.9836 35.1566 64.1047 0.110 0.080 -0.991 93 99 95
-13.6458 35.0511 64.0201 -0.048 0.255 -0.966 99 105 101
-13.4500 35.0165 64.0559 -0.312 -0.070 -0.948 103 109 105
-13.0954 34.9019 63.9553 -0.320 -0.083 -0.944 109 115 111
-11.2377 34.2810 63.3614 -0.047 0.153 -0.987 52 62 54
-10.9343 34.1903 63.2987 -0.118 0.148 -0.982 51 64 54
-10.5276 34.0468 63.1443 0.561 -0.290 -0.775 53 66 56
-9.6068 33.8300 63.1403 -0.233 -0.259 -0.937 60 65 61
-9.1848 33.6769 62.9670 -0.369 -0.336 -0.866 56 61 57
-9.1734 33.7346 63.1597 -0.110 -0.130 -0.985 55 57 54
-0.5234 31.3317 61.9527 0.738 0.252 -0.626 37 50 44
1.0038 30.8154 61.4457 0.278 -0.083 -0.957 73 88 59
4.1192 29.9160 60.9027 0.122 -0.654 -0.747 65 67 62
4.4158 29.8785 61.0044 0.230 -0.299 -0.926 47 49 48
5.9682 29.5148 61.0036 0.227 0.062 -0.972 55 57 54
6.1091 29.4996 61.0604 0.211 0.128 -0.969 30 32 29
6.2870 29.4629 61.0760 0.267 0.037 -0.963 23 25 22
6.5106 29.3994 61.0403 -0.003 -0.218 -0.976 24 26 23
6.7188 29.3446 61.0212 -0.025 -0.339 -0.941 32 32 30
7.0286 29.2972 61.1015 -0.094 -0.305 -0.948 92 92 90
7.3923 29.2179 61.1199 0.546 -0.301 -0.782 66 66 64
12.1006 28.1532 61.2392 0.190 0.082 -0.978 92 90 77
12.1516 28.1920 61.4012 -0.090 -0.398 -0.913 107 105 90
15.0821 27.6163 61.7530 0.534 -0.090 -0.841 106 102 93
20.2323 26.6290 62.4498 0.393 -0.310 -0.865 138 132 120
20.8901 26.4778 62.4584 0.455 -0.382 -0.805 120 111 102
21.0005 26.4788 62.5440 0.489 -0.398 -0.776 104 95 86
21.2772 26.4403 62.6278 0.534 -0.350 -0.770 117 108 99
21.3963 26.4350 62.6999 0.537 -0.352 -0.767 110 101 92
22.9544 26.1082 62.8211 0.431 -0.193 -0.881 113 103 93
23.6770 25.9833 62.9621 0.236 -0.263 -0.936 124 114 102
23.8292 25.9522 62.9765 0.651 -0.315 -0.691 129 119 107
33.1582 25.0280 66.9964 0.553 -0.333 -0.764 126 116 106
33.7768 24.9840 67.3182 0.569 -0.121 -0.813 103 95 84
34.5948 24.8533 67.5120 0.319 -0.311 -0.895 164 161 143
34.7510 24.8104 67.4917 0.441 -0.256 -0.860 173 169 151
34.8535 24.8237 67.6108 0.346 -0.350 -0.871 147 143 125
35.5769 24.6665 67.6497 0.468 -0.552 -0.690 139 151 113
38.0396 24.6388 69.4009 0.558 -0.273 -0.784 136 138 110
38.1578 24.6376 69.4853 0.558 -0.273 -0.784 150 154 123
38.2760 24.6364 69.5699 0.558 -0.273 -0.784 112 128 88
38.4072 24.6197 69.6145 0.570 -0.357 -0.740 97 116 74
38.6457 24.6152 69.7785 0.358 -0.109 -0.927 110 129 87
39.9656 24.5885 70.6792 0.356 -0.471 -0.807 104 117 75
40.2281 24.5553 70.7693 0.551 -0.465 -0.693 107 111 78
40.6721 24.5979 71.2369 0.638 -0.425 -0.642 93 90 79
40.7931 24.5956 71.3200 0.646 -0.396 -0.653 87 83 78
41.0494 24.5717 71.4352 0.534 -0.318 -0.783 64 58 54
41.1505 24.5972 71.5922 0.454 -0.425 -0.783 67 58 52
41.2659 24.6033 71.6977 0.435 -0.408 -0.803 91 82 75
41.3904 24.5967 71.7698 0.470 -0.389 -0.792 115 104 98
42.3944 24.5357 72.3252 0.254 -0.319 -0.913 149 136 128
42.5268 24.5181 72.3680 0.254 -0.319 -0.913 99 86 78
43.3652 24.5304 73.0337 0.513 -0.204 -0.833 94 86 77
43.4944 24.5182 73.0912 0.508 -0.157 -0.847 104 98 88
43.6308 24.4945 73.1175 0.175 -0.029 -0.984 123 117 107
45.1694 24.5804 74.5410 0.532 0.038 -0.846 134 118 110
47.1078 24.4269 75.4991 0.208 -0.473 -0.856 85 82 75
47.2300 24.4310 75.6037 0.505 -0.618 -0.603 95 90 84
48.9758 24.7425 77.9019 0.299 -0.712 -0.635 89 96 80
49.2105 24.7921 78.2357 0.725 -0.540 -0.427 96 105 88
51.8928 24.8974 80.5754 0.577 0.233 -0.783 122 128 120
52.1558 24.8955 80.7661 0.255 0.097 -0.962 128 135 127
54.1748 25.3278 83.6540 0.462 -0.325 -0.825 145 162 154
54.3156 25.3038 83.6825 0.471 -0.325 -0.820 148 165 157
59.2347 26.3306 90.6345 0.096 0.303 -0.948 116 135 129
59.3870 26.1410 90.1434 -0.276 -0.017 -0.961 116 135 129
59.5226 26.4384 91.1937 0.810 -0.481 -0.337 116 135 128
59.6705 26.3787 91.1137 0.880 -0.435 -0.193 116 136 127
60.9941 26.5161 92.5410 0.698 -0.653 -0.294 104 127 125
61.1422 26.5138 92.6444 0.728 -0.601 -0.328 114 139 138
61.2941 26.6290 93.1255 0.705 -0.636 -0.316 129 157 157
61.4423 26.6040 93.1565 0.572 -0.518 -0.636 157 186 186
61.5927 26.6367 93.3730 0.569 -0.488 -0.662 177 203 202
62.8191 26.9649 95.3369 0.329 0.698 -0.637 36 60 64
63.8556 28.0140 99.4596 0.973 -0.193 -0.124 85 94 85
64.2073 28.2859 100.5901 0.882 -0.400 -0.248 106 113 105
65.8831 24.6485 90.2329 0.973 -0.183 -0.141 87 89 71
66.0577 24.7972 90.8378 0.983 0.007 -0.182 97 101 80
67.0177 26.4422 96.8051 0.985 -0.092 -0.149 113 120 103
-16.8068 36.2981 65.0366 -0.251 -0.450 -0.857 58 71 61
-14.6674 35.5521 64.2644 -0.177 0.188 -0.966 50 57 53
-14.2290 35.3963 64.0967 0.110 0.080 -0.991 54 60 56
-14.0138 35.3521 64.1171 0.110 0.080 -0.991 67 73 69
-13.4496 35.1961 64.0426 -0.312 -0.070 -0.948 100 106 102
-10.4552 34.1856 63.0688 0.621 -0.249 -0.743 50 63 53
-10.0139 34.0868 63.0843 0.256 -0.390 -0.884 53 66 56
-9.5430 33.9723 63.0719 -0.255 -0.258 -0.932 53 58 54
-9.0682 33.8552 63.0542 0.216 0.153 -0.964 37 39 36
-8.4186 33.5828 62.6744 -0.109 -0.301 -0.947 55 57 54
-5.9992 32.8938 62.2916 -0.097 -0.321 -0.942 81 82 77
-3.7656 32.2852 62.0258 0.128 0.375 -0.918 68 72 58
-3.4834 32.2629 62.1651 -0.326 -0.021 -0.945 54 62 47
-3.1546 32.1507 62.0542 -0.326 -0.021 -0.945 25 36 22
-2.6225 31.9929 61.9503 -0.027 0.188 -0.982 81 92 78
-2.4103 31.9428 61.9496 0.493 0.326 -0.806 87 95 82
-0.6757 31.2577 61.0690 -0.029 -0.122 -0.992 33 47 30
-0.5354 31.2453 61.1341 0.398 -0.061 -0.916 62 75 59
-0.2069 31.1942 61.2168 0.443 0.061 -0.895 21 35 17
-0.5616 31.5192 61.9836 0.163 0.082 -0.983 45 58 50
1.5140 30.8261 61.3318 -0.032 0.015 -0.999 61 69 55
2.5970 30.5461 61.2506 0.415 -0.348 -0.841 51 57 47
5.9334 29.6953 61.0380 0.205 0.132 -0.970 45 47 44
6.0980 29.6663 61.0689 0.205 0.132 -0.970 28 30 27
6.2623 29.6374 61.0997 0.205 0.132 -0.970 30 32 29
6.5248 29.5509 61.0209 0.037 -0.104 -0.994 18 20 17
6.9403 29.4414 60.9832 -0.067 -0.325 -0.943 64 64 62
10.6480 28.6501 61.2362 0.179 -0.234 -0.956 73 76 55
10.8504 28.5952 61.2128 0.190 -0.243 -0.951 70 73 52
12.0905 28.3163 61.2522 0.082 -0.009 -0.997 95 93 78
13.7226 27.9965 61.4539 0.447 -0.005 -0.894 84 87 70
13.9882 27.9707 61.5702 0.435 -0.066 -0.898 98 98 86
15.2620 27.7280 61.7497 0.537 0.014 -0.843 110 103 95
15.4149 27.7015 61.7795 0.497 -0.042 -0.867 117 108 101
16.6853 27.3788 61.7026 0.370 -0.290 -0.883 130 123 113
16.8034 27.3748 61.7780 0.417 -0.388 -0.822 135 128 118
21.1259 26.6234 62.6158 0.456 -0.441 -0.774 88 79 70
21.3078 26.5723 62.5890 0.534 -0.350 -0.770 90 81 72
23.2195 26.2308 62.9303 0.342 0.129 -0.931 144 134 124
23.8567 26.0849 62.9426 0.194 -0.130 -0.972 133 123 111
24.2541 26.0366 63.0855 0.201 -0.280 -0.939 129 123 109
25.8172 25.8621 63.6969 0.154 -0.339 -0.928 170 161 146
33.1983 25.1479 66.9322 0.526 -0.292 -0.799 139 129 119
34.7820 24.9387 67.4488 0.440 -0.229 -0.868 170 167 148
34.8873 24.9492 67.5604 0.374 -0.429 -0.822 139 138 118
35.0353 24.9144 67.5605 0.280 -0.443 -0.852 137 136 116
35.2185 24.8419 67.4670 0.688 -0.347 -0.637 133 132 112
35.3269 24.8490 67.5704 0.524 -0.398 -0.753 128 131 108
35.8399 24.7928 67.7742 0.517 -0.431 -0.739 74 89 50
37.9427 24.7805 69.3023 0.451 -0.442 -0.775 91 94 67
38.0643 24.7751 69.3761 0.451 -0.442 -0.775 139 143 113
38.1757 24.7822 69.4814 0.455 -0.447 -0.770 143 150 117
38.3012 24.7724 69.5438 0.593 -0.530 -0.607 110 129 87
39.8181 24.7960 70.7493 0.113 -0.083 -0.990 96 115 65
39.9310 24.8039 70.8585 0.176 -0.158 -0.972 105 117 75
40.1031 24.7338 70.7644 0.292 -0.237 -0.926 117 123 85
40.5826 24.7292 71.1071 0.501 -0.348 -0.793 83 82 63
40.8246 24.7246 71.2729 0.646 -0.396 -0.653 69 66 61
41.0619 24.7269 71.4570 0.419 -0.350 -0.838 68 63 59
41.1642 24.7512 71.6103 0.426 -0.455 -0.782 80 71 65
41.2889 24.7445 71.6820 0.426 -0.455 -0.782 94 85 78
42.4375 24.6478 72.2313 0.420 -0.316 -0.851 112 101 92
42.5558 24.6510 72.3297 0.254 -0.319 -0.913 98 86 78
43.2579 24.6874 72.9683 0.535 -0.157 -0.830 135 131 120
43.5223 24.6535 73.0579 0.558 -0.103 -0.823 113 109 98
43.6427 24.6553 73.1532 0.245 0.027 -0.969 113 111 99
44.1534 24.6167 73.4115 0.296 -0.181 -0.938 94 81 73
44.9297 24.7541 74.4259 0.606 -0.476 -0.637 122 105 97
45.5663 24.7199 74.7918 0.338 -0.692 -0.638 140 123 115
45.7743 24.7924 75.1769 0.177 -0.694 -0.698 118 110 100
47.4982 24.5866 75.8087 0.604 -0.269 -0.750 94 91 82
50.9750 24.7601 78.9502 0.591 -0.555 -0.585 118 119 111
51.0760 24.8405 79.2807 0.587 -0.670 -0.455 124 127 118
51.9162 25.0581 80.5970 0.511 0.159 -0.845 151 157 149
52.1803 25.0537 80.7797 0.529 0.143 -0.837 127 137 128
52.3155 25.0412 80.8408 0.523 0.166 -0.836 126 136 127
52.4105 25.1659 81.3073 0.670 -0.709 -0.220 126 136 127
54.0580 24.9455 81.8360 0.469 -0.463 -0.752 127 144 134
54.2004 24.9031 81.8077 0.674 -0.439 -0.593 134 151 143
54.3281 24.9251 81.9726 0.478 -0.468 -0.744 140 157 149
54.3520 25.4204 83.5617 0.539 -0.382 -0.751 147 164 156
54.4813 25.4488 83.7481 -0.090 -0.468 -0.879 148 165 157
55.3013 25.4280 84.2933 0.699 -0.646 -0.307 145 161 158
56.3262 25.9057 86.5723 0.876 -0.382 -0.295 60 81 76
59.2677 26.4589 90.5194 0.145 0.338 -0.930 105 124 120
59.4123 26.4825 90.7022 0.793 -0.479 -0.378 110 129 123
59.5563 26.5400 90.9919 0.818 -0.467 -0.336 118 137 132
59.7026 26.5300 91.0691 0.863 -0.459 -0.212 117 136 130
59.8484 26.5503 91.2422 0.617 -0.053 -0.785 115 134 128
60.8762 26.5377 91.9681 0.455 -0.871 -0.183 108 129 126
61.6238 26.7567 93.2202 0.560 -0.516 -0.648 148 174 173
62.3933 27.0778 94.8121 0.922 -0.308 -0.235 182 210 220
62.7103 27.2517 95.6002 0.808 -0.524 -0.269 124 151 158
62.8700 27.3330 95.9768 0.762 -0.613 -0.208 83 106 113
63.0271 27.3753 96.2283 0.806 -0.531 -0.260 42 61 70
63.5272 27.7410 97.7611 0.914 -0.389 -0.116 57 77 86
63.7091 27.9750 98.6391 0.916 -0.386 -0.111 57 74 81
63.8937 28.2091 99.5191 0.971 -0.203 -0.124 91 101 92
64.2354 28.3985 100.3747 0.910 -0.253 -0.328 100 108 97
66.6317 26.0930 94.8470 0.768 -0.565 -0.303 116 121 98
66.7932 26.1412 95.1201 0.790 -0.570 -0.226 112 120 98
67.3387 27.1650 98.7743 0.982 0.022 -0.188 106 112 98
-16.6555 36.4070 64.8967 -0.253 -0.456 -0.853 94 110 100
-14.0861 35.5692 64.1653 -0.003 0.288 -0.958 56 65 62
-13.0775 35.2517 63.9141 -0.310 -0.048 -0.949 63 69 67
-11.6160 34.7643 63.4638 -0.008 0.160 -0.987 73 82 78
-9.8824 34.2588 63.1589 -0.123 -0.391 -0.912 53 65 55
-9.4942 34.1223 63.0170 -0.255 -0.258 -0.932 55 61 56
-5.9630 33.0458 62.2480 -0.135 -0.394 -0.909 85 86 80
-5.2677 32.8702 62.2111 -0.060 -0.422 -0.905 103 102 98
-0.6031 31.7090 62.0179 0.162 0.074 -0.984 42 55 47
-0.2831 31.5976 61.9046 -0.265 0.299 -0.917 70 83 75
0.9600 31.1689 61.4769 0.715 0.244 -0.655 57 72 41
1.0951 31.1592 61.5467 0.058 0.077 -0.995 37 49 29
1.4892 31.0041 61.3507 -0.037 0.008 -0.999 55 63 51
4.8644 30.0754 60.9320 0.228 -0.003 -0.974 58 60 59
5.9096 29.8697 61.0604 0.182 0.122 -0.976 56 58 55
8.5761 29.1701 60.8369 0.101 -0.491 -0.866 166 165 161
10.9264 28.7056 61.1197 0.147 -0.168 -0.975 84 87 66
13.7480 28.1364 61.4226 0.459 -0.028 -0.888 72 75 58
13.8802 28.1239 61.4816 0.573 -0.033 -0.819 105 107 93
20.5655 26.7786 62.2100 0.382 -0.162 -0.910 137 131 119
20.7281 26.7416 62.2144 0.420 -0.465 -0.780 132 126 114
22.5432 26.4737 62.7191 0.123 -0.245 -0.962 154 144 135
22.7131 26.4299 62.7072 0.116 -0.228 -0.967 151 141 132
24.0061 26.2098 62.9745 0.216 -0.174 -0.961 147 138 125
24.0749 26.2433 63.1312 0.468 -0.286 -0.836 148 141 128
24.2262 26.2126 63.1469 0.432 -0.557 -0.709 136 130 116
24.3440 26.2080 63.2201 0.480 -0.289 -0.828 129 126 111
24.9060 26.1182 63.3547 0.340 -0.128 -0.932 135 132 117
26.2261 26.0508 64.1236 0.493 -0.278 -0.825 154 145 130
30.6344 25.5709 65.8881 0.252 -0.614 -0.748 124 111 102
30.8309 25.4942 65.7923 -0.142 -0.172 -0.975 130 117 108
32.3005 25.1787 65.8899 0.117 -0.320 -0.940 139 126 117
33.2248 25.2813 66.9009 0.526 -0.292 -0.799 127 117 107
33.3425 25.2785 66.9795 0.526 -0.292 -0.799 148 140 129
34.1797 25.1277 67.1265 0.547 -0.507 -0.666 172 164 153
34.8104 25.0698 67.4126 0.438 -0.229 -0.870 126 125 105
34.9094 25.0871 67.5410 0.348 -0.413 -0.842 130 129 109
35.0700 25.0388 67.5079 0.194 -0.180 -0.964 133 132 112
35.3587 24.9762 67.5253 0.524 -0.398 -0.753 137 140 117
35.4911 24.9576 67.5651 0.342 -0.429 -0.836 113 126 92
35.6295 24.9324 67.5885 0.361 -0.510 -0.781 118 133 94
39.0261 24.7689 69.5982 0.054 -0.232 -0.971 91 117 66
39.1660 24.7405 69.6128 0.054 -0.232 -0.971 90 118 63
39.5718 24.9773 70.6611 0.100 -0.089 -0.991 76 109 44
39.7133 24.9478 70.6733 0.060 0.096 -0.994 86 111 55
39.8636 24.9066 70.6552 0.185 -0.036 -0.982 95 113 64
39.9813 24.9083 70.7479 0.166 -0.048 -0.985 105 117 75
40.1441 24.8500 70.6852 0.257 -0.234 -0.938 118 123 85
41.0886 24.8628 71.4277 0.523 -0.446 -0.726 69 64 59
41.2125 24.8569 71.5012 0.530 -0.439 -0.725 89 80 74
43.1534 24.8399 72.8906 0.630 -0.043 -0.775 108 105 93
43.2812 24.8299 72.9542 0.626 -0.067 -0.777 125 123 111
43.4013 24.8322 73.0508 0.626 -0.067 -0.777 142 138 127
43.5286 24.8232 73.1170 0.535 -0.157 -0.830 121 119 107
44.1688 24.7727 73.4338 0.241 -0.253 -0.937 94 81 73
44.2809 24.7894 73.5697 0.629 -0.307 -0.714 98 85 77
44.9888 24.8367 74.2452 0.336 -0.335 -0.880 132 115 107
45.8049 24.9255 75.1317 0.154 -0.695 -0.702 105 97 88
47.4746 24.8318 76.0777 -0.181 -0.383 -0.906 95 92 81
47.5991 24.8335 76.1757 -0.271 -0.335 -0.902 92 91 79
47.7539 24.7712 76.0943 -0.265 -0.380 -0.886 90 92 79
51.6677 25.2489 80.5105 0.763 0.126 -0.634 122 129 121
51.7919 25.2716 80.6743 0.471 0.171 -0.865 118 125 117
52.0346 25.3388 81.0667 0.831 0.083 -0.550 138 148 139
52.3200 25.2673 81.0535 0.589 -0.545 -0.597 124 134 125
52.4435 25.2967 81.2379 0.770 -0.520 -0.369 117 127 118
53.7290 25.4737 82.7517 0.214 0.198 -0.956 133 149 139
53.8433 25.5582 83.1032 -0.413 -0.066 -0.908 128 145 135
54.0897 25.0785 81.7739 0.469 -0.463 -0.752 124 141 133
54.2262 25.0614 81.8214 0.478 -0.468 -0.744 124 144 135
54.3598 25.0578 81.9095 0.478 -0.468 -0.744 130 147 139
54.3863 25.5462 83.4691 0.475 -0.355 -0.805 146 163 155
54.5153 25.5763 83.6600 -0.129 -0.442 -0.887 146 163 155
54.6564 25.5497 83.6810 -0.123 -0.431 -0.894 147 164 158
54.8212 25.4064 83.3515 0.919 -0.387 -0.071 149 165 162
55.3149 25.6644 84.5321 0.193 0.804 -0.563 120 136 133
56.3553 26.0669 86.5747 0.862 -0.417 -0.287 110 131 124
59.4449 26.6156 90.6021 0.793 -0.479 -0.378 96 115 109
59.5928 26.5355 90.4595 0.844 -0.378 -0.381 120 139 135
59.7370 26.5827 90.7155 0.836 -0.472 -0.281 109 128 124
59.8810 26.6769 91.1196 0.607 -0.485 -0.629 111 130 124
60.0262 26.7622 91.4966 0.801 -0.551 -0.234 112 131 127
61.0548 26.6459 91.8944 0.352 -0.897 -0.266 110 134 131
63.5593 27.8854 97.6648 0.912 -0.388 -0.136 51 70 85
63.7407 28.1144 98.5218 0.910 -0.399 -0.113 71 87 98
63.9209 28.3115 99.2774 0.910 -0.399 -0.113 97 106 100
64.1076 28.5434 100.1471 0.931 -0.350 -0.109 101 105 98
66.8364 26.3427 95.2370 0.860 -0.385 -0.335 115 120 98
-16.5291 36.5278 64.7775 -0.257 -0.451 -0.855 74 91 82
-16.1971 36.4262 64.7053 -0.278 -0.376 -0.884 65 82 72
-14.8621 36.0134 64.4016 -0.218 0.142 -0.966 62 73 69
-14.5136 35.9019 64.3109 -0.082 0.228 -0.970 51 62 58
-13.9184 35.7298 64.2130 -0.003 0.288 -0.958 79 90 86
-8.9944 34.1666 62.9655 0.064 0.231 -0.971 43 45 42
-4.0050 32.6877 62.0312 0.575 -0.677 -0.459 72 81 64
-3.7808 32.6318 62.0222 0.305 0.259 -0.917 60 68 52
-3.1919 32.5085 62.0726 -0.124 0.128 -0.984 48 59 45
-2.9352 32.4343 62.0305 -0.124 0.128 -0.984 36 47 33
-2.7445 32.3959 62.0515 -0.056 0.200 -0.978 43 54 40
-2.4920 32.3236 62.0122 0.268 0.277 -0.923 38 49 35
-0.6632 31.7115 61.4501 0.189 -0.326 -0.926 59 74 55
-0.4921 31.6824 61.4857 0.227 -0.375 -0.899 51 65 47
-0.3345 31.6606 61.5345 0.227 -0.375 -0.899 28 42 29
-0.4402 31.7854 61.8473 0.314 -0.230 -0.921 34 47 38
0.8385 31.4020 61.5940 0.255 -0.173 -0.951 57 72 44
2.2395 30.8766 60.9863 0.407 -0.136 -0.903 28 36 25
6.8183 29.7652 60.8992 -0.104 -0.149 -0.983 39 39 37
10.9330 28.8591 61.1111 -0.023 -0.340 -0.940 106 109 88
11.6135 28.7170 61.1704 0.259 -0.317 -0.913 79 81 60
11.8000 28.6708 61.1640 0.336 -0.165 -0.927 85 84 66
11.9593 28.6417 61.1910 0.322 -0.156 -0.934 89 88 70
12.1062 28.6205 61.2333 0.076 0.011 -0.997 75 73 58
16.8434 27.6583 61.7313 0.387 -0.331 -0.861 90 83 73
22.3743 26.6712 62.7398 0.322 -0.319 -0.891 136 126 117
22.4737 26.6809 62.8439 0.252 -0.416 -0.874 150 140 131
22.6534 26.6296 62.8165 0.196 -0.127 -0.972 153 143 134
23.1936 26.5595 62.9976 0.432 -0.101 -0.896 116 106 96
24.1321 26.3531 63.0465 0.520 -0.300 -0.800 153 146 132
24.2720 26.3312 63.0816 0.432 -0.557 -0.709 148 142 128
24.5386 26.2975 63.1740 0.068 -0.081 -0.994 124 121 106
24.8887 26.4673 63.9657 -0.222 0.091 -0.971 143 136 120
26.2567 26.1813 64.0840 0.498 -0.276 -0.822 118 109 94
26.9189 26.1001 64.3206 0.190 -0.375 -0.907 132 120 108
31.1741 25.5439 65.7336 0.017 -0.229 -0.973 142 129 120
32.2057 25.3183 65.7917 0.128 -0.336 -0.933 150 137 128
32.3385 25.2996 65.8315 0.142 -0.333 -0.932 145 132 123
34.6557 25.2729 67.4667 0.173 -0.185 -0.967 126 125 105
35.0982 25.1700 67.4722 0.185 -0.158 -0.970 134 133 113
35.2394 25.1422 67.4897 0.264 -0.376 -0.888 139 141 120
35.5774 25.0252 67.3739 0.478 -0.166 -0.863 108 120 86
36.5630 25.0864 68.2966 0.309 -0.224 -0.924 64 63 45
38.7595 25.1237 70.0427 0.347 -0.679 -0.647 93 118 61
39.1087 25.2840 70.8043 -0.026 -0.145 -0.989 77 127 43
40.5157 25.0016 70.9626 0.614 -0.098 -0.783 108 108 82
41.0368 24.9411 71.1597 0.236 -0.084 -0.968 70 66 63
43.5460 24.9757 73.1291 0.541 -0.184 -0.821 101 97 86
43.6530 24.9997 73.2838 -0.054 0.135 -0.989 102 100 88
43.9316 24.9433 73.3136 0.249 -0.274 -0.929 142 133 124
44.1996 24.9036 73.3879 0.139 -0.344 -0.928 102 89 81
45.0259 24.9572 74.1687 0.144 -0.471 -0.870 126 109 101
45.8575 25.0175 74.9744 0.599 -0.426 -0.678 99 90 81
45.9943 24.9937 75.0014 0.530 -0.445 -0.722 93 88 78
49.0334 24.9258 77.0429 0.905 -0.354 -0.236 86 93 77
51.6784 25.4498 80.6469 0.473 0.170 -0.865 129 139 131
51.8128 25.4409 80.7188 0.473 0.170 -0.865 122 129 121
52.2274 25.3769 80.8256 0.475 0.179 -0.862 141 151 142
52.3543 25.3936 80.9719 0.589 -0.545 -0.597 126 136 127
52.4727 25.4404 81.2067 0.809 -0.410 -0.421 114 124 115
52.5920 25.4865 81.4397 0.699 -0.519 -0.493 123 133 124
52.8542 25.4985 81.6715 0.630 0.154 -0.762 125 135 126
53.8142 24.3198 78.6896 0.236 -0.761 -0.604 121 134 124
53.7527 25.6436 82.7928 0.216 0.074 -0.973 132 148 138
54.1304 25.1720 81.5951 0.507 -0.436 -0.744 123 140 132
54.2647 25.1638 81.6689 0.506 -0.479 -0.717 121 141 132
54.3888 25.2026 81.8824 0.487 -0.474 -0.733 125 145 136
54.4891 25.3537 82.4306 0.124 0.237 -0.963 142 159 151
54.5583 25.6602 83.4425 -0.127 -0.220 -0.967 142 159 151
54.7299 25.4839 83.0172 0.841 -0.515 -0.164 141 158 152
54.8839 26.0732 84.9782 0.248 0.824 -0.509 150 166 163
55.4844 25.7975 84.5596 0.243 0.732 -0.636 98 114 111
55.8811 25.8868 85.1339 0.953 -0.054 -0.300 119 140 135
56.2599 26.1239 86.1580 0.919 -0.316 -0.235 122 143 138
56.3861 26.2167 86.5422 0.767 -0.581 -0.272 118 139 134
59.3375 26.6043 89.9463 0.674 -0.374 -0.637 37 56 50
59.4817 26.6166 90.0918 0.674 -0.374 -0.637 70 89 83
59.7694 26.7159 90.6163 0.843 -0.466 -0.268 93 112 106
59.9141 26.7693 90.8912 0.835 -0.475 -0.277 104 123 116
60.0594 26.8379 91.2139 0.800 -0.557 -0.221 114 133 127
62.3039 27.3316 94.4259 0.906 -0.089 -0.414 177 204 211
63.0929 27.6819 96.1089 0.792 -0.589 -0.162 177 196 210
63.5945 28.0597 97.6654 0.904 -0.407 -0.133 47 67 82
66.9251 26.7457 96.0172 0.988 -0.052 -0.142 121 124 104
-17.4892 36.9979 64.9443 -0.271 -0.270 -0.924 89 105 104
-16.4999 36.6971 64.7390 -0.233 -0.455 -0.859 80 100 91
-16.2263 36.6246 64.7156 -0.226 -0.186 -0.956 69 89 78
-14.5251 36.0894 64.3071 0.030 0.268 -0.963 58 68 67
-14.2732 36.0266 64.2976 0.030 0.268 -0.963 65 75 74
-14.0157 35.9606 64.2826 -0.003 0.288 -0.958 70 80 79
-12.9499 35.5457 63.7788 -0.359 -0.265 -0.895 79 89 88
-9.1475 34.3567 62.8880 0.096 0.303 -0.948 60 65 59
-8.9653 34.3263 62.9281 0.140 0.273 -0.952 63 65 60
-6.2935 33.4997 62.3298 -0.067 -0.468 -0.881 48 54 47
-4.1597 32.8757 61.9647 -0.076 -0.360 -0.930 73 87 66
-3.9181 32.8102 61.9395 0.335 -0.467 -0.818 69 82 62
-3.7969 32.8100 62.0284 0.287 -0.367 -0.885 71 83 65
-3.6409 32.7908 62.0842 0.294 -0.366 -0.883 77 90 72
-3.2333 32.7003 62.1037 -0.047 0.140 -0.989 60 72 57
-3.0079 32.6430 62.0920 -0.081 0.205 -0.975 35 47 33
-2.7953 32.5925 62.0921 -0.055 0.209 -0.976 35 47 33
-0.6086 31.9133 61.5940 0.176 -0.756 -0.630 63 77 60
-0.3494 31.8350 61.5420 0.190 -0.722 -0.665 31 45 32
1.9044 31.0974 60.9116 0.032 -0.129 -0.991 47 55 44
2.1204 31.0411 60.8960 0.018 -0.399 -0.917 34 41 33
2.2773 31.0183 60.9410 0.410 -0.131 -0.903 26 34 23
5.3457 30.2514 60.8222 0.301 -0.533 -0.790 27 29 28
5.4681 30.2473 60.9001 0.336 -0.498 -0.799 33 35 34
5.6502 30.2081 60.9126 0.293 -0.516 -0.805 79 81 78
5.7954 30.1905 60.9655 0.560 -0.542 -0.627 75 77 74
5.9038 30.1947 61.0588 0.560 -0.542 -0.627 62 64 61
9.7706 29.2445 60.9595 0.497 -0.440 -0.748 84 85 71
10.0820 29.1928 61.0289 0.376 -0.473 -0.797 85 86 72
11.4547 28.9030 61.1418 0.285 -0.351 -0.892 81 83 62
11.5949 28.8862 61.1933 0.285 -0.351 -0.892 86 88 67
11.8013 28.8273 61.1625 0.343 -0.186 -0.921 104 103 85
14.8273 28.2605 61.6356 0.262 -0.482 -0.836 127 127 115
22.4240 26.7881 62.6698 0.192 -0.274 -0.942 129 119 110
23.1166 26.6872 62.8679 0.150 -0.307 -0.940 117 107 97
23.2178 26.6958 62.9694 0.421 -0.101 -0.902 114 104 94
24.2317 26.4292 62.8890 0.389 -0.070 -0.919 133 126 112
24.6736 26.4340 63.2313 0.255 -0.488 -0.835 106 103 88
26.5249 26.3022 64.1904 0.249 -0.471 -0.846 139 127 115
33.1639 25.5472 66.7506 0.303 -0.260 -0.917 149 139 129
35.6111 25.1497 67.3231 0.473 -0.132 -0.871 100 112 78
39.4326 25.3445 70.7580 0.230 -0.051 -0.972 70 111 35
39.5577 25.3371 70.8274 0.300 -0.129 -0.945 75 108 41
40.3808 25.1946 70.9926 0.674 -0.117 -0.730 108 109 78
40.5070 25.1855 71.0574 0.280 -0.025 -0.960 106 106 81
40.6563 25.1445 71.0403 0.164 -0.177 -0.970 102 101 83
41.5051 25.1299 71.6228 0.440 -0.335 -0.833 90 83 75
42.0973 25.1443 72.1059 0.182 -0.184 -0.966 68 69 56
43.4379 25.1341 73.0663 0.646 -0.014 -0.764 70 63 53
43.5695 25.1184 73.1147 0.506 -0.090 -0.858 57 53 42
43.7061 25.0945 73.1412 0.408 -0.196 -0.892 92 88 77
44.2300 25.0351 73.3437 0.139 -0.344 -0.928 114 99 92
45.0574 25.0874 74.1191 0.164 -0.479 -0.862 137 118 111
45.8972 25.1329 74.8822 0.557 -0.398 -0.729 100 90 81
46.0507 25.0773 74.8224 0.718 -0.610 -0.336 98 91 81
46.1557 25.3527 75.7581 0.202 0.498 -0.843 93 86 78
46.6954 25.2782 75.9255 0.362 0.567 -0.740 102 98 89
47.5039 25.1650 76.1710 0.133 0.091 -0.987 108 104 97
48.7832 25.1247 76.9921 -0.087 -0.332 -0.939 91 98 80
48.8573 25.2490 77.4342 0.712 0.034 -0.701 91 98 80
51.3414 25.5074 80.0775 0.813 0.254 -0.524 112 117 110
51.8364 25.6022 80.7392 0.314 0.289 -0.904 161 168 160
52.3524 25.6438 81.2505 0.813 -0.199 -0.547 139 149 140
52.4893 25.6284 81.3040 0.937 0.078 -0.339 127 137 128
52.5998 25.7071 81.6310 0.938 0.088 -0.335 125 135 126
52.8415 25.7979 82.0925 0.117 -0.546 -0.830 124 134 125
52.9842 25.7641 82.0929 0.110 -0.502 -0.858 121 132 122
53.1091 25.7978 82.2904 0.463 -0.872 -0.160 116 129 119
53.5140 25.7877 82.5584 0.908 -0.292 -0.300 120 134 121
53.9054 25.8388 83.0071 -0.445 -0.270 -0.854 128 144 134
54.1595 25.3158 81.5658 0.159 -0.479 -0.863 124 141 133
54.2902 25.3239 81.6878 -0.008 -0.523 -0.852 123 140 132
55.5079 25.9828 84.6415 0.412 0.442 -0.797 98 114 111
55.6416 26.0028 84.8028 0.482 0.415 -0.771 83 102 98
55.9032 26.0864 85.2568 0.907 -0.264 -0.327 104 125 120
56.2892 26.2830 86.1551 0.780 -0.578 -0.239 124 147 141
57.1486 26.1002 86.2215 -0.273 0.764 -0.585 99 118 112
59.3705 26.7205 89.7982 0.554 -0.250 -0.794 30 49 40
59.5151 26.7185 89.8988 0.630 -0.365 -0.685 45 65 55
59.8023 26.8252 90.4438 0.837 -0.470 -0.279 84 102 90
60.8198 26.6002 90.4957 0.801 0.069 -0.595 107 129 126
61.2665 26.9524 91.9237 0.858 -0.400 -0.322 111 136 132
62.1868 27.5048 94.3257 0.864 -0.124 -0.488 116 142 143
62.4953 27.5913 94.8234 0.915 -0.176 -0.362 178 205 207
63.6270 28.2073 97.5801 0.919 -0.370 -0.135 98 120 131
67.2424 27.4706 97.9599 0.988 -0.052 -0.142 124 127 108
-16.5082 36.8855 64.7317 -0.226 -0.186 -0.956 87 107 98
-16.1997 36.7950 64.6793 -0.227 -0.175 -0.958 84 104 93
-15.0222 36.4595 64.5095 -0.102 0.236 -0.966 75 87 85
-14.4686 36.2424 64.2458 -0.352 -0.239 -0.905 65 77 75
-14.1000 36.1194 64.1371 -0.311 -0.289 -0.905 67 79 77
-10.6190 34.9103 62.9623 -0.470 -0.375 -0.799 53 67 55
-10.0289 34.7328 62.8482 -0.395 -0.388 -0.833 54 68 53
-9.1457 34.5309 62.8750 0.195 0.049 -0.980 56 61 55
-9.0059 34.5228 62.9531 0.227 0.048 -0.973 59 61 56
-8.7761 34.4672 62.9505 -0.128 0.294 -0.947 54 56 51
-3.9163 32.9788 61.9286 0.421 -0.347 -0.838 78 95 74
-3.8168 32.9905 62.0382 0.318 -0.489 -0.812 71 86 67
-3.6436 32.9620 62.0778 0.319 -0.450 -0.834 68 85 66
-3.4729 32.9348 62.1196 0.200 -0.076 -0.977 65 82 62
-3.2775 32.8940 62.1374 -0.058 0.161 -0.985 67 80 64
-3.0158 32.8166 62.0909 -0.122 0.179 -0.976 39 51 37
-1.2328 32.2287 61.5865 -0.106 -0.765 -0.635 18 32 15
0.4191 31.9034 61.7987 0.251 -0.161 -0.955 64 77 58
2.1545 31.1849 60.8546 0.395 -0.143 -0.908 28 36 25
2.2941 31.1719 60.9174 0.395 -0.143 -0.908 19 27 16
4.7137 30.5120 60.6599 0.096 -0.304 -0.948 49 51 48
4.8705 30.4879 60.7008 0.141 -0.260 -0.955 57 59 58
5.3858 30.3887 60.7741 0.326 -0.512 -0.795 24 26 25
5.5216 30.3767 60.8373 0.326 -0.512 -0.795 35 35 33
5.6753 30.3542 60.8809 0.319 -0.522 -0.791 103 103 101
5.8137 30.3406 60.9412 0.307 -0.528 -0.792 108 108 106
5.9577 30.3238 60.9953 0.560 -0.542 -0.627 86 88 85
8.6874 29.5781 60.7010 0.025 -0.268 -0.963 61 60 56
9.7027 29.3742 60.8192 0.561 -0.398 -0.726 96 97 83
9.8120 29.3771 60.9089 0.497 -0.440 -0.748 110 111 97
10.0895 29.3464 61.0187 0.344 -0.135 -0.929 106 106 94
11.5125 29.0240 61.0705 0.299 -0.340 -0.892 113 114 96
11.6563 29.0048 61.1173 0.293 -0.349 -0.890 111 112 95
11.8098 28.9794 61.1520 0.328 -0.250 -0.911 122 120 105
11.9692 28.9502 61.1791 0.306 -0.170 -0.937 127 125 112
13.8329 28.6254 61.5490 0.455 0.032 -0.890 105 106 92
18.1835 27.8225 62.2744 0.425 -0.088 -0.901 137 136 118
20.7390 27.1970 62.2237 0.630 -0.148 -0.762 142 136 124
24.2338 26.5819 62.8988 0.418 -0.054 -0.907 135 127 114
25.1953 26.5310 63.4509 0.479 -0.251 -0.841 136 129 113
26.6866 26.4177 64.2008 0.213 -0.459 -0.863 122 110 98
26.8234 26.3977 64.2400 0.474 -0.237 -0.848 108 96 84
26.9519 26.3848 64.2947 0.460 -0.233 -0.857 127 115 103
27.0994 26.3556 64.3133 0.368 -0.272 -0.889 150 138 126
27.2390 26.3330 64.3465 0.276 -0.399 -0.874 155 141 132
28.1505 26.2308 64.7030 0.335 -0.494 -0.802 140 123 115
30.1006 26.0115 65.4632 0.428 -0.056 -0.902 144 135 120
33.1896 25.6813 66.7211 0.303 -0.260 -0.917 136 126 116
33.3572 25.6276 66.6783 0.263 -0.273 -0.925 136 126 116
38.2824 25.3190 69.3586 0.249 -0.690 -0.679 112 120 80
39.5957 25.4582 70.7594 0.256 -0.022 -0.966 81 115 48
40.4186 25.3152 70.9239 0.677 -0.131 -0.724 99 102 71
40.5280 25.3291 71.0479 0.125 -0.405 -0.906 104 107 81
41.5341 25.2627 71.5848 0.440 -0.335 -0.833 92 85 77
42.1183 25.2896 72.0993 0.192 -0.146 -0.970 74 80 65
46.1740 25.2695 75.0314 0.550 -0.296 -0.781 98 91 82
47.0280 25.3080 75.7810 0.249 -0.731 -0.635 109 105 96
47.0839 25.4515 76.2668 0.623 -0.275 -0.732 110 106 97
48.2505 25.1052 76.0555 -0.008 -0.156 -0.988 92 95 79
48.6084 25.4421 77.3631 -0.244 -0.138 -0.960 94 98 83
48.8347 25.2089 76.8079 -0.026 -0.486 -0.873 90 97 81
49.5925 25.5402 78.3934 0.904 0.002 -0.428 89 100 83
49.7002 25.5948 78.6418 0.893 -0.034 -0.449 104 115 98
53.8929 25.5908 81.7248 -0.233 0.370 -0.899 134 147 137
55.8053 26.1750 84.9458 0.905 -0.306 -0.296 83 104 99
55.9452 26.1607 85.0047 0.450 0.390 -0.803 95 116 111
56.0773 26.1977 85.2169 0.284 0.436 -0.854 107 127 125
56.3282 26.3739 85.9478 0.849 -0.479 -0.223 122 144 141
57.3121 26.3080 86.4699 -0.223 0.773 -0.594 113 133 130
58.9823 26.6146 88.6525 0.819 -0.568 -0.075 36 48 48
59.2573 26.8868 89.6987 -0.184 -0.148 -0.972 32 48 40
59.4032 26.8452 89.6774 -0.184 -0.148 -0.972 34 52 42
59.5483 26.8222 89.7133 0.353 -0.458 -0.816 39 60 45
59.6944 26.7482 89.5920 0.424 -0.447 -0.788 49 67 52
59.9791 27.0119 90.6191 0.830 -0.469 -0.303 69 90 74
62.3733 27.6988 94.5137 0.877 -0.157 -0.455 119 144 142
62.5276 27.7394 94.7535 0.913 -0.136 -0.384 146 171 169
-17.5084 37.3784 64.9308 -0.160 -0.045 -0.986 56 70 71
-16.4363 37.0332 64.6577 -0.234 -0.175 -0.956 94 114 105
-15.5768 36.7937 64.5534 -0.464 -0.604 -0.648 71 91 82
-12.4853 35.7304 63.5570 -0.071 0.093 -0.993 67 75 77
-12.2130 35.6550 63.5252 -0.077 0.091 -0.993 65 73 75
-9.1935 34.7315 62.9061 0.211 -0.090 -0.973 66 71 64
-9.0892 34.7423 63.0162 0.316 -0.447 -0.837 69 72 65
-8.7320 34.6190 62.8997 0.029 0.249 -0.968 73 74 68
-3.8799 33.1286 61.8849 0.421 -0.347 -0.838 87 105 83
-3.7840 33.1424 61.9980 0.408 -0.367 -0.836 61 78 59
-3.5930 33.1040 62.0205 0.319 -0.450 -0.834 63 80 61
-3.4333 33.0828 62.0728 0.215 -0.169 -0.962 63 80 59
-0.2067 32.0874 61.3847 0.280 0.009 -0.960 39 51 41
0.1796 32.0707 61.6176 0.571 -0.721 -0.392 42 52 44
4.0784 30.9781 61.1255 0.326 -0.028 -0.945 42 44 41
5.5074 30.5462 60.8485 -0.024 -0.474 -0.880 55 55 53
5.6936 30.5043 60.8566 -0.026 -0.469 -0.883 80 80 78
6.0650 30.4207 60.8728 -0.013 -0.462 -0.887 64 64 62
8.2591 29.8592 60.7600 0.081 -0.429 -0.900 40 40 38
8.5465 29.7531 60.6452 0.390 0.081 -0.917 61 60 58
10.0876 29.5061 61.0197 0.364 -0.132 -0.922 105 105 94
11.5074 29.1850 61.0767 0.279 -0.290 -0.915 76 77 63
11.6518 29.1654 61.1229 0.275 -0.349 -0.896 95 96 82
12.2723 29.0592 61.2529 0.022 -0.266 -0.964 124 122 110
12.7868 28.9468 61.2859 0.240 -0.299 -0.923 106 107 91
13.1002 28.8907 61.3438 0.337 -0.189 -0.922 96 97 81
13.2293 28.8806 61.4079 0.318 -0.179 -0.931 74 77 58
13.7073 28.7905 61.4825 0.214 0.045 -0.976 114 115 99
13.8216 28.7902 61.5657 -0.046 -0.619 -0.784 109 110 94
15.5839 28.3691 61.5675 0.322 -0.211 -0.923 110 103 93
20.9168 27.4712 62.7309 0.712 -0.345 -0.612 122 113 104
21.0241 27.4756 62.8234 0.575 -0.271 -0.772 135 126 117
21.9920 27.2562 62.8608 0.627 -0.284 -0.726 116 106 97
22.0998 27.2601 62.9523 0.627 -0.284 -0.726 126 113 105
24.2449 26.7277 62.8930 0.423 -0.045 -0.905 136 128 115
24.6791 26.6494 62.9717 0.311 -0.089 -0.946 115 109 95
