ply
format ascii 1.0
element vertex 899
property float x
property float y
property float z
property float nx
property float ny
property float nz
property uchar diffuse_red
property uchar diffuse_green
property uchar diffuse_blue
end_header
49.8982 37.4827 75.7718 0.296 -0.941 -0.164 44 50 36
50.0269 37.5105 75.8561 0.297 -0.941 -0.162 44 50 36
50.7866 37.7078 76.4216 -0.209 -0.673 -0.710 52 56 42
50.8526 37.8724 76.7717 -0.269 -0.600 -0.753 62 65 51
53.1869 38.0672 77.6704 0.902 -0.297 -0.314 101 101 80
-9.1637 37.0688 61.8545 -0.217 -0.194 -0.957 116 139 129
-8.3771 36.8756 61.6317 0.375 0.029 -0.926 109 132 113
-0.3889 35.6656 60.8971 0.693 -0.177 -0.699 41 51 43
0.1592 35.7549 61.1968 -0.230 -0.371 -0.899 19 24 18
27.2658 34.1501 63.7849 -0.153 -0.201 -0.968 39 53 27
27.4403 34.1294 63.7806 -0.156 -0.224 -0.962 47 61 35
27.6537 34.0759 63.7179 -0.322 -0.160 -0.933 91 104 78
27.8047 34.0743 63.7473 -0.075 -0.101 -0.992 102 115 87
30.6964 35.5098 67.2874 0.622 -0.777 -0.101 45 54 35
33.4549 34.7120 66.2617 0.970 -0.187 -0.153 54 69 37
42.9920 34.8878 68.6766 0.671 0.098 -0.734 75 85 50
43.2162 34.9617 68.8751 0.390 -0.320 -0.864 87 94 60
43.4246 35.0588 69.1172 0.455 -0.385 -0.803 51 67 28
43.8304 34.6818 68.4390 0.499 0.037 -0.866 41 62 21
44.0327 34.7852 68.6926 0.566 -0.158 -0.810 38 65 21
50.8695 37.9878 76.6737 -0.269 -0.600 -0.753 87 92 77
-9.1770 37.2406 61.8151 -0.196 -0.181 -0.964 117 140 130
-8.8613 37.1812 61.7633 -0.217 -0.194 -0.957 109 131 120
-8.3943 37.0483 61.5957 0.347 -0.071 -0.935 114 137 119
-8.2283 37.0604 61.6563 0.347 -0.071 -0.935 65 88 66
-0.7066 35.9883 61.1171 -0.114 -0.156 -0.981 50 61 53
6.8355 35.1316 61.0184 -0.240 -0.258 -0.936 50 60 52
7.0678 35.0964 60.9974 -0.242 -0.227 -0.943 47 57 49
11.7445 34.8114 61.4343 -0.068 0.083 -0.994 99 107 86
11.9644 34.7776 61.4136 -0.051 0.084 -0.995 98 107 86
12.2548 34.6999 61.3193 -0.149 0.160 -0.976 97 106 85
27.4170 34.2904 63.7765 -0.174 -0.188 -0.967 36 50 24
27.5975 34.2643 63.7630 -0.183 -0.178 -0.967 54 68 42
27.9763 34.1962 63.7073 -0.196 -0.164 -0.967 89 104 75
28.2508 35.2576 65.9141 -0.119 -0.483 -0.867 25 43 19
33.4264 34.7366 65.9815 0.978 -0.103 -0.182 46 61 30
37.7165 30.8567 59.0618 0.497 0.222 -0.839 49 64 33
34.9417 36.0682 69.0040 0.827 -0.200 -0.525 40 58 34
35.0578 36.1039 69.1013 0.833 -0.206 -0.514 52 72 47
43.0923 35.0814 68.7737 0.553 -0.268 -0.789 71 81 46
43.2180 35.0996 68.8379 0.396 -0.298 -0.869 84 91 57
43.4672 35.1395 68.9725 -0.015 -0.641 -0.767 58 73 34
43.1271 35.8184 70.2723 0.705 -0.048 -0.708 43 62 21
43.9584 34.8344 68.4618 0.321 -0.005 -0.947 39 63 17
44.0606 34.8847 68.5856 0.347 -0.004 -0.938 38 64 18
48.9749 32.7830 65.3985 0.646 0.023 -0.763 41 66 22
49.9552 37.6672 75.4924 0.472 -0.880 -0.059 42 48 38
50.0428 37.7790 75.7375 0.459 -0.885 0.074 43 49 37
56.8371 35.3857 72.3679 0.666 -0.560 -0.493 107 109 82
-8.8867 37.3586 61.7333 -0.210 -0.207 -0.955 109 130 120
-8.4546 37.2419 61.5923 0.335 -0.110 -0.936 119 142 126
-8.2680 37.2442 61.6374 0.343 -0.130 -0.930 86 109 89
-0.5474 36.0625 60.9370 0.295 0.464 -0.835 52 63 55
-0.5059 36.1353 61.0926 0.197 0.389 -0.900 52 63 55
-0.1428 36.1337 61.1685 -0.130 0.213 -0.968 32 37 31
16.0254 34.6154 61.6282 0.134 -0.644 -0.753 95 116 87
43.2352 35.2160 68.7605 0.371 -0.323 -0.871 78 88 53
43.1237 35.9664 70.2483 0.706 -0.048 -0.707 59 78 37
43.9538 34.9803 68.4421 0.295 0.070 -0.953 48 71 23
53.9796 33.9840 68.6167 -0.092 -0.227 -0.969 96 103 91
65.4650 47.4194 98.1868 0.870 -0.404 -0.283 94 100 87
-8.1311 36.3393 59.4724 0.504 -0.136 -0.853 53 69 59
-8.9439 37.5515 61.7272 -0.182 -0.186 -0.966 108 129 119
-8.4904 37.4240 61.5704 0.343 -0.101 -0.934 109 131 117
-8.2966 37.4227 61.6101 0.356 -0.123 -0.926 90 113 95
-8.1277 37.4334 61.6686 0.113 -0.063 -0.992 45 68 47
-0.6907 36.2953 61.0104 0.320 0.472 -0.822 51 62 54
31.0860 33.6707 62.6898 -0.097 0.414 -0.905 46 54 33
31.2750 33.6292 62.6479 -0.110 0.413 -0.904 49 58 37
43.1424 36.0830 70.1658 0.700 -0.046 -0.713 62 83 41
43.2547 36.1244 70.2735 0.700 -0.046 -0.713 51 73 25
43.9946 35.2591 68.6988 0.091 -0.090 -0.992 42 65 15
48.9408 33.1023 65.4521 0.764 0.047 -0.644 71 89 50
53.9898 34.0953 68.5483 -0.184 -0.338 -0.923 91 97 83
-8.9631 37.7262 61.6923 -0.183 -0.179 -0.967 109 130 121
-8.5170 37.6017 61.5414 0.343 -0.101 -0.934 101 123 111
-8.3192 37.5983 61.5781 0.356 -0.123 -0.926 94 116 100
-8.0746 37.5718 61.5788 -0.149 -0.078 -0.986 44 67 47
-0.3522 36.5602 61.2523 -0.089 0.270 -0.959 34 41 34
6.3776 35.4580 60.5269 -0.385 -0.130 -0.914 17 19 16
6.6384 35.4060 60.4804 -0.228 -0.068 -0.971 15 20 16
30.9529 33.9286 62.8652 -0.029 0.416 -0.909 60 70 46
31.1089 33.9174 62.8771 -0.202 0.390 -0.899 52 62 40
32.6170 33.5764 62.5267 0.228 0.054 -0.972 32 45 25
32.7338 33.5994 62.5983 0.290 -0.041 -0.956 25 37 17
33.7493 33.5703 62.7631 0.576 0.043 -0.817 24 37 17
37.6502 34.3111 65.0998 0.543 0.005 -0.839 79 99 71
38.2855 34.3800 65.3769 0.002 -0.127 -0.992 74 82 58
38.4677 34.3303 65.3177 0.554 0.189 -0.811 70 78 54
43.1441 36.2239 70.1285 0.693 -0.053 -0.719 62 83 41
43.2484 36.2770 70.2574 0.700 -0.046 -0.713 52 72 25
43.3563 36.3253 70.3776 0.700 -0.051 -0.713 43 65 16
43.6116 36.3652 70.5134 0.360 0.188 -0.914 46 70 22
56.9840 37.0032 74.7240 0.652 -0.296 -0.698 74 79 58
57.0957 37.0717 74.8853 0.708 -0.054 -0.705 69 75 57
-9.0897 37.9537 61.7386 -0.137 0.119 -0.983 93 114 105
-8.3392 37.7729 61.5441 0.370 -0.046 -0.928 103 125 110
-8.0700 37.7340 61.5262 -0.268 -0.045 -0.962 62 85 66
6.3697 35.6141 60.4899 -0.371 -0.123 -0.920 21 23 20
6.6560 35.5472 60.4199 -0.182 -0.030 -0.983 18 23 19
32.7187 33.7495 62.5873 0.290 -0.041 -0.956 24 39 18
33.3194 33.7142 62.6494 0.035 -0.096 -0.995 48 60 40
33.7426 33.7123 62.7389 0.546 0.111 -0.831 23 36 16
33.8623 33.7324 62.8052 0.532 0.123 -0.838 27 42 21
33.9762 33.7580 62.8814 0.532 0.123 -0.838 27 42 21
34.6199 34.0963 63.6965 -0.134 0.367 -0.920 31 46 21
37.7489 34.4941 65.1780 0.647 -0.006 -0.762 73 89 62
37.8556 34.5311 65.2751 0.770 0.048 -0.636 63 77 51
37.9402 34.5933 65.4177 0.826 -0.038 -0.563 57 70 44
38.1353 34.5299 65.3345 0.076 -0.225 -0.971 64 74 49
38.2844 34.5185 65.3446 0.063 -0.272 -0.960 73 83 58
38.4412 34.4980 65.3383 0.545 0.197 -0.815 75 83 59
38.6669 34.5583 65.5082 0.439 0.086 -0.894 41 49 25
38.7957 34.5700 65.5599 0.453 0.151 -0.879 43 51 28
43.5653 35.5614 68.5846 -0.139 -0.665 -0.734 71 88 48
43.1363 36.3784 70.1161 0.667 -0.172 -0.725 74 94 52
43.2515 36.4160 70.2162 0.623 -0.148 -0.768 64 84 36
43.3481 36.4809 70.3667 0.668 -0.049 -0.743 56 78 29
43.4732 36.5047 70.4417 0.666 -0.031 -0.745 50 72 23
43.5717 36.5678 70.5889 0.672 -0.021 -0.741 46 70 20
59.7388 37.7553 76.5164 0.303 0.014 -0.953 113 117 100
-8.7334 38.0381 61.6068 -0.154 -0.079 -0.985 84 104 93
-8.3827 37.9591 61.5279 0.347 -0.008 -0.938 104 125 110
-8.1591 37.9428 61.5450 -0.202 -0.075 -0.976 73 94 76
-0.2258 36.8082 61.0522 0.417 0.630 -0.655 30 39 34
-0.1717 36.8759 61.1982 0.400 0.638 -0.658 17 28 22
0.1541 36.7969 61.1138 -0.298 0.181 -0.937 14 25 19
6.3293 35.7890 60.4828 -0.371 -0.123 -0.920 20 22 19
25.0039 33.7029 60.4814 0.670 -0.195 -0.716 59 77 51
25.2261 33.7592 60.6422 0.470 -0.251 -0.846 46 69 43
32.3470 33.9696 62.6356 -0.084 -0.129 -0.988 44 62 40
32.6674 33.9343 62.6365 -0.145 -0.330 -0.933 31 46 25
32.8508 33.8941 62.5975 -0.059 -0.118 -0.991 34 49 28
33.1691 33.8592 62.5987 0.257 0.098 -0.961 57 70 50
33.3063 33.8625 62.6357 0.257 0.098 -0.961 57 70 50
33.9555 33.9142 62.8818 0.337 0.185 -0.923 29 44 25
34.5517 34.0182 63.2200 0.768 -0.009 -0.640 27 45 23
34.5884 34.1226 63.4350 0.854 -0.159 -0.496 27 45 23
34.6719 34.1803 63.5679 0.810 -0.081 -0.581 33 48 25
34.7629 34.2306 63.6878 0.810 -0.081 -0.581 35 49 24
35.4037 34.1483 63.6665 0.150 0.027 -0.988 50 61 36
35.6769 34.1548 63.7398 0.227 0.060 -0.972 28 42 17
37.8310 34.6964 65.2903 0.830 -0.036 -0.557 65 77 53
37.9159 34.7588 65.4327 0.831 -0.054 -0.554 58 71 45
38.0836 34.7266 65.4060 0.166 0.048 -0.985 60 73 47
38.2727 34.6693 65.3343 0.091 -0.252 -0.964 66 76 51
38.3851 34.7002 65.4203 0.473 0.138 -0.870 68 76 52
43.1365 36.5214 70.0824 0.667 -0.172 -0.725 69 86 46
43.2501 36.5616 70.1871 0.623 -0.148 -0.768 63 83 33
49.0534 33.3017 65.0098 -0.311 -0.257 -0.915 60 76 40
51.0832 38.1170 75.0042 0.006 -0.407 -0.913 87 98 91
59.7349 37.9272 76.5432 0.250 -0.013 -0.968 111 114 95
59.8401 38.0483 76.8064 0.530 -0.054 -0.846 110 113 94
67.5959 47.3068 96.8761 0.977 0.034 -0.211 100 119 113
-8.7731 38.2230 61.5875 -0.161 -0.072 -0.984 80 100 89
-8.4893 38.1770 61.5596 -0.137 -0.053 -0.989 105 125 111
-8.2205 38.1381 61.5426 -0.202 -0.075 -0.976 82 103 85
-0.0612 37.0713 61.2500 -0.274 0.284 -0.919 14 25 19
0.3070 36.9687 61.1294 -0.293 0.272 -0.917 16 27 21
6.3095 35.9522 60.4567 -0.371 -0.085 -0.925 19 21 18
7.4763 36.0656 60.9399 -0.181 -0.019 -0.983 39 49 41
25.0036 33.8408 60.4435 0.670 -0.195 -0.716 40 60 33
25.2273 33.8961 60.6023 0.470 -0.251 -0.846 23 46 20
25.3513 33.9143 60.6657 0.470 -0.251 -0.846 16 34 12
25.4754 33.9324 60.7292 0.470 -0.251 -0.846 24 38 18
25.5863 33.9610 60.8103 0.491 -0.162 -0.856 35 45 28
27.4348 35.1248 63.5188 0.595 -0.495 -0.633 47 65 41
27.5493 35.1547 63.6032 0.595 -0.495 -0.633 44 64 39
32.6740 34.0643 62.5895 -0.145 -0.330 -0.933 38 52 31
32.8440 34.0367 62.5729 -0.145 -0.330 -0.933 26 40 19
34.5457 34.1603 63.1951 0.774 -0.070 -0.630 26 44 22
34.6137 34.2334 63.3545 0.848 -0.147 -0.510 30 47 26
35.2469 34.3022 63.6311 0.109 0.010 -0.994 84 93 66
35.3914 34.2974 63.6538 0.135 -0.007 -0.991 77 87 62
35.6491 34.3201 63.7559 0.286 0.013 -0.958 42 55 31
36.9473 34.5743 64.5463 0.543 -0.018 -0.840 28 43 19
37.0776 34.5842 64.5949 0.518 -0.013 -0.855 25 47 19
38.0645 34.8863 65.4105 0.166 0.048 -0.985 40 53 27
38.2191 34.8687 65.4102 0.358 0.114 -0.927 43 53 28
43.1368 36.6645 70.0487 0.667 -0.172 -0.725 70 87 46
43.2516 36.7029 70.1501 0.578 -0.050 -0.815 63 85 33
43.3612 36.7492 70.2658 0.580 -0.042 -0.813 62 85 31
43.5402 36.6935 70.1956 0.620 -0.371 -0.691 57 80 25
43.6055 36.8057 70.4315 0.206 0.080 -0.975 46 71 15
49.0080 32.2495 62.6372 0.457 0.296 -0.839 39 61 22
46.6782 39.3207 76.0799 0.540 -0.350 -0.765 45 58 32
50.2181 39.5373 77.2943 -0.052 -0.925 -0.377 82 92 84
51.3700 38.2509 75.0107 -0.054 -0.285 -0.957 96 101 88
52.2459 44.1876 86.9260 0.901 0.395 -0.179 108 107 87
52.1574 44.8693 88.2522 0.963 0.258 -0.082 107 109 87
-0.9536 37.2253 60.9963 -0.078 -0.099 -0.992 44 53 50
11.3582 35.8895 61.1172 -0.043 0.203 -0.978 78 95 76
17.6426 35.3628 61.4842 0.028 -0.372 -0.928 107 111 96
25.0700 34.0420 60.5448 0.662 -0.295 -0.689 43 62 34
25.3377 34.0629 60.6456 0.475 -0.263 -0.840 30 48 22
25.4613 34.0815 60.7098 0.475 -0.263 -0.840 32 46 23
25.5113 34.1589 60.8731 0.468 -0.137 -0.873 35 45 26
27.1143 35.2853 63.4457 0.919 0.207 -0.336 43 56 35
27.1707 35.3652 63.6154 0.916 0.212 -0.342 42 57 34
26.7346 35.8701 64.5109 0.793 -0.589 0.156 40 59 35
33.6646 34.1959 62.7655 0.498 0.140 -0.856 22 40 18
34.1537 34.2677 63.0157 0.303 -0.103 -0.947 38 53 34
34.2605 34.3012 63.1056 -0.001 -0.114 -0.994 42 56 37
34.4285 34.2733 63.0880 0.721 -0.062 -0.690 34 49 30
34.5289 34.3133 63.1893 0.721 -0.062 -0.690 26 40 20
34.5900 34.3938 63.3611 0.850 -0.132 -0.510 31 44 23
34.9719 34.4334 63.5241 0.216 0.017 -0.976 47 61 36
35.3708 34.4552 63.6561 0.250 0.041 -0.967 66 74 50
35.6317 34.4748 63.7528 0.268 0.045 -0.962 44 57 32
36.9350 34.7248 64.5352 0.543 -0.018 -0.840 26 41 18
37.0649 34.7353 64.5849 0.518 -0.013 -0.855 24 43 16
37.1507 34.7949 64.7212 0.683 -0.018 -0.730 22 45 17
37.2752 34.8116 64.7819 0.634 -0.077 -0.769 28 51 22
38.1475 35.0896 65.5232 0.174 0.059 -0.983 42 54 28
38.4143 35.1039 65.6108 0.558 0.236 -0.795 44 54 29
43.3673 35.6730 67.8354 0.422 0.253 -0.871 60 74 38
43.9071 35.8857 68.3741 0.378 -0.776 -0.505 61 83 32
43.9953 35.9583 68.5365 0.423 -0.734 -0.531 58 81 29
43.5830 36.7735 70.0474 0.800 -0.278 -0.532 55 78 26
43.6385 36.9004 70.3092 0.316 -0.406 -0.857 48 71 18
48.3035 34.1959 66.0325 0.566 -0.016 -0.824 51 68 32
48.4217 34.2134 66.0932 0.578 -0.012 -0.816 50 70 33
62.4858 42.0204 84.5831 0.722 -0.073 -0.688 113 116 109
-1.2229 37.5292 61.1738 -0.252 -0.188 -0.949 36 45 42
-0.7247 37.4550 61.1401 -0.202 -0.276 -0.940 28 39 35
31.6829 34.4698 62.5557 -0.085 -0.168 -0.982 56 74 51
32.1429 34.4383 62.5972 0.149 -0.013 -0.989 77 95 76
32.4503 34.4157 62.6218 -0.050 0.075 -0.996 55 75 56
32.7811 34.3696 62.6056 -0.048 0.077 -0.996 42 60 41
33.6261 34.3700 62.7957 0.507 0.167 -0.846 26 41 20
34.5265 34.4519 63.1579 0.804 0.263 -0.533 22 34 12
34.7871 34.6159 63.5375 0.658 -0.056 -0.751 32 44 20
34.9530 34.5894 63.5227 0.216 0.017 -0.976 47 58 34
35.2064 34.6173 63.6341 0.188 -0.032 -0.982 47 54 30
35.3557 34.6075 63.6484 0.190 -0.041 -0.981 47 55 31
35.4893 34.6141 63.6912 0.263 -0.025 -0.964 45 56 32
37.0594 34.8784 64.5608 0.540 -0.030 -0.841 23 42 17
37.1400 34.9441 64.7075 0.683 -0.018 -0.730 25 48 22
37.9714 35.1084 65.2154 0.263 -0.161 -0.951 39 54 27
38.5102 35.2933 65.6983 0.550 0.231 -0.803 41 54 28
43.5850 35.8941 68.0122 0.720 0.029 -0.693 52 66 30
43.9318 35.9893 68.2763 0.385 -0.849 -0.363 51 72 22
43.5952 36.8987 69.9819 0.814 -0.252 -0.524 48 71 17
43.6451 37.0344 70.2587 0.349 -0.440 -0.827 47 70 16
7.5956 36.6533 61.0920 -0.259 -0.166 -0.951 57 68 60
17.6524 35.6464 61.3903 -0.205 -0.452 -0.868 109 113 98
18.7051 35.5683 61.4748 -0.031 -0.294 -0.955 100 107 91
18.8427 35.5818 61.5322 0.370 -0.391 -0.843 103 110 94
32.1586 34.5602 62.5352 0.419 0.036 -0.907 83 98 80
32.2852 34.5747 62.5920 0.391 0.069 -0.918 86 99 82
34.1228 34.5711 62.9983 0.407 0.204 -0.890 54 64 41
34.7639 34.7766 63.5435 0.657 -0.071 -0.751 35 47 23
34.9384 34.7412 63.5137 0.289 -0.114 -0.950 40 52 28
35.0477 34.7733 63.6009 0.354 -0.151 -0.923 57 68 43
35.1823 34.7792 63.6426 0.148 -0.223 -0.964 65 75 50
35.3268 34.7744 63.6658 0.148 -0.223 -0.964 63 75 51
35.4727 34.7682 63.6864 0.322 -0.163 -0.933 62 75 50
35.5979 34.7835 63.7446 0.307 -0.181 -0.935 35 49 24
43.4479 36.0332 67.9482 0.306 0.283 -0.909 61 75 40
43.5744 36.0491 68.0077 0.720 0.029 -0.693 53 67 31
53.2422 40.7536 79.3592 -0.238 0.163 -0.958 99 99 85
59.0142 44.4524 87.8724 -0.071 0.325 -0.943 107 111 96
7.1574 36.8651 61.0643 0.079 -0.284 -0.955 48 58 50
7.4524 36.7896 60.9842 -0.317 -0.336 -0.887 52 63 55
7.6650 36.7635 60.9816 -0.316 -0.322 -0.892 59 70 62
7.8644 36.7452 60.9911 -0.449 -0.382 -0.808 63 75 67
8.1106 36.6982 60.9553 -0.532 -0.382 -0.756 64 78 68
17.0754 35.8641 61.3595 -0.224 -0.444 -0.868 108 118 99
17.3465 35.8960 61.4827 0.142 -0.293 -0.946 119 126 110
18.4878 35.7565 61.4695 -0.271 -0.267 -0.925 106 110 95
18.9201 35.7836 61.6198 0.398 -0.344 -0.850 106 113 97
20.1005 35.6037 61.5368 0.325 0.461 -0.826 104 107 90
25.4134 35.3797 62.3018 0.975 0.220 0.033 31 41 24
25.3577 35.5496 62.6191 0.975 0.221 0.031 32 43 26
29.4858 35.4435 63.3455 0.649 0.593 -0.476 59 79 52
29.5025 35.5623 63.5800 0.677 0.570 -0.467 57 80 52
32.1566 34.6989 62.5020 0.515 -0.153 -0.844 67 73 58
34.4889 34.7630 63.1533 0.619 0.234 -0.750 30 40 16
34.5828 34.8105 63.2668 0.627 0.248 -0.738 14 26 4
34.6800 34.8550 63.3753 0.594 0.160 -0.788 20 33 9
34.7818 34.8949 63.4758 0.567 0.092 -0.818 25 38 15
34.9298 34.8868 63.4935 0.289 -0.114 -0.950 28 42 18
35.0736 34.8830 63.5186 0.554 0.006 -0.832 56 70 46
35.1913 34.9064 63.5907 0.421 -0.030 -0.906 69 82 57
35.3222 34.9160 63.6389 0.422 -0.043 -0.905 81 95 70
35.4678 34.9100 63.6600 0.322 -0.163 -0.933 80 94 69
35.5903 34.9283 63.7233 0.276 0.013 -0.961 48 64 38
43.5346 36.2467 68.0790 0.658 0.092 -0.747 52 68 31
43.6450 36.2865 68.1812 0.658 0.092 -0.747 51 67 30
42.8059 37.7268 70.7899 0.688 -0.223 -0.691 56 72 32
44.0162 36.1439 67.9881 0.393 -0.848 -0.355 50 72 21
44.1337 36.1728 68.0706 0.364 -0.855 -0.369 49 72 20
43.6170 37.1528 69.8579 0.823 -0.269 -0.501 48 71 19
6.3753 36.9759 60.7614 -0.510 -0.462 -0.726 19 28 23
6.6806 36.8952 60.6744 -0.049 -0.238 -0.970 27 34 27
8.2642 36.7559 60.7640 -0.449 -0.382 -0.808 66 80 69
16.8013 36.0909 61.4128 -0.085 -0.102 -0.991 75 81 65
17.4347 35.9794 61.3406 -0.105 -0.077 -0.991 98 107 90
25.2657 35.5194 62.2261 0.825 0.547 -0.145 30 42 25
25.2083 35.6908 62.5448 0.825 0.547 -0.145 30 41 24
25.2613 35.7716 62.7131 0.971 0.237 0.025 32 44 27
32.1467 34.8452 62.4818 0.688 -0.271 -0.674 41 49 33
34.4539 34.9354 63.1795 0.613 0.272 -0.742 48 62 39
34.5524 34.9786 63.2853 0.626 0.252 -0.738 26 41 18
34.6504 35.0224 63.3924 0.654 0.107 -0.749 26 41 20
34.7547 35.0600 63.4887 0.565 0.074 -0.821 25 40 19
34.9299 35.0235 63.4578 0.315 -0.173 -0.933 29 44 22
35.0759 35.0173 63.4789 0.658 -0.128 -0.742 49 65 42
35.1851 35.0497 63.5663 0.432 -0.052 -0.900 57 72 49
35.3204 35.0546 63.6066 0.405 -0.031 -0.914 74 89 66
35.4608 35.0541 63.6373 0.333 -0.161 -0.929 75 91 65
35.5801 35.0759 63.7067 0.228 0.006 -0.974 52 68 42
37.0740 35.2734 64.4276 0.396 -0.304 -0.867 25 44 22
37.1752 35.3163 64.5335 0.523 -0.693 -0.496 24 46 23
43.7422 36.4864 68.2867 0.390 0.096 -0.916 52 71 30
-7.0245 38.6115 60.5245 0.114 -0.109 -0.987 76 101 80
-6.8171 38.6010 60.5514 0.111 -0.118 -0.987 65 90 69
3.0688 36.2788 58.3260 0.087 -0.084 -0.993 31 47 34
6.6864 37.0442 60.6246 -0.058 -0.240 -0.969 25 35 27
8.2797 36.7946 60.5063 -0.455 0.131 -0.881 60 72 63
13.6002 36.3440 60.8488 0.229 0.477 -0.848 69 87 67
17.3904 36.2688 61.5664 -0.069 0.364 -0.929 97 104 88
18.5955 36.0817 61.4802 0.763 0.521 -0.382 93 100 82
18.9408 36.1726 61.7340 -0.229 0.205 -0.951 102 106 89
25.0617 35.3376 61.5178 0.790 0.320 -0.523 40 58 36
25.2225 35.4499 61.7709 0.812 0.542 -0.218 43 60 38
25.2075 35.5852 62.0283 0.821 0.552 -0.147 48 65 43
25.1598 35.7485 62.3321 0.820 0.553 -0.149 50 65 46
25.0876 35.9331 62.6714 0.823 0.549 -0.147 38 53 34
28.7848 35.4317 62.5466 0.801 0.349 -0.487 95 118 93
34.3076 35.0782 63.1225 0.620 0.274 -0.735 64 79 59
34.4221 35.1049 63.1998 0.616 0.270 -0.740 48 63 42
34.5161 35.1530 63.3140 0.626 0.252 -0.738 31 49 27
34.6302 35.1804 63.3927 0.650 0.102 -0.753 30 48 26
34.7345 35.2180 63.4891 0.565 0.074 -0.821 22 40 18
34.9255 35.1649 63.4301 0.315 -0.173 -0.933 19 37 15
35.0468 35.1847 63.4958 0.652 -0.102 -0.752 46 64 40
35.1712 35.2012 63.5561 0.389 -0.083 -0.918 56 74 50
35.3026 35.2104 63.6037 0.219 -0.025 -0.975 57 75 51
35.4407 35.2123 63.6388 0.232 -0.010 -0.973 59 77 53
43.7221 36.6565 68.3072 0.382 0.100 -0.919 46 67 23
-7.0429 38.7837 60.4899 0.113 -0.114 -0.987 94 119 98
3.2333 36.4333 58.3256 0.099 -0.060 -0.993 28 42 29
6.5969 37.2506 60.6633 0.050 0.190 -0.981 29 40 32
6.8347 37.3127 60.8367 -0.048 0.122 -0.991 37 48 40
6.9613 37.3391 60.9164 -0.184 0.148 -0.972 38 49 41
7.5194 37.1022 60.5891 -0.444 -0.020 -0.896 40 51 43
8.0972 37.0580 60.6362 -0.427 0.195 -0.883 59 70 62
8.3057 37.0331 60.6361 -0.432 0.230 -0.872 69 82 72
13.4453 36.3797 60.5561 0.639 0.626 -0.447 67 85 69
16.4716 36.5036 61.4853 -0.017 0.156 -0.988 94 96 83
33.7207 32.1989 57.1627 0.379 -0.826 -0.417 60 82 56
32.1998 35.0675 62.3220 0.850 -0.355 -0.389 78 99 74
34.4969 35.3099 63.3123 0.444 0.018 -0.896 27 45 23
34.9557 35.2698 63.3402 0.383 -0.313 -0.869 17 35 11
35.0431 35.3255 63.4671 0.646 -0.100 -0.756 33 51 27
35.1702 35.3392 63.5225 0.497 -0.101 -0.862 38 56 32
35.3077 35.3418 63.5588 0.308 -0.179 -0.934 37 55 31
35.4442 35.3454 63.5969 0.308 -0.177 -0.935 39 57 33
35.5455 35.3869 63.6997 0.230 0.016 -0.973 42 60 38
35.6491 35.4261 63.7986 0.358 0.123 -0.926 34 49 28
43.5529 36.8435 68.3255 0.194 0.143 -0.971 38 61 17
58.7552 45.6754 88.7539 0.869 0.149 -0.471 100 104 88
-7.0254 38.9375 60.4280 0.086 0.126 -0.988 96 123 102
-6.8665 38.9519 60.4920 0.001 0.133 -0.991 76 102 81
5.0696 37.6015 60.6474 -0.023 -0.215 -0.976 17 19 16
6.4950 37.4651 60.7134 0.044 0.177 -0.983 34 47 38
6.7014 37.4431 60.7187 0.044 0.177 -0.983 38 49 41
7.8634 37.3540 60.8148 -0.427 0.195 -0.883 50 63 54
8.0364 37.3514 60.8494 -0.415 0.238 -0.878 63 75 65
8.5541 37.1344 60.5532 -0.336 0.185 -0.923 70 86 73
13.2940 36.7357 60.8781 0.640 0.624 -0.449 69 83 66
13.2953 36.8435 61.0844 0.434 0.663 -0.610 71 84 66
31.9811 35.1419 62.1163 0.638 -0.486 -0.597 70 99 69
32.5499 35.5579 63.0421 0.642 0.182 -0.745 42 58 32
34.9313 35.4324 63.3485 0.546 0.004 -0.838 28 46 20
35.0767 35.4267 63.3708 0.729 -0.067 -0.681 36 54 30
35.1845 35.4609 63.4609 0.719 -0.094 -0.689 43 61 37
35.2644 35.5252 63.6023 0.501 0.083 -0.861 46 64 42
36.6267 34.9482 62.8115 0.793 0.339 -0.507 27 42 17
37.1883 35.7133 64.4032 0.424 -0.752 -0.506 22 45 16
37.3148 35.7278 64.4598 0.404 -0.783 -0.473 22 47 17
56.9645 37.4021 72.1682 0.886 0.085 -0.456 114 119 99
57.2438 37.7650 72.9260 -0.317 -0.446 -0.837 107 110 87
59.8985 40.4414 78.6525 0.919 -0.295 -0.261 113 117 100
60.0115 40.5544 78.8947 0.813 -0.482 -0.327 113 117 102
5.0055 37.7937 60.6604 -0.086 -0.187 -0.979 17 19 16
8.3958 37.3842 60.6610 -0.336 0.185 -0.923 63 78 63
13.1688 36.7511 60.5537 0.905 0.275 -0.324 74 87 72
13.2154 36.8280 60.7110 0.776 0.495 -0.391 73 86 71
13.3297 37.0782 61.2139 0.626 0.609 -0.487 76 91 72
14.3515 37.2683 61.8111 0.349 0.534 -0.770 81 93 75
29.4898 34.5727 60.1620 0.679 -0.322 -0.660 74 93 69
35.1363 35.6495 63.5129 0.478 0.090 -0.874 42 61 39
35.3710 35.6984 63.6600 0.535 0.201 -0.820 47 65 41
35.4851 35.7266 63.7399 0.552 0.181 -0.814 42 57 34
35.5394 35.8200 63.9304 0.617 0.223 -0.754 39 54 33
34.8978 36.6769 65.4146 0.812 -0.566 -0.142 33 48 27
37.6255 35.8267 64.4233 -0.063 -0.565 -0.822 34 57 28
38.6774 35.3975 63.8480 0.186 -0.661 -0.727 33 52 24
57.0222 37.7829 72.6144 0.890 0.132 -0.436 113 114 96
57.3617 37.9525 73.0155 0.897 -0.232 -0.377 103 104 78
59.7859 40.4898 78.4062 0.922 -0.276 -0.270 115 119 102
59.9062 40.5661 78.5793 0.917 -0.300 -0.263 120 125 105
60.0210 40.6709 78.8052 0.824 -0.470 -0.316 120 124 107
62.6931 47.7268 92.8593 0.611 0.532 -0.586 84 91 75
8.6896 37.4565 60.5344 -0.023 0.200 -0.980 58 75 57
13.1318 36.9235 60.5496 0.905 0.274 -0.326 87 97 83
13.1671 37.0084 60.7187 0.905 0.274 -0.326 86 97 83
14.9917 37.1971 61.4984 -0.298 -0.042 -0.954 82 100 78
32.1049 35.4323 62.1045 0.740 -0.392 -0.547 63 92 62
27.9133 44.1224 77.6224 0.826 0.556 -0.090 41 56 33
27.8994 44.3262 78.0058 0.833 0.547 -0.082 40 55 32
37.1816 35.9958 64.3465 0.334 0.000 -0.942 21 45 13
37.8200 35.8982 64.3088 0.247 -0.486 -0.838 36 56 28
50.5974 40.5520 76.0902 0.007 -0.848 -0.530 67 80 63
60.0336 40.7719 78.6877 0.824 -0.470 -0.316 130 134 117
65.8690 47.0512 91.9488 -0.159 -0.415 -0.896 109 121 111
-6.9505 39.5826 60.5953 0.206 -0.487 -0.849 93 120 105
-6.7930 39.5980 60.6610 0.244 -0.494 -0.834 36 61 47
8.5970 37.6661 60.5793 -0.023 0.200 -0.980 59 75 57
12.9797 37.0648 60.4594 0.789 0.493 -0.365 89 93 81
12.9558 37.1896 60.6896 0.797 0.475 -0.373 89 96 83
13.0151 37.2589 60.8344 0.776 0.488 -0.400 88 95 82
14.9767 37.3558 61.4724 -0.290 -0.197 -0.936 60 78 56
32.0655 35.6077 62.1321 0.602 -0.161 -0.782 49 83 51
32.4827 35.6144 62.2414 0.579 -0.272 -0.769 47 81 49
52.1997 35.0668 65.7792 0.861 -0.121 -0.495 55 74 52
58.3055 39.6272 75.8130 0.840 -0.436 -0.324 102 104 82
60.0383 40.9113 78.6413 0.764 0.102 -0.637 128 132 117
60.1600 40.9851 78.8090 0.758 0.111 -0.643 123 127 110
60.2981 40.9783 78.8281 0.669 -0.350 -0.655 110 114 97
60.4142 41.0828 79.0526 0.664 -0.455 -0.593 108 113 93
62.3035 47.4930 91.6042 0.292 0.358 -0.887 103 111 94
-6.9143 39.7269 60.5190 0.203 -0.514 -0.833 96 126 112
11.4801 30.4606 47.3581 0.382 0.513 -0.769 42 62 51
2.7013 38.4942 60.4368 0.708 -0.608 -0.359 21 26 20
3.6424 38.6597 60.9673 0.886 0.407 -0.220 25 27 24
3.6912 38.7348 61.1200 0.942 0.072 -0.327 24 26 23
5.0772 38.4212 60.8523 -0.383 -0.412 -0.827 35 37 36
7.9544 38.0113 60.7503 -0.357 0.005 -0.934 58 70 59
13.6134 37.4416 60.9952 -0.318 -0.233 -0.919 80 95 76
13.8190 37.4116 60.9866 -0.347 -0.307 -0.886 83 95 78
31.9049 35.7633 62.0934 0.772 -0.132 -0.622 46 79 48
31.9788 35.8300 62.2361 0.621 -0.233 -0.748 51 85 53
35.9157 37.0806 65.5065 0.009 -0.407 -0.913 26 44 18
36.0563 37.0828 65.5434 0.005 -0.448 -0.894 24 42 16
50.6335 40.7757 75.8875 0.625 0.131 -0.770 66 84 61
58.0883 39.5866 75.3843 0.872 -0.389 -0.296 115 115 89
58.1998 39.6716 75.5701 0.871 -0.388 -0.302 112 112 87
58.3176 39.7335 75.7141 0.817 -0.482 -0.316 101 101 77
59.7788 41.0067 78.4508 0.723 0.352 -0.594 120 124 109
60.4331 41.1497 78.8723 0.662 -0.468 -0.585 109 114 92
61.8549 47.5507 91.2520 0.891 -0.106 -0.442 119 123 108
62.1290 47.8343 91.8496 0.902 -0.011 -0.431 118 123 107
-4.0370 39.3350 60.1014 0.880 -0.236 -0.413 55 72 62
3.9285 38.8530 61.0582 -0.454 -0.692 -0.561 20 25 21
4.7485 38.5663 60.7122 -0.229 -0.707 -0.669 22 25 22
5.0027 38.5164 60.6781 -0.229 -0.707 -0.669 30 33 30
9.3292 38.0350 60.7860 0.401 -0.117 -0.909 69 70 57
28.0138 35.5400 60.4724 0.685 0.212 -0.697 81 99 77
32.0295 35.9171 62.1174 0.607 -0.118 -0.786 53 83 52
34.3254 36.0169 62.8407 0.196 -0.246 -0.949 44 62 36
35.9392 37.1945 65.4256 0.014 -0.406 -0.914 27 45 21
36.0866 37.1887 65.4492 0.040 -0.457 -0.889 24 42 18
59.5483 40.9695 78.0185 0.606 0.338 -0.720 115 119 104
59.6518 41.1225 78.3296 0.739 0.348 -0.577 115 119 104
61.8614 47.7028 91.1837 0.882 -0.110 -0.459 123 127 112
62.0042 47.7995 91.3983 0.859 -0.089 -0.504 121 125 110
62.2821 48.0646 91.9604 0.562 0.190 -0.805 104 112 95
64.1208 48.4367 93.0874 0.871 0.182 -0.456 91 98 82
-3.9329 39.4387 59.9719 0.863 -0.136 -0.487 49 66 56
3.2396 38.9001 60.6474 0.625 0.597 -0.503 21 31 26
4.1254 38.8898 60.8357 -0.458 -0.688 -0.564 23 32 27
4.9295 38.6108 60.5032 0.084 -0.480 -0.873 22 30 26
5.1015 38.6106 60.5432 0.185 -0.370 -0.910 30 37 32
33.1721 36.0398 62.3217 0.568 0.178 -0.804 69 99 69
35.9501 37.3226 65.3688 0.014 -0.406 -0.914 30 48 26
36.1431 37.2640 65.3046 0.028 -0.423 -0.906 29 47 25
48.6206 37.5121 68.6929 0.933 -0.243 -0.264 35 60 35
50.8823 40.5071 74.8170 0.678 0.458 -0.575 59 77 53
50.7418 41.4981 76.6348 0.048 0.443 -0.895 61 81 53
50.8842 41.5017 76.6749 -0.127 0.342 -0.931 61 81 54
51.0142 41.5349 76.7674 0.783 0.361 -0.507 64 82 56
58.4786 39.9316 75.5228 0.786 -0.466 -0.407 92 90 68
58.5928 40.0094 75.6947 0.762 -0.536 -0.364 89 89 68
58.7491 39.9151 75.5553 0.918 -0.254 -0.304 96 99 77
58.8599 40.0082 75.7552 0.915 -0.261 -0.308 103 106 84
60.0539 41.3216 78.4881 0.940 -0.254 -0.227 126 130 113
60.1626 41.4612 78.7744 0.947 -0.235 -0.218 123 127 108
60.2681 41.6209 79.0973 0.957 -0.215 -0.193 116 121 99
-9.3810 41.1281 61.4877 -0.349 -0.088 -0.933 28 53 47
-4.0439 39.6598 60.0114 0.852 -0.213 -0.478 43 63 52
4.9306 38.7646 60.4570 0.224 0.086 -0.971 28 40 33
5.1149 38.7568 60.4859 0.210 0.096 -0.973 29 40 32
5.2983 38.7495 60.5154 0.253 0.353 -0.901 30 40 32
16.8889 38.0722 61.9820 0.514 0.187 -0.837 93 100 84
17.1371 38.0064 61.9179 -0.157 0.292 -0.944 96 98 84
33.1428 36.2068 62.3348 0.561 0.178 -0.808 75 101 72
34.2543 36.3663 62.8932 0.302 -0.232 -0.925 56 75 47
34.5695 36.3288 62.8976 0.005 0.085 -0.996 44 63 35
35.4578 37.3747 65.0524 0.353 -0.389 -0.851 39 58 28
35.9686 37.4418 65.2973 0.027 -0.417 -0.908 39 54 31
50.7270 41.6876 76.6684 -0.171 0.371 -0.913 61 80 52
58.4853 40.0583 75.4621 0.795 -0.452 -0.405 89 88 69
58.6011 40.1296 75.6220 0.860 -0.442 -0.254 87 87 70
58.7178 40.1986 75.7778 0.956 -0.198 -0.217 93 96 78
62.3954 48.8235 92.6892 0.519 0.397 -0.757 112 119 103
-6.6526 40.3396 60.3103 0.232 -0.366 -0.901 93 120 109
-4.0714 39.8354 59.9852 0.777 -0.064 -0.626 40 60 49
4.7416 38.9296 60.3868 0.226 -0.055 -0.973 22 39 31
4.8477 38.9699 60.4865 0.234 0.087 -0.968 25 40 33
5.0484 38.9521 60.5009 0.224 0.086 -0.971 28 41 32
5.1868 38.9725 60.5714 0.253 0.353 -0.901 31 41 33
34.2395 36.5194 62.8832 0.445 -0.109 -0.889 65 84 56
34.3688 36.5312 62.9356 0.195 -0.021 -0.981 50 69 41
35.4592 37.5136 65.0137 0.283 -0.348 -0.894 35 54 22
48.8026 38.4777 69.9502 0.548 0.554 -0.627 43 51 28
50.7078 40.8871 74.8652 0.675 0.449 -0.586 49 66 46
58.3807 40.0973 75.2128 0.703 -0.549 -0.452 95 94 78
58.4975 40.1628 75.3617 0.788 -0.464 -0.406 95 95 80
58.6022 40.2793 75.6024 0.919 -0.088 -0.384 94 95 81
58.7096 40.3872 75.8277 0.953 -0.098 -0.288 97 99 85
62.8633 49.0816 92.9214 0.842 -0.054 -0.537 109 118 101
63.0319 48.9840 92.7803 0.861 0.185 -0.473 110 119 102
1.8261 40.2234 61.7541 -0.051 0.607 -0.793 32 47 40
5.1454 39.1528 60.5638 0.526 0.194 -0.828 35 48 38
5.1226 39.2735 60.7813 0.169 0.363 -0.916 35 47 37
14.0641 38.2079 60.9319 0.031 0.281 -0.959 76 80 65
14.2467 38.1928 60.9473 0.019 0.319 -0.948 72 76 61
34.2315 36.6653 62.8613 0.445 -0.109 -0.889 69 88 60
34.3521 36.6865 62.9290 0.195 -0.021 -0.981 43 62 34
34.5181 36.6586 62.9167 0.041 0.063 -0.997 34 53 25
50.0659 39.0826 71.0746 -0.286 -0.727 -0.625 37 58 39
58.3949 40.1936 75.0985 0.705 -0.540 -0.460 102 106 89
58.5120 40.2574 75.2442 0.785 -0.469 -0.404 102 105 88
28.5865 37.5699 62.8946 0.852 0.135 -0.505 113 120 104
28.8147 37.6324 63.0637 0.330 0.040 -0.943 82 89 73
34.1516 36.7379 62.6871 0.421 -0.158 -0.893 75 91 62
34.2781 36.7525 62.7441 0.421 -0.158 -0.893 57 73 44
34.3841 36.7893 62.8370 0.364 0.076 -0.928 42 61 31
35.5654 37.6727 64.7423 0.073 -0.662 -0.746 55 74 42
36.0503 37.9346 65.3393 0.377 0.020 -0.926 32 53 25
53.4359 37.8527 69.3209 -0.373 -0.252 -0.893 102 107 87
53.1849 38.8207 71.0413 0.221 0.396 -0.891 106 109 90
53.2417 39.0141 71.4106 0.139 0.284 -0.949 105 108 90
58.7291 40.6156 75.6601 0.943 -0.137 -0.305 110 114 99
-6.4347 40.8115 60.1835 0.106 -0.075 -0.991 108 128 118
3.9396 37.8312 57.1977 -0.273 -0.060 -0.960 44 55 47
2.1260 40.3594 61.3968 0.987 -0.069 -0.142 40 55 48
28.7537 37.8324 63.1177 0.534 0.105 -0.839 85 92 76
34.1721 36.8529 62.6155 0.606 -0.349 -0.715 67 82 51
34.2838 36.8835 62.6982 0.623 -0.276 -0.732 51 68 36
34.3737 36.9380 62.8193 0.541 -0.003 -0.841 42 59 27
36.5103 38.0354 65.3395 0.939 0.317 -0.132 53 68 45
36.4682 38.2559 65.7333 0.931 0.337 -0.138 54 69 46
49.7932 39.3736 70.9587 0.110 0.182 -0.977 35 54 32
53.3305 37.9335 69.1640 -0.099 -0.175 -0.980 103 108 86
-8.9142 41.9184 61.2639 -0.222 -0.040 -0.974 74 95 90
-5.8063 40.9338 60.2107 -0.031 -0.064 -0.997 29 47 35
0.6689 41.6323 63.0347 0.902 -0.431 -0.009 49 64 57
34.2943 37.0093 62.6439 0.674 -0.326 -0.663 58 75 43
34.3590 37.0913 62.8090 0.534 -0.007 -0.845 49 66 34
36.4177 38.1175 65.1744 0.931 0.336 -0.145 36 49 29
36.4092 38.2973 65.5006 0.931 0.339 -0.138 35 48 28
36.9930 38.4516 65.9219 -0.252 -0.893 -0.373 43 55 35
49.6648 39.5021 70.8712 -0.032 0.172 -0.985 42 58 35
52.4748 40.2325 72.8765 -0.442 -0.089 -0.893 106 108 86
-8.6872 42.0652 61.2315 -0.055 -0.018 -0.998 114 135 130
-6.7793 41.2254 60.1627 0.034 -0.091 -0.995 110 129 123
-5.8933 41.1449 60.2290 0.035 -0.127 -0.991 27 44 34
1.3012 42.1924 63.8606 0.387 -0.234 -0.892 56 70 61
48.1991 39.5770 70.3648 0.864 0.102 -0.493 77 92 71
48.2952 39.6571 70.5335 0.732 0.050 -0.679 73 88 67
52.7735 37.9983 68.5930 0.213 -0.206 -0.955 51 60 36
52.8697 38.0775 68.7600 0.256 -0.338 -0.906 67 75 51
52.3438 41.4186 74.7080 0.781 0.268 -0.565 109 107 86
58.1697 44.6800 82.0358 0.719 0.424 -0.550 115 119 104
58.2876 44.8002 82.2828 0.719 0.424 -0.550 118 122 107
58.3969 44.9618 82.6027 0.650 0.439 -0.620 120 124 109
58.5412 44.9691 82.6506 0.422 0.644 -0.638 119 123 108
58.6721 45.0374 82.8063 0.422 0.644 -0.638 117 121 106
58.7878 45.1787 83.0909 0.423 0.637 -0.645 115 119 104
-8.4159 42.1872 61.1654 -0.048 -0.004 -0.999 116 135 131
-5.9360 41.3317 60.2132 0.034 -0.119 -0.992 28 45 35
48.2848 39.8219 70.5387 0.763 0.019 -0.646 69 90 64
48.4128 39.8399 70.6021 0.627 0.094 -0.773 47 69 41
48.5300 39.8795 70.7020 0.627 0.094 -0.773 24 49 18
52.7633 38.1620 68.6111 0.244 0.143 -0.959 55 64 40
52.8891 38.1690 68.6541 0.238 0.151 -0.959 77 85 61
56.7986 42.3973 77.2536 0.078 0.618 -0.782 86 89 70
58.3698 45.2547 82.8071 0.636 0.459 -0.620 119 123 108
58.4969 45.3423 82.9964 0.450 0.620 -0.643 118 122 107
58.6184 45.4579 83.2350 0.400 0.638 -0.658 119 122 105
58.8175 48.1277 88.1183 -0.093 -0.432 -0.897 117 118 100
-5.9903 41.5252 60.2063 0.154 -0.044 -0.987 33 50 42
24.4952 40.5615 65.8342 0.489 -0.851 -0.190 99 102 85
36.3989 38.7336 65.4128 0.457 0.243 -0.856 42 54 34
48.1698 39.9227 70.4026 0.703 -0.024 -0.711 87 104 80
48.2835 39.9689 70.5135 0.703 -0.024 -0.711 69 91 64
48.3946 40.0207 70.6338 0.697 -0.012 -0.717 44 69 39
48.5185 40.0472 70.7114 0.691 -0.023 -0.723 24 47 17
52.7434 38.3496 68.6695 -0.208 0.054 -0.977 65 74 50
52.8705 38.3537 68.7077 -0.211 0.035 -0.977 88 96 72
52.9853 38.3884 68.7980 0.205 0.151 -0.967 97 105 81
56.4711 42.7332 77.4793 -0.073 0.543 -0.836 87 90 70
56.7586 42.7015 77.4916 0.087 0.623 -0.778 87 92 72
57.7380 44.9991 81.8738 0.418 0.597 -0.685 92 96 79
58.2155 45.4612 82.8229 0.533 0.586 -0.610 117 121 104
-8.5015 42.5684 61.1303 -0.175 -0.127 -0.976 98 120 114
-6.4422 41.7347 60.1311 0.157 0.006 -0.988 97 117 110
-6.2397 41.7248 60.1624 0.067 0.065 -0.996 74 94 85
-6.0144 41.7020 60.1761 0.067 0.065 -0.996 38 58 49
33.0163 37.8764 62.7619 0.536 0.012 -0.844 73 91 67
33.1229 37.9141 62.8555 0.525 0.032 -0.851 76 98 72
33.2385 37.9423 62.9342 0.406 -0.092 -0.909 75 97 71
35.9678 38.5406 64.6712 0.852 0.001 -0.523 41 60 30
35.9942 38.6781 64.9248 0.807 0.011 -0.591 38 54 25
36.0577 38.7720 65.1090 0.612 -0.354 -0.707 39 58 30
36.1094 38.8809 65.3173 0.597 0.297 -0.745 39 59 31
36.2599 38.8711 65.3362 0.347 0.349 -0.871 42 57 34
36.3901 38.8857 65.3939 0.347 0.349 -0.871 40 53 33
36.4152 39.0286 65.6570 0.450 0.219 -0.866 43 52 35
36.5388 39.0519 65.7287 0.589 0.269 -0.762 43 49 35
36.6205 39.1269 65.8834 0.852 0.066 -0.520 41 47 33
48.2735 40.1333 70.5171 0.699 -0.005 -0.715 59 81 53
48.3875 40.1796 70.6281 0.699 -0.005 -0.715 36 61 31
48.5017 40.2261 70.7393 0.699 -0.005 -0.715 22 44 16
52.7336 38.5129 68.6859 -0.189 0.286 -0.940 67 75 51
52.8555 38.5302 68.7466 -0.226 0.251 -0.941 89 97 73
57.8322 45.3882 82.2797 0.405 0.606 -0.685 96 101 81
57.9532 45.4974 82.5053 0.433 0.637 -0.638 97 102 82
58.0695 45.6300 82.7717 0.474 0.639 -0.606 108 113 93
-9.2621 42.9472 61.2746 -0.268 -0.127 -0.955 25 53 41
-8.5742 42.7759 61.1352 -0.174 -0.175 -0.969 75 102 91
35.9215 38.9060 65.0271 0.868 0.074 -0.491 36 54 27
36.1057 39.0270 65.2884 0.502 0.223 -0.836 40 57 32
36.5011 39.2404 65.7668 0.606 0.294 -0.739 38 42 28
36.5935 39.3026 65.9006 0.725 0.219 -0.653 36 41 27
48.6088 40.4324 70.8457 0.469 -0.125 -0.875 22 39 20
52.8407 38.7064 68.7844 -0.158 0.353 -0.922 90 98 75
55.4801 39.2428 70.3866 0.186 0.244 -0.952 106 109 89
-9.6368 43.3235 61.5046 -0.426 -0.197 -0.883 39 68 56
-8.6469 42.9837 61.1400 -0.102 -0.181 -0.978 62 91 79
19.0830 39.2165 61.1849 0.661 -0.204 -0.722 78 91 73
19.2055 39.2429 61.2619 0.638 -0.284 -0.715 84 95 78
33.4880 42.1597 69.9496 0.574 -0.803 -0.159 37 55 32
33.5674 42.2495 70.1290 0.514 -0.823 -0.242 37 53 32
33.6447 42.3423 70.3135 0.145 -0.894 -0.423 36 48 30
33.8559 42.2719 70.2394 0.453 -0.830 -0.326 28 36 20
33.9648 42.3266 70.3636 0.378 -0.846 -0.375 30 34 21
34.0979 42.3517 70.4409 0.378 -0.846 -0.375 30 33 22
48.5965 40.6029 70.8583 0.425 0.012 -0.905 22 41 22
52.6742 38.9386 68.8844 -0.401 0.337 -0.852 81 89 66
53.0400 38.9949 69.0739 0.133 0.242 -0.961 109 112 91
52.8408 45.1668 80.0352 0.109 -0.608 -0.787 94 99 76
58.1920 41.8614 75.4444 0.748 0.110 -0.655 114 119 99
58.3138 41.9132 75.5664 0.750 0.130 -0.649 103 108 88
-9.0824 43.2890 61.2284 -0.291 -0.133 -0.947 39 71 56
18.9753 39.4488 61.2702 -0.231 -0.376 -0.898 76 87 70
19.1432 39.4391 61.2942 -0.224 -0.414 -0.882 91 102 85
33.5346 42.2557 69.8218 0.579 -0.799 -0.162 19 36 19
33.6153 42.3438 69.9980 0.521 -0.820 -0.237 19 34 18
33.6949 42.4340 70.1778 0.090 -0.900 -0.425 27 36 22
33.8494 42.4327 70.2133 0.090 -0.900 -0.425 22 28 16
34.0550 42.3683 70.1491 0.315 -0.608 -0.729 24 27 18
34.1956 42.3836 70.2108 0.300 -0.600 -0.742 24 27 18
52.1575 39.3886 69.2840 -0.436 0.312 -0.844 43 55 33
52.3263 39.2957 69.1602 -0.441 0.303 -0.845 53 62 41
52.6473 39.1456 68.9720 -0.404 0.319 -0.857 84 92 71
52.7903 39.1121 68.9474 -0.155 0.356 -0.921 103 108 88
53.0370 39.1428 69.0623 0.089 0.073 -0.993 109 112 91
51.8056 45.3172 79.7340 0.990 -0.007 -0.142 102 105 84
58.4319 42.1376 75.7049 0.631 0.262 -0.730 112 117 97
58.5458 42.2257 75.8895 0.743 0.197 -0.640 104 109 89
18.7092 39.6833 61.3194 -0.133 -0.376 -0.917 82 91 74
32.6749 41.4429 67.8631 0.502 -0.786 -0.361 43 61 40
33.7705 42.4939 69.9929 0.090 -0.900 -0.427 21 30 19
33.9092 42.5118 70.0586 0.090 -0.900 -0.425 21 26 19
52.6306 39.3275 69.0166 -0.556 0.156 -0.816 89 93 76
53.0579 39.2299 68.9487 -0.240 -0.525 -0.816 108 111 92
51.4869 46.3527 81.1741 -0.261 -0.641 -0.722 109 112 91
51.8813 45.6823 80.0841 0.989 -0.008 -0.148 109 114 91
51.9690 45.8545 80.4105 0.984 -0.159 -0.084 110 115 92
58.5223 42.4831 76.0500 0.702 0.318 -0.637 105 110 90
58.6321 42.5932 76.2719 0.683 0.379 -0.624 105 110 90
58.7428 42.7018 76.4915 0.723 0.373 -0.582 103 108 88
58.8749 42.7173 76.5514 0.774 0.380 -0.506 97 102 82
48.4869 37.1207 63.8310 0.285 0.660 -0.695 73 86 68
52.6370 39.4521 68.9653 -0.670 -0.020 -0.742 99 103 86
53.0692 39.3414 68.8764 -0.243 -0.516 -0.821 106 109 90
58.5057 42.7122 76.1608 0.705 0.310 -0.638 105 110 88
58.8476 42.9988 76.7506 0.773 0.382 -0.506 99 102 81
58.9542 43.1325 77.0127 0.780 0.384 -0.495 98 101 80
32.8143 41.5783 67.5337 0.502 -0.769 -0.396 27 31 24
47.3705 41.9824 71.8390 0.779 -0.047 -0.626 57 71 50
-0.6795 36.5584 50.1485 -0.310 -0.400 -0.863 0 0 0
30.1453 39.7631 63.3955 0.485 -0.490 -0.725 90 106 79
30.8051 39.6837 63.4200 0.410 -0.453 -0.792 76 95 65
47.8781 42.2429 72.1303 0.037 -0.483 -0.875 25 44 25
51.3510 39.3923 67.9999 0.320 -0.916 -0.241 39 54 31
49.7601 43.3952 74.6140 0.798 -0.515 -0.314 40 55 32
49.8709 43.4701 74.7726 0.798 -0.515 -0.314 44 58 35
49.9837 43.5410 74.9247 0.828 -0.481 -0.287 52 63 43
50.1191 43.5593 74.9902 0.387 -0.867 -0.315 64 76 54
-12.5247 44.1343 60.1306 0.803 0.231 -0.549 66 85 79
20.9397 39.9632 61.1702 0.226 -0.076 -0.971 80 97 78
21.1328 40.0597 61.3865 0.420 -0.572 -0.704 79 97 75
30.3140 39.8823 63.3583 0.413 -0.287 -0.864 82 98 69
30.4417 39.9016 63.4237 -0.016 -0.256 -0.967 80 97 66
30.7720 39.8611 63.4351 0.078 -0.414 -0.907 68 87 54
31.3956 41.1035 65.7573 0.738 -0.655 -0.163 53 71 45
31.3250 42.0270 67.3505 -0.358 -0.259 -0.897 29 48 26
32.1616 41.7610 67.0944 0.927 -0.331 -0.176 16 34 9
32.6885 41.8471 67.3756 0.324 -0.915 -0.240 27 30 25
32.7935 41.9002 67.4942 0.390 -0.902 -0.188 28 30 25
50.1520 43.6346 74.8327 0.112 -0.945 -0.309 67 78 58
53.9915 42.3378 73.5248 0.547 -0.498 -0.673 110 115 92
-12.6265 44.3594 60.1514 0.784 -0.005 -0.620 57 77 70
30.2996 40.0401 63.3428 0.407 -0.296 -0.864 71 90 58
31.0795 40.6189 64.5431 0.921 -0.077 -0.381 59 79 52
31.4561 41.1826 65.6166 0.801 0.121 -0.586 34 52 28
53.8949 42.3727 73.2768 0.501 -0.553 -0.666 99 106 85
54.0118 42.4286 73.4031 0.490 -0.547 -0.679 99 107 84
-3.8032 41.8403 57.6507 0.103 -0.014 -0.995 69 88 82
6.9197 36.0601 50.3228 0.589 0.265 -0.763 63 82 76
31.0957 40.7457 64.4782 0.614 -0.752 -0.241 43 63 36
51.5445 41.2363 70.4386 -0.645 0.300 -0.703 62 75 57
51.7545 41.0485 70.1661 -0.645 0.300 -0.703 73 84 68
46.8832 42.5739 71.3020 0.116 -0.522 -0.845 35 46 29
-5.6937 43.2619 58.9810 0.060 0.004 -0.998 45 65 53
31.2600 41.0157 64.4103 0.623 -0.755 -0.204 21 38 19
31.3243 41.1074 64.5841 0.458 -0.889 -0.012 20 37 18
31.4102 41.1756 64.7229 0.494 -0.869 -0.027 21 38 19
32.5175 43.3741 68.7799 0.957 -0.182 -0.225 28 34 24
32.5645 43.5026 69.0126 0.939 -0.055 -0.339 28 34 24
47.8730 43.9008 73.5454 0.338 0.264 -0.903 33 46 26
49.7265 43.9061 74.0204 0.363 -0.787 -0.499 68 81 63
-5.1934 43.5578 59.2878 0.139 0.190 -0.972 42 64 49
8.0742 42.2091 60.3231 0.789 0.404 -0.462 40 56 43
16.6966 41.1131 60.6200 0.150 -0.973 -0.176 50 51 45
16.5936 42.0926 62.2713 0.785 0.295 -0.545 67 71 57
16.6518 42.1761 62.4289 0.632 0.316 -0.708 69 81 67
16.6190 42.3345 62.6920 0.340 0.164 -0.926 73 85 71
42.1971 37.8223 61.4136 0.681 -0.060 -0.730 28 43 22
47.6602 43.8963 73.1921 0.562 0.332 -0.758 26 39 21
47.8688 44.0623 73.5290 0.284 0.305 -0.909 33 46 26
47.3780 44.0394 73.0748 0.751 -0.385 -0.536 29 42 24
47.6303 44.1118 73.2622 0.593 0.354 -0.723 21 34 16
47.7203 44.2257 73.4792 0.487 0.398 -0.777 25 38 20
47.8307 44.2969 73.6286 0.223 0.346 -0.911 33 46 26
16.7858 41.3378 60.4367 -0.360 -0.359 -0.861 65 66 60
47.3669 44.2147 73.0805 0.706 -0.134 -0.696 29 42 24
47.8258 44.4605 73.6148 0.269 0.307 -0.913 41 55 32
15.2675 41.4384 59.9286 0.345 -0.034 -0.938 59 66 58
16.7665 41.6282 60.6310 -0.339 -0.431 -0.836 72 70 63
16.7735 42.2675 61.7157 -0.333 -0.892 -0.305 85 86 77
16.9824 42.2269 61.7000 -0.330 -0.892 -0.308 85 90 80
41.0493 41.1052 65.9189 -0.234 0.374 -0.898 25 38 18
47.6936 44.5886 73.5080 0.531 0.218 -0.819 36 49 28
47.8246 44.6161 73.5879 0.256 0.341 -0.904 47 61 38
46.6798 52.1723 86.0953 -0.200 -0.751 -0.629 62 75 56
47.2468 52.0049 85.9558 -0.479 -0.535 -0.696 69 82 63
25.4574 41.7328 62.7305 -0.111 0.515 -0.850 50 68 46
48.6613 41.4976 68.2491 0.941 -0.281 -0.186 42 56 34
47.9013 44.6025 73.2952 -0.151 -0.844 -0.515 64 78 53
46.7336 52.2222 85.8567 -0.185 -0.831 -0.524 62 76 53
-11.9693 47.5214 62.6112 0.257 0.673 -0.693 30 53 35
-11.5406 47.4986 62.6824 0.128 0.629 -0.767 42 66 50
22.7731 44.9736 67.2083 0.985 -0.169 -0.042 40 54 37
25.6343 42.4519 63.6995 -0.062 -0.795 -0.604 42 56 41
25.7205 42.5179 63.8325 -0.030 -0.734 -0.679 35 50 34
26.5949 42.5580 64.1236 0.816 0.291 -0.500 21 34 18
31.5962 42.1697 64.7491 0.629 -0.770 0.110 30 36 24
33.9864 42.2924 65.5664 0.925 0.286 -0.251 68 72 57
34.0102 42.4432 65.8260 0.925 0.286 -0.251 64 71 55
34.5273 42.7129 66.4117 0.966 -0.050 -0.253 54 64 47
47.8841 44.7927 73.3234 -0.080 -0.918 -0.388 69 83 60
47.9309 45.0048 73.6920 -0.403 -0.644 -0.650 70 84 61
-12.3943 47.9486 62.8732 0.190 0.665 -0.722 33 56 38
-6.1313 48.1572 64.8281 0.846 -0.512 0.149 48 64 54
6.0385 41.7852 57.2716 0.725 0.035 -0.688 55 72 66
25.7894 42.4450 63.4398 -0.004 -0.946 -0.324 21 35 20
33.7383 41.6802 64.1958 0.920 0.219 -0.326 61 63 49
33.7686 41.8175 64.4336 0.918 0.216 -0.332 69 73 59
33.7820 41.9763 64.7032 0.926 0.192 -0.326 79 83 69
33.8059 42.1237 64.9561 0.982 0.085 -0.170 80 84 70
33.8754 42.2162 65.1290 0.920 0.316 -0.231 77 79 66
34.3140 42.9433 66.4597 0.385 0.265 -0.884 42 49 33
47.9574 45.0999 73.5700 -0.374 -0.763 -0.528 69 83 62
48.1030 45.0958 73.6005 -0.381 -0.763 -0.522 68 82 59
16.0828 44.2622 63.6925 -0.302 0.222 -0.927 80 95 76
23.5498 45.8115 68.1980 0.852 0.183 -0.490 30 36 29
30.3361 42.2184 63.9439 0.712 0.516 -0.477 31 34 23
31.8170 42.0374 64.0223 0.621 -0.783 -0.017 32 36 21
31.7888 42.2385 64.3507 0.592 -0.802 -0.084 31 38 22
47.0531 43.8502 70.9644 0.471 -0.864 -0.179 33 48 29
47.1283 43.9849 71.2086 0.515 -0.849 -0.116 39 57 34
-6.7160 48.3876 64.3775 0.518 -0.392 -0.761 37 53 43
28.5907 42.6477 63.9283 0.640 0.649 -0.412 23 30 19
28.7446 42.6429 63.9599 0.769 0.167 -0.617 22 30 19
33.7271 42.3315 64.7258 0.979 -0.001 -0.206 61 65 50
32.8830 45.4461 69.6891 0.854 -0.516 -0.064 50 62 46
47.1916 44.0026 70.9753 0.513 -0.851 -0.113 54 70 50
48.3520 44.8461 72.6775 -0.076 0.225 -0.971 77 90 70
48.4525 44.9391 72.8581 0.079 -0.167 -0.983 78 91 71
48.5828 44.9659 72.9362 -0.017 -0.040 -0.999 72 86 63
48.7058 45.0096 73.0405 -0.126 0.236 -0.964 67 81 58
7.1843 43.5166 59.5555 0.546 0.227 -0.807 40 60 51
30.3805 42.6242 64.0697 0.888 0.401 -0.226 33 43 28
34.3501 42.0638 64.1665 0.366 0.590 -0.720 76 80 65
47.4137 44.2743 71.2056 0.889 -0.438 -0.133 87 109 70
48.4518 45.0929 72.8306 0.064 -0.180 -0.982 81 95 72
17.4516 43.4203 61.7562 0.271 -0.250 -0.930 74 88 72
28.3148 43.0765 64.0025 0.436 0.720 -0.540 34 40 30
28.3348 43.2168 64.2395 0.479 0.707 -0.521 33 39 29
28.7595 43.0820 64.1267 0.736 0.454 -0.503 32 38 28
28.4350 44.7859 66.8567 -0.146 -0.726 -0.673 44 57 40
28.1063 43.4484 64.2790 0.433 0.719 -0.544 34 39 31
34.6089 47.5827 72.7712 0.990 -0.056 0.129 84 92 77
34.5299 47.9178 73.3022 0.985 -0.093 0.146 86 95 78
-3.3733 48.6268 64.2912 0.442 -0.896 -0.039 47 67 55
17.9069 44.1557 62.5009 0.969 0.170 -0.180 76 92 79
20.1480 45.4778 65.2523 0.455 -0.888 -0.071 22 28 23
26.4337 44.7363 65.6731 0.789 -0.176 -0.589 28 41 32
28.1510 45.0619 66.6543 -0.118 -0.616 -0.779 40 53 38
30.9558 45.9563 68.8511 0.569 -0.209 -0.796 33 39 28
31.1781 46.2588 69.4051 0.898 -0.408 0.167 43 49 37
34.9316 42.8468 64.7876 0.519 -0.387 -0.762 51 56 41
7.9872 45.7917 62.2930 -0.184 0.061 -0.981 68 89 74
14.1387 44.2286 61.3449 0.269 0.298 -0.916 65 83 71
26.8086 44.4868 65.0743 0.045 0.541 -0.840 27 42 32
30.3061 43.9737 65.1491 -0.120 0.126 -0.985 72 88 72
30.9286 46.1446 68.8586 0.549 -0.169 -0.818 34 40 30
34.9703 42.9411 64.6794 0.481 -0.395 -0.783 41 43 29
35.1827 42.8523 64.5898 0.514 -0.404 -0.757 31 33 20
29.6676 50.4061 75.4923 -0.182 -0.826 -0.533 39 49 33
29.8961 50.3273 75.4232 -0.212 -0.835 -0.507 69 83 66
13.7223 44.8566 61.9658 0.293 0.309 -0.905 65 85 74
13.0539 45.9558 63.5805 0.188 0.703 -0.686 63 80 72
30.2681 44.1660 65.1717 -0.237 -0.174 -0.956 58 73 58
34.8513 43.0532 64.5595 0.535 -0.117 -0.837 54 56 42
34.9773 43.0760 64.6296 0.521 -0.126 -0.844 45 46 32
35.1951 42.9799 64.5301 0.514 -0.404 -0.757 35 36 22
35.3624 42.9486 64.5228 0.463 -0.538 -0.705 26 32 16
35.4635 43.0032 64.6382 0.345 -0.642 -0.685 36 45 30
46.3196 46.4336 73.0645 0.202 0.360 -0.911 64 73 54
22.5456 46.7738 67.0965 0.958 0.166 -0.233 36 45 31
34.8449 43.2054 64.5342 0.535 -0.117 -0.837 62 67 52
34.9714 43.2276 64.6034 0.521 -0.126 -0.844 49 52 38
35.4694 43.1391 64.5905 0.354 -0.726 -0.589 37 48 31
35.6226 43.1256 64.6089 0.351 -0.632 -0.691 61 75 57
31.8056 51.9816 77.9751 0.072 0.034 -0.997 78 93 74
47.8818 50.5514 79.8727 0.937 -0.218 -0.272 79 103 67
47.9793 50.6946 80.1305 0.937 -0.211 -0.280 67 96 61
32.1519 52.1452 78.0087 0.100 -0.074 -0.992 65 81 62
32.3378 52.1221 78.0202 0.055 -0.101 -0.993 63 78 59
32.5107 52.1173 78.0579 -0.168 -0.529 -0.832 61 76 57
47.9839 51.2417 80.7122 0.662 0.228 -0.714 81 108 77
11.2906 47.7664 65.1334 0.102 0.686 -0.721 23 26 23
11.5864 47.6624 65.0438 0.139 0.692 -0.708 20 25 21
11.8220 47.6084 65.0189 0.165 0.700 -0.695 19 24 20
21.0309 44.5123 62.4593 0.338 -0.805 -0.488 23 25 22
20.7921 44.8849 62.9967 -0.444 -0.664 -0.601 26 28 25
7.1570 49.7462 66.9112 -0.453 -0.811 -0.370 12 24 17
12.0724 47.8485 65.1641 0.296 0.672 -0.679 19 21 18
21.7836 44.8375 62.8974 -0.273 -0.716 -0.643 43 53 44
30.1689 43.5032 62.9717 -0.058 0.092 -0.994 43 53 37
26.7453 52.3779 76.3133 0.316 -0.863 -0.394 49 61 45
27.1288 52.1122 75.9883 0.856 -0.434 -0.281 35 49 32
27.2993 52.3336 76.3888 0.847 -0.441 -0.298 33 49 31
27.4060 52.4181 76.5526 0.704 -0.495 -0.510 34 52 33
20.3840 47.1279 65.9078 -0.426 -0.320 -0.846 31 44 30
20.6515 47.0247 65.8135 -0.424 -0.311 -0.851 34 48 33
19.4016 45.3179 62.1833 0.814 -0.580 -0.021 24 38 31
19.4228 45.4447 62.3902 0.476 -0.864 -0.165 26 38 32
19.5768 45.5959 62.6714 0.868 -0.494 -0.054 38 51 44
19.5495 45.7699 62.9406 0.987 -0.152 -0.050 44 57 48
19.9067 47.5920 65.9301 0.592 -0.763 -0.259 48 54 44
25.5152 43.8513 61.4811 0.900 -0.063 -0.431 41 48 36
25.7811 44.1947 62.0974 0.450 -0.603 -0.659 46 49 38
26.0980 44.1771 62.1538 0.647 -0.273 -0.712 50 54 43
30.6948 44.1770 63.3775 0.996 -0.094 -0.005 40 48 35
8.6486 46.0579 60.2032 -0.493 -0.668 -0.558 16 29 20
10.0567 45.3512 59.4602 -0.527 -0.611 -0.591 16 28 19
11.0823 44.9319 59.0701 -0.370 -0.687 -0.626 19 24 17
19.0935 46.6550 63.9356 0.984 -0.133 -0.120 36 50 40
19.1065 46.7956 64.1617 0.983 -0.133 -0.123 37 52 41
25.8122 44.3087 62.0143 0.450 -0.603 -0.659 44 50 38
25.9349 44.3372 62.0922 0.489 -0.560 -0.669 43 50 36
26.1033 44.3178 62.1065 0.836 -0.313 -0.451 66 73 58
-4.4352 52.2186 66.1307 -0.217 -0.119 -0.969 27 33 26
-4.0546 52.0830 66.0186 -0.469 -0.280 -0.837 20 26 22
16.3260 49.1186 66.7937 -0.225 0.137 -0.965 32 48 38
17.7135 48.5973 66.3426 -0.053 0.097 -0.994 66 84 72
17.9287 48.5507 66.3265 -0.053 0.097 -0.994 68 85 73
25.9773 44.4391 61.9934 0.574 -0.274 -0.772 64 73 58
26.1187 44.4478 62.0450 0.836 -0.313 -0.451 82 93 77
35.8415 45.3045 65.7286 0.872 -0.207 -0.443 47 50 39
