ply
format ascii 1.0
element vertex 845
property float x
property float y
property float z
property float nx
property float ny
property float nz
property uchar diffuse_red
property uchar diffuse_green
property uchar diffuse_blue
end_header
-14.6635 0.5695 80.8658 -0.146 -0.448 -0.882 150 176 190
-14.5021 0.5248 80.8842 -0.161 -0.456 -0.875 157 184 196
-12.0915 -0.2656 80.2686 0.321 -0.352 -0.879 111 138 157
-9.3945 -0.9951 80.7075 -0.037 -0.719 -0.694 187 216 229
-9.2445 -1.0419 80.6864 -0.055 -0.717 -0.695 187 217 227
-7.3514 -1.5044 81.3554 -0.347 -0.884 -0.312 186 216 224
-7.1307 -1.8430 79.3599 0.461 0.168 -0.871 187 220 237
-4.0501 -2.5975 80.4347 0.143 0.177 -0.974 183 215 230
-1.8239 -3.1793 80.9452 0.332 0.229 -0.915 160 188 192
-1.6066 -3.2292 81.0456 0.299 0.243 -0.923 160 185 190
1.8577 -4.2560 80.9551 -0.566 -0.286 -0.774 107 138 158
5.0065 -5.0374 81.9794 -0.662 0.078 -0.746 184 215 225
5.1736 -5.0878 81.9693 -0.352 -0.325 -0.878 195 226 235
5.2220 -5.1309 81.7587 0.206 0.190 -0.960 208 238 247
5.4949 -5.1877 81.9269 0.380 -0.573 -0.726 211 242 248
5.8538 -5.2500 82.2381 0.101 -0.852 -0.514 202 234 239
6.0812 -5.3044 82.3270 0.121 -0.781 -0.613 195 227 234
6.3012 -5.3584 82.4028 0.134 -0.775 -0.618 192 225 235
6.6123 -5.4185 82.6290 -0.032 -0.866 -0.499 198 233 244
6.7752 -5.4690 82.6082 -0.108 -0.845 -0.524 190 224 238
7.1304 -5.5324 82.9044 -0.054 -0.873 -0.484 205 241 253
-45.8479 11.9230 95.8211 -0.477 -0.872 -0.108 223 238 243
-41.4549 10.0634 91.6851 -0.488 0.072 -0.870 181 210 220
-39.8297 9.4684 90.8235 -0.703 0.519 -0.486 162 178 180
-39.1039 9.1835 90.3006 -0.520 -0.440 -0.732 195 212 203
-38.6496 9.0556 90.3366 -0.741 -0.565 -0.364 197 214 205
-37.9088 8.8086 90.1180 -0.650 0.388 -0.654 200 214 199
-37.4332 8.7097 90.4070 -0.590 -0.694 -0.413 199 216 197
-37.2976 8.6401 90.1917 -0.646 -0.590 -0.485 200 217 197
-37.1553 8.5817 90.0712 -0.653 -0.594 -0.469 197 214 198
-34.6169 7.5689 88.1247 -0.315 -0.753 -0.578 195 216 224
-29.7801 5.9897 86.9396 0.644 -0.613 -0.457 205 229 243
-25.2289 3.9463 81.8140 -0.499 -0.069 -0.864 161 190 204
-17.7152 1.5385 80.2989 -0.448 0.589 -0.672 188 216 219
-15.4575 0.9280 80.6562 -0.220 -0.177 -0.959 167 191 196
-15.3328 0.8800 80.5728 -0.045 -0.109 -0.993 166 190 195
-14.8257 0.7492 80.6988 -0.190 -0.462 -0.866 159 182 191
-14.6224 0.7086 80.8348 -0.296 -0.614 -0.731 154 177 186
-14.3500 0.6146 80.7312 -0.280 -0.507 -0.815 122 146 156
-14.0563 0.5225 80.6868 -0.288 -0.532 -0.797 111 135 146
-13.9130 0.4762 80.6544 -0.312 -0.504 -0.805 135 159 170
-13.1641 0.2467 80.5795 -0.153 -0.278 -0.948 134 160 171
-11.0875 -0.4000 80.2955 -0.351 -0.343 -0.871 178 206 218
-8.8632 -0.9941 80.7003 -0.351 -0.745 -0.567 187 217 227
-8.7660 -1.0426 80.5560 -0.364 -0.640 -0.676 187 217 224
-8.6270 -1.0898 80.5090 -0.370 -0.643 -0.670 186 216 223
-8.3306 -1.1836 80.4577 -0.462 -0.706 -0.537 185 215 224
-8.1951 -1.2308 80.4031 -0.462 -0.706 -0.537 186 216 224
-2.1143 -2.9398 80.9000 -0.508 -0.827 -0.241 137 165 169
-0.8264 -3.2827 81.1428 -0.179 0.418 -0.891 71 97 111
-0.6906 -3.3306 81.0837 -0.202 0.417 -0.886 56 83 101
2.2403 -3.9553 82.7544 0.399 0.482 -0.780 108 141 158
3.1070 -4.3348 81.8480 0.108 -0.011 -0.994 120 152 169
3.3215 -4.3869 81.9240 0.184 0.088 -0.979 152 183 201
3.5242 -4.4386 81.9785 -0.177 0.682 -0.709 114 145 164
5.0586 -4.8915 81.9484 -0.662 0.078 -0.746 164 197 206
5.1830 -4.9394 81.8658 -0.179 -0.053 -0.983 144 177 185
6.0435 -5.1522 82.1449 0.368 -0.515 -0.774 188 221 227
6.3394 -5.2106 82.3470 0.421 -0.522 -0.742 202 235 242
6.8818 -5.3652 82.3757 0.045 0.221 -0.974 196 232 244
13.0526 -6.4438 87.5962 -0.532 -0.525 -0.665 199 237 250
13.2653 -6.5009 87.6333 -0.023 -0.008 -1.000 199 237 248
-57.8001 15.4339 94.7697 0.312 -0.767 -0.561 2 1 3
-46.1148 12.0988 95.3169 -0.442 -0.885 -0.148 246 251 248
-45.8055 11.9846 95.1476 -0.434 -0.890 -0.141 123 142 149
-38.7173 9.3478 91.1191 -0.119 0.176 -0.977 196 214 202
-38.2077 8.9887 89.6258 0.028 -0.133 -0.991 197 215 200
-38.0559 8.9476 89.6484 -0.112 -0.110 -0.988 198 216 198
-37.9024 8.9088 89.6911 -0.104 -0.140 -0.985 198 215 199
-37.7524 8.8639 89.6836 -0.075 -0.128 -0.989 198 215 203
-37.6087 8.8084 89.5875 -0.122 -0.139 -0.983 199 216 202
-29.4398 5.7936 85.1153 -0.608 0.347 -0.714 202 232 242
-25.5120 4.1625 81.6761 -0.666 -0.293 -0.685 204 234 245
-17.6847 1.7409 80.7098 -0.463 0.577 -0.673 200 225 229
-17.5920 1.6880 80.5261 -0.590 0.549 -0.592 190 215 219
-17.0024 1.5725 80.9291 0.082 -0.729 -0.680 168 189 194
-16.5908 1.4967 81.2438 -0.290 -0.711 -0.640 174 195 200
-15.4180 1.0666 80.6216 -0.220 -0.177 -0.959 162 183 186
-15.2873 1.0191 80.5554 -0.045 -0.109 -0.993 163 184 189
-13.8945 0.6132 80.5614 -0.312 -0.504 -0.805 135 158 165
-13.7401 0.5679 80.5592 -0.294 -0.489 -0.822 154 177 183
-13.5969 0.5215 80.5269 -0.160 -0.325 -0.932 159 183 189
-13.1281 0.3855 80.5331 -0.153 -0.278 -0.948 157 181 186
-9.2689 -0.7656 80.3616 -0.248 -0.637 -0.730 187 214 222
-8.3514 -1.0452 80.2783 -0.325 -0.682 -0.655 187 215 220
-8.1998 -1.0919 80.2609 -0.385 -0.675 -0.629 187 215 221
-7.7884 -1.2333 80.1101 0.008 -0.598 -0.802 187 216 221
-7.6146 -1.2795 80.1420 -0.005 -0.593 -0.805 190 219 224
-6.1997 -1.7009 80.0840 -0.449 -0.527 -0.721 192 224 243
-0.7003 -3.1859 80.9422 0.488 -0.224 -0.844 51 78 97
0.9409 -3.5865 81.5008 0.484 0.006 -0.875 113 144 162
2.1233 -3.8462 82.1083 -0.782 -0.581 -0.226 157 188 208
2.2046 -3.8927 81.9467 -0.782 -0.581 -0.226 129 160 180
4.9742 -4.6968 81.9795 -0.409 0.271 -0.871 96 130 141
5.0858 -4.7441 81.8751 -0.539 0.193 -0.820 195 227 238
5.2525 -4.7943 81.8641 -0.231 0.077 -0.970 180 213 222
6.0993 -5.0058 82.1188 0.452 -0.423 -0.785 152 185 190
6.4086 -5.0646 82.3428 0.470 -0.456 -0.756 135 168 175
6.7167 -5.1235 82.5630 0.449 -0.449 -0.773 137 170 179
7.0318 -5.1831 82.7931 0.450 -0.460 -0.766 182 216 226
7.0197 -5.2232 82.4834 0.110 0.228 -0.967 200 234 244
12.3109 -6.4300 84.8868 -0.645 -0.627 -0.437 198 236 247
12.4891 -6.5620 84.3183 -0.876 -0.351 -0.332 193 229 243
-57.7982 15.6175 94.9239 -0.243 -0.463 -0.853 1 1 8
-57.6644 15.5893 94.9994 0.317 -0.798 -0.512 20 23 25
-46.0735 12.1795 94.7889 -0.431 -0.884 -0.179 245 252 250
-45.9192 12.1204 94.6900 -0.436 -0.883 -0.173 221 233 236
-45.7653 12.0624 94.5981 -0.436 -0.883 -0.173 75 96 104
-45.6109 11.9977 94.4597 -0.455 -0.874 -0.169 94 119 132
-40.1742 10.0145 91.6677 -0.439 0.051 -0.897 177 200 192
-39.8987 9.8482 91.0641 -0.862 0.011 -0.506 186 207 194
-39.6221 9.6943 90.5507 -0.925 0.061 -0.374 190 211 197
-39.3176 9.6130 90.6030 0.294 -0.218 -0.931 192 210 199
-39.1693 9.5627 90.5537 0.302 -0.193 -0.933 195 213 201
-38.4198 9.3282 90.4417 -0.819 -0.284 -0.499 197 215 203
-38.2804 9.2614 90.2578 -0.830 0.003 -0.558 195 215 203
-38.0150 9.1069 89.7169 0.065 -0.055 -0.996 195 216 198
-37.8658 9.0605 89.6966 0.065 -0.054 -0.996 195 216 197
-37.7141 9.0181 89.7091 -0.083 -0.127 -0.988 196 217 202
-37.5688 8.9649 89.6331 -0.121 -0.048 -0.992 197 218 203
-35.0342 7.9529 87.7184 -0.136 -0.894 -0.428 94 226 231
-33.5675 8.2335 92.6883 -0.734 -0.679 -0.010 40 239 221
-32.0794 7.6844 91.8801 -0.052 -0.999 -0.010 71 87 111
-29.5303 5.9921 85.2208 -0.931 -0.338 -0.139 201 231 241
-29.3929 5.9416 85.1472 -0.608 0.347 -0.714 204 234 244
-25.5383 4.3725 82.0234 -0.696 -0.382 -0.608 204 234 245
-25.5089 4.2889 81.4974 -0.531 -0.528 -0.663 205 235 246
-17.2073 2.2952 84.4931 -0.768 -0.078 -0.636 203 231 234
-16.9067 2.2715 84.9422 -0.408 0.398 -0.822 204 230 231
-17.5697 1.8905 80.9116 -0.876 0.028 -0.481 199 225 226
-15.5294 1.2505 80.5958 -0.599 -0.197 -0.776 174 195 198
-15.3785 1.2053 80.5869 -0.220 -0.177 -0.959 176 197 200
-15.2417 1.1584 80.5380 -0.045 -0.109 -0.993 175 196 199
-13.8720 0.7506 80.4789 -0.287 -0.530 -0.798 207 228 233
-13.7206 0.7050 80.4690 -0.293 -0.501 -0.814 187 208 212
-13.5638 0.6599 80.4730 -0.160 -0.325 -0.932 204 225 228
-13.4178 0.6138 80.4482 -0.139 -0.328 -0.934 220 241 244
-13.2458 0.5698 80.4919 -0.138 -0.310 -0.941 223 244 246
-13.0871 0.5247 80.4999 -0.146 -0.299 -0.943 223 244 246
-12.9370 0.4788 80.4850 -0.279 -0.206 -0.938 224 245 247
-12.2601 0.2435 80.2188 -0.017 -0.447 -0.894 210 230 238
-12.1153 0.1972 80.1902 0.007 -0.467 -0.884 219 240 248
-11.7920 0.1068 80.2176 0.028 -0.518 -0.855 216 238 243
-11.0301 -0.1229 80.1643 -0.457 -0.449 -0.767 197 221 224
-8.3526 -0.9066 80.1440 -0.310 -0.705 -0.638 178 203 206
-8.2065 -0.9534 80.1144 -0.316 -0.674 -0.668 179 205 208
-7.6884 -1.0917 80.2039 -0.285 -0.650 -0.704 178 204 207
-7.5298 -1.1383 80.2011 -0.171 -0.705 -0.689 175 201 204
-7.4505 -1.1870 80.0221 -0.297 -0.330 -0.896 173 199 202
-7.3006 -1.2338 80.0002 -0.285 -0.337 -0.897 170 196 200
-6.3753 -1.5145 79.9235 -0.285 -0.491 -0.823 195 225 238
-3.9567 -2.0783 80.9164 -0.110 -0.926 -0.360 191 223 236
-3.7592 -2.1262 80.9846 -0.135 -0.924 -0.358 191 223 237
-2.9309 -2.3189 81.3267 -0.436 -0.898 -0.067 169 199 208
-2.8163 -2.3669 81.2247 -0.436 -0.898 -0.067 170 199 207
-2.9259 -2.4131 80.6759 -0.241 -0.923 -0.300 170 197 204
-1.3691 -2.8477 80.8124 -0.125 -0.792 -0.598 159 187 191
-0.8537 -2.9934 80.8442 -0.076 -0.854 -0.515 66 93 109
-0.6931 -3.0418 80.8328 -0.064 -0.862 -0.502 60 87 107
2.0803 -3.8278 80.9924 -0.632 -0.234 -0.739 112 140 162
4.4327 -4.3534 82.1176 0.310 0.351 -0.883 105 138 154
5.1512 -4.5987 81.8663 -0.539 0.193 -0.820 181 213 224
6.1357 -4.8582 82.0603 0.452 -0.423 -0.785 188 219 224
6.4371 -4.9160 82.2709 0.470 -0.456 -0.756 173 206 213
12.7996 -6.3494 85.2318 0.359 0.489 -0.795 198 236 249
-45.7270 12.1549 94.1580 -0.541 -0.818 -0.197 74 94 105
-45.5728 12.0851 93.9859 -0.537 -0.819 -0.204 85 109 124
-41.3512 10.5284 91.7152 -0.269 0.353 -0.896 180 207 216
-39.8414 10.0610 91.5228 -0.411 0.125 -0.903 192 210 193
-39.7026 9.9815 91.2518 -0.732 0.032 -0.681 192 210 194
-39.5455 9.9505 91.3543 -0.588 0.318 -0.744 192 210 194
-39.4042 9.8797 91.1482 -0.597 0.353 -0.721 194 211 197
-39.2751 9.7818 90.7303 -0.582 -0.698 -0.418 193 211 197
-37.5353 9.1112 89.5933 -0.134 -0.052 -0.990 197 220 204
-35.5540 8.1061 86.6245 -0.387 -0.918 -0.085 177 225 251
-34.8948 8.0060 87.2617 0.323 -0.923 -0.208 19 252 236
-32.0160 6.7328 84.2459 -0.445 -0.719 -0.534 133 148 169
-31.7418 6.6339 84.1138 -0.574 -0.645 -0.504 124 139 158
-30.8548 6.5174 85.0968 -0.530 -0.656 -0.537 126 145 159
-29.1996 6.0440 85.1563 -0.498 0.266 -0.826 204 234 244
-25.4922 4.4197 81.3791 -0.540 -0.533 -0.651 202 232 243
-24.2936 4.2613 82.7009 -0.224 0.499 -0.838 155 181 198
-24.1588 4.2127 82.6359 -0.224 0.499 -0.838 125 151 168
-18.0481 2.2922 81.6573 -0.280 -0.801 -0.529 202 230 233
-15.5102 1.3868 80.5032 -0.611 -0.192 -0.768 170 191 194
-15.3439 1.3435 80.5386 -0.296 -0.225 -0.928 161 182 185
-15.1961 1.2978 80.5206 -0.045 -0.109 -0.993 163 184 187
-13.5448 0.7970 80.3816 -0.253 -0.472 -0.844 171 192 194
-13.3846 0.7522 80.3947 -0.139 -0.328 -0.934 177 198 199
-13.2115 0.7085 80.4412 -0.138 -0.310 -0.941 170 190 190
-13.0522 0.6635 80.4505 -0.146 -0.299 -0.943 162 182 182
-12.9014 0.6177 80.4373 -0.276 -0.201 -0.940 166 186 187
-12.0889 0.3351 80.1189 -0.005 -0.462 -0.887 171 190 196
-11.9382 0.2893 80.1051 -0.008 -0.473 -0.881 175 194 200
-8.5277 -0.7225 79.9756 -0.388 -0.806 -0.447 215 236 237
-8.3603 -0.7684 79.9950 -0.310 -0.705 -0.638 215 237 238
-8.2106 -0.8150 79.9739 -0.310 -0.705 -0.638 217 238 240
-7.5578 -1.0001 80.0085 -0.160 -0.720 -0.675 197 219 220
-5.5027 -1.6082 79.9420 -0.082 -0.863 -0.499 180 211 219
-5.1115 -1.7014 80.0850 0.011 -0.880 -0.475 173 203 211
-5.1669 -1.7506 79.6325 0.328 0.176 -0.928 173 204 212
-3.4343 -2.1747 80.1898 -0.272 -0.853 -0.445 169 197 206
-3.1367 -2.2227 80.4581 -0.315 -0.917 -0.246 170 197 205
-2.8497 -2.3181 80.3760 -0.254 -0.919 -0.302 166 193 200
-2.8360 -2.3650 80.0784 -0.199 -0.755 -0.624 164 191 198
-1.2537 -2.7057 80.9107 -0.328 -0.483 -0.812 157 185 188
-1.0841 -2.7542 80.9168 -0.284 -0.559 -0.779 103 131 134
-0.8200 -2.8955 80.4698 -0.374 -0.766 -0.523 61 88 109
1.0071 -3.2966 81.3778 -0.217 -0.794 -0.568 107 138 156
1.3068 -3.3494 81.6169 -0.159 -0.871 -0.466 109 140 158
1.4855 -3.3990 81.6332 0.174 -0.850 -0.497 109 140 158
3.8217 -4.0501 81.8355 -0.560 -0.714 -0.420 112 145 162
4.0212 -4.1444 81.5850 0.435 -0.339 -0.835 110 143 160
5.2343 -4.4539 81.8875 -0.554 0.204 -0.807 155 189 200
5.3846 -4.5033 81.8485 -0.237 0.094 -0.967 174 207 215
5.5186 -4.5519 81.7821 -0.300 -0.104 -0.948 175 205 212
6.6488 -4.8190 82.2124 0.295 -0.513 -0.806 125 158 165
6.9295 -4.8757 82.3859 0.307 -0.540 -0.783 158 191 198
13.1608 -6.2584 85.3793 0.371 0.424 -0.826 200 236 250
14.1444 -6.6926 84.3546 -0.159 -0.129 -0.979 154 185 205
14.3510 -6.7482 84.3863 -0.155 -0.209 -0.966 151 182 202
14.5901 -6.8064 84.4652 -0.124 -0.133 -0.983 126 156 174
14.7747 -6.8604 84.4635 -0.115 -0.139 -0.984 130 157 173
15.1074 -6.9264 84.6777 0.368 -0.061 -0.928 128 155 169
15.3676 -6.9867 84.7848 0.368 -0.061 -0.928 126 154 167
15.5203 -7.0383 84.7354 0.106 -0.228 -0.968 120 148 161
15.7548 -7.0966 84.8041 0.052 -0.233 -0.971 130 158 170
-63.6768 19.4768 107.4219 -0.288 -0.909 -0.302 0 0 0
-46.3785 13.0587 97.9114 -0.991 -0.029 -0.129 253 254 249
-41.6132 10.7999 91.9295 -0.871 0.035 -0.491 177 202 207
-39.9555 10.2666 91.5779 -0.363 -0.003 -0.932 197 214 197
-39.8050 10.2175 91.5415 -0.406 0.118 -0.906 198 214 198
-39.6451 10.1927 91.6900 -0.518 0.041 -0.855 198 213 200
-39.3923 9.9753 90.7041 -0.484 -0.685 -0.544 197 211 200
-31.8404 6.8263 84.1744 -0.530 -0.459 -0.713 150 165 186
-31.7004 6.7788 84.1284 -0.539 -0.466 -0.702 121 136 157
-31.5705 6.7245 84.0146 -0.289 -0.594 -0.751 115 130 153
-29.1463 6.1959 85.2229 -0.531 0.250 -0.810 198 228 239
-25.6024 4.6964 82.0096 -0.719 0.472 -0.511 201 233 246
-25.4780 4.6448 81.9035 -0.741 0.431 -0.515 201 233 246
-25.5019 4.5410 81.1449 -0.349 -0.706 -0.617 198 230 243
-20.4414 3.1449 81.6614 -0.385 -0.717 -0.581 206 237 242
-20.2797 3.1029 81.6957 -0.517 -0.745 -0.421 207 238 243
-17.5733 2.3641 82.0248 -0.439 -0.899 0.010 197 222 227
-15.3080 1.4818 80.4936 -0.296 -0.225 -0.928 153 174 177
-15.1497 1.4375 80.5052 -0.037 -0.099 -0.994 152 173 178
-14.8662 1.3448 80.4348 -0.295 -0.168 -0.941 151 171 178
-12.5900 0.6626 80.2956 -0.456 -0.173 -0.873 152 173 178
-8.2185 -0.6771 79.8253 -0.310 -0.705 -0.638 161 181 180
-6.2041 -1.2824 79.6914 -0.399 -0.645 -0.652 210 234 235
-5.3721 -1.5156 79.7510 -0.047 -0.867 -0.497 210 239 238
-4.9715 -1.6084 79.9131 0.045 -0.872 -0.488 204 232 234
-4.7674 -1.6550 80.0007 0.022 -0.866 -0.500 199 228 230
-4.5782 -1.7019 80.0565 -0.058 -0.873 -0.484 189 218 220
-3.1842 -2.1282 79.9125 -0.095 -0.746 -0.660 157 182 187
-3.0226 -2.1757 79.9090 -0.199 -0.755 -0.624 156 184 188
-2.8568 -2.2232 79.9136 -0.199 -0.755 -0.624 155 183 187
-1.2493 -2.5619 80.7956 -0.105 -0.724 -0.681 156 181 185
-1.0704 -2.6104 80.8195 -0.105 -0.724 -0.681 112 137 142
-0.7209 -2.7536 80.5348 -0.783 -0.324 -0.531 61 87 108
0.9371 -3.1493 81.1271 0.119 -0.784 -0.609 106 137 157
2.2472 -3.5855 80.7480 -0.427 -0.516 -0.743 109 140 160
4.1427 -4.0447 81.3785 0.324 -0.607 -0.726 108 141 156
5.5462 -4.4045 81.7093 -0.536 0.201 -0.820 173 204 210
5.7154 -4.4547 81.7020 -0.073 0.132 -0.989 172 203 206
6.2040 -4.6466 81.3605 -0.487 0.414 -0.769 127 160 167
6.2986 -4.6931 81.2307 -0.482 0.377 -0.791 143 176 183
6.4370 -4.7417 81.1733 -0.337 0.280 -0.899 190 225 229
13.1885 -6.1023 85.3010 0.168 0.099 -0.981 200 238 251
14.6241 -6.6517 84.3972 -0.081 0.273 -0.959 134 165 185
14.8168 -6.7062 84.4075 -0.086 0.292 -0.953 136 165 188
15.1130 -6.8083 84.2977 0.399 -0.263 -0.878 132 161 180
15.9245 -6.9912 84.6615 -0.121 -0.135 -0.983 196 221 240
-56.6306 16.9463 102.9062 0.612 -0.465 -0.640 83 113 133
-56.4915 16.9301 103.0699 0.609 -0.467 -0.641 82 113 132
-46.3381 13.1635 97.5287 -0.992 -0.034 -0.125 252 253 247
-43.6895 11.6032 92.1719 -0.550 -0.189 -0.814 175 200 208
-41.4164 10.9589 92.2787 -0.736 -0.437 -0.517 178 199 190
-41.2836 10.8317 91.6788 0.280 0.014 -0.960 179 199 189
-40.0679 10.4787 91.6782 -0.394 0.065 -0.917 199 213 199
-39.6572 10.2219 90.7470 -0.651 -0.140 -0.746 200 212 202
-31.8327 6.9472 83.9586 -0.475 -0.433 -0.766 160 175 198
-31.6947 6.8986 83.9004 -0.475 -0.433 -0.766 121 136 159
-31.5512 6.8538 83.8794 -0.293 -0.593 -0.750 118 133 156
-31.3667 6.8374 84.1310 -0.643 -0.070 -0.762 124 139 160
-31.1551 6.8383 84.5527 -0.045 -0.066 -0.997 129 146 165
-29.0973 6.3458 85.2640 -0.507 0.269 -0.819 198 228 239
-25.5154 4.8537 82.2038 -0.676 0.416 -0.608 203 233 244
-24.3280 4.5988 82.8120 -0.423 -0.237 -0.874 190 216 233
-24.1891 4.5512 82.7627 -0.437 -0.244 -0.866 201 227 242
-21.4574 3.6755 82.2040 -0.391 -0.780 -0.489 204 232 243
-20.5504 3.3294 81.6440 -0.483 -0.717 -0.502 207 235 239
-18.7877 2.7852 81.4246 -0.530 -0.811 -0.246 205 234 238
-18.6712 2.7340 81.3067 -0.557 -0.786 -0.269 207 236 240
-15.2790 1.6194 80.4290 -0.309 -0.225 -0.924 152 173 176
-13.6587 1.1162 80.2077 -0.100 -0.106 -0.989 154 175 180
-13.5064 1.0709 80.2001 -0.184 -0.055 -0.981 155 176 179
-13.3705 1.0238 80.1488 -0.267 -0.111 -0.957 156 177 180
-8.6106 -0.4505 79.5242 -0.408 -0.800 -0.439 150 171 174
-8.2177 -0.5391 79.6965 -0.328 -0.671 -0.665 149 169 168
-8.0654 -0.5855 79.6816 -0.298 -0.692 -0.658 149 169 168
-7.9022 -0.6315 79.6912 -0.155 -0.711 -0.686 148 168 167
-7.7232 -0.6769 79.7355 -0.140 -0.709 -0.691 146 166 164
-3.0430 -2.0345 79.7450 -0.197 -0.759 -0.621 177 202 207
1.3091 -3.1027 81.0682 -0.367 -0.912 -0.185 110 138 159
2.1344 -3.3031 81.3337 0.043 -0.938 -0.344 150 181 202
2.1873 -3.3494 81.1243 0.008 -0.915 -0.404 129 160 181
2.2567 -3.3959 80.9456 -0.065 -0.839 -0.541 109 140 161
2.2618 -3.4405 80.6539 -0.666 -0.047 -0.745 110 141 162
5.3581 -4.0747 82.4468 0.045 0.558 -0.829 66 99 114
6.6144 -4.6439 81.0625 0.125 0.031 -0.992 180 215 219
7.4993 -4.7303 82.2171 -0.446 -0.046 -0.894 195 230 234
6.9048 -4.7419 80.9704 -0.238 -0.141 -0.961 195 230 235
13.1711 -5.9433 85.1546 0.306 0.162 -0.938 199 237 250
13.3303 -5.9954 85.1147 0.347 0.153 -0.925 199 236 252
14.9946 -6.5622 84.5491 0.167 0.418 -0.893 143 175 198
20.8471 -7.7977 87.6891 0.083 -0.955 -0.283 192 219 204
-45.9391 12.7500 94.3815 -0.987 -0.008 -0.158 226 236 235
-43.9550 11.9397 92.8089 -0.705 0.001 -0.709 172 200 205
-43.8061 11.8319 92.3765 -0.289 0.116 -0.950 174 202 206
-42.6033 11.4248 91.9864 -0.698 0.550 -0.458 86 103 123
-40.6839 10.6632 90.6144 0.479 -0.847 -0.229 194 211 196
-40.5027 10.7222 91.3601 -0.698 0.393 -0.599 195 211 197
-39.6308 10.3514 90.5709 -0.715 -0.064 -0.696 200 212 202
-33.3750 7.5777 84.1487 -0.876 -0.480 0.055 70 134 141
-31.6684 7.0326 83.8122 0.038 -0.158 -0.987 123 138 159
-31.1169 6.9817 84.5416 -0.045 -0.066 -0.997 129 146 163
-30.9143 6.9756 84.8938 -0.614 -0.068 -0.786 115 132 148
-30.6640 6.8581 84.5934 -0.669 0.086 -0.738 166 186 198
-30.1146 6.3939 82.5529 0.383 0.049 -0.923 180 207 218
-29.0511 6.4945 85.2892 -0.624 0.463 -0.630 198 228 238
-25.3319 4.9489 82.1634 -0.723 0.469 -0.506 205 232 241
-24.2939 4.7381 82.7663 -0.446 -0.398 -0.801 176 199 217
-23.5360 4.4289 82.1682 -0.599 -0.156 -0.785 187 210 223
-23.4096 4.3779 82.0719 -0.266 -0.327 -0.907 200 222 234
-22.9598 4.2467 82.0664 -0.287 -0.551 -0.784 195 217 227
-21.7019 3.8255 81.6887 -0.398 -0.517 -0.757 206 227 235
-21.2789 3.7686 82.1285 -0.363 -0.905 -0.223 209 231 238
-21.1050 3.6481 81.6597 -0.571 -0.585 -0.575 213 239 240
-20.9564 3.6035 81.6493 -0.697 -0.594 -0.401 214 239 241
-20.8253 3.5546 81.5765 -0.484 -0.725 -0.490 214 238 240
-20.6824 3.5086 81.5460 -0.486 -0.722 -0.493 214 239 241
-20.5544 3.4590 81.4628 -0.483 -0.717 -0.502 215 239 241
-20.4429 3.4058 81.3232 -0.388 -0.720 -0.575 215 239 241
-18.8332 2.9082 81.1167 -0.530 -0.811 -0.246 179 203 207
-18.7096 2.8584 81.0231 -0.557 -0.786 -0.269 175 201 204
-16.6304 2.1579 80.3693 0.095 -0.648 -0.756 155 175 178
-16.4669 2.1151 80.4002 -0.127 -0.655 -0.745 158 177 179
-16.3159 2.0703 80.3938 -0.251 -0.568 -0.783 158 177 179
-16.2505 2.0129 80.1367 -0.444 -0.772 -0.454 159 178 180
-15.0735 1.7151 80.4272 0.057 -0.098 -0.994 152 173 174
-14.9212 1.6700 80.4212 0.065 -0.094 -0.993 152 173 176
-14.6189 1.5795 80.4020 -0.390 -0.052 -0.919 151 172 177
-14.4795 1.5328 80.3598 -0.332 -0.050 -0.942 151 172 176
-14.3284 1.4874 80.3495 -0.315 -0.022 -0.949 151 172 176
-14.1913 1.4404 80.3010 -0.119 -0.305 -0.945 152 173 177
-13.3904 1.2181 80.3668 -0.239 -0.526 -0.816 156 177 180
-13.2402 1.1723 80.3523 -0.239 -0.526 -0.816 155 176 179
-12.4268 1.0099 80.8433 0.050 0.556 -0.830 154 175 180
-12.2867 0.9626 80.7989 0.030 0.569 -0.822 153 174 179
-12.1399 0.9160 80.7721 0.030 0.569 -0.822 151 171 178
-11.6712 0.7787 80.7622 0.079 0.545 -0.835 150 170 178
-11.5027 0.6747 80.3932 0.104 -0.205 -0.973 151 171 178
-11.4435 0.6209 80.1484 -0.101 -0.465 -0.880 152 173 178
-11.1915 0.5249 79.9950 -0.152 -0.457 -0.877 152 173 178
-11.0588 0.4775 79.9354 -0.036 -0.488 -0.872 152 173 177
-10.9760 0.4264 79.7538 -0.184 -0.544 -0.819 150 174 178
-10.8344 0.3798 79.7169 -0.150 -0.559 -0.815 152 173 178
-10.7406 0.3298 79.5639 -0.030 -0.480 -0.877 152 173 178
-10.6007 0.2832 79.5236 -0.142 -0.398 -0.906 152 173 176
-8.9388 -0.2223 79.3654 -0.435 -0.771 -0.465 153 174 175
-8.8148 -0.2699 79.2879 -0.461 -0.760 -0.459 152 173 174
-8.6628 -0.3159 79.2747 -0.436 -0.764 -0.475 153 174 175
-7.9074 -0.4938 79.5497 -0.155 -0.711 -0.686 153 173 172
-7.7328 -0.5393 79.5845 -0.158 -0.721 -0.675 153 173 172
-7.4313 -0.6323 79.5468 -0.275 -0.695 -0.664 152 172 171
-7.2708 -0.6785 79.5494 -0.331 -0.667 -0.667 152 172 171
-6.8151 -0.8181 79.4990 -0.324 -0.649 -0.689 150 174 178
-6.0780 -1.0519 79.3645 -0.487 -0.675 -0.555 151 175 179
-3.1182 -1.8939 79.4732 -0.174 -0.848 -0.500 173 198 202
-1.7012 -2.2261 79.9995 0.074 -0.407 -0.910 129 150 153
-1.5128 -2.2740 80.0443 0.037 -0.542 -0.840 138 159 160
1.9536 -3.1528 80.8890 0.035 -0.947 -0.318 166 193 219
2.0823 -3.2010 80.8165 0.007 -0.919 -0.394 136 163 189
2.2659 -3.2504 80.8416 -0.119 -0.900 -0.420 105 132 157
2.3910 -3.2985 80.7629 -0.262 -0.854 -0.450 102 129 154
4.4090 -3.8031 81.3013 0.339 -0.769 -0.542 109 143 156
13.4675 -5.8466 85.2017 0.339 0.145 -0.929 200 238 251
13.6170 -5.8982 85.1467 0.257 0.125 -0.958 199 237 250
13.9591 -5.9625 85.3803 0.448 0.075 -0.891 204 242 253
14.4939 -6.0817 85.6197 0.449 0.068 -0.891 143 180 196
15.7371 -6.5399 84.9663 0.088 -0.479 -0.874 143 179 198
18.2451 -7.2558 85.0417 -0.006 -0.983 -0.182 140 165 173
18.7391 -7.3361 85.4628 0.080 -0.962 -0.260 143 164 172
19.7604 -7.5007 86.3426 0.017 -0.961 -0.277 198 221 211
20.1276 -7.5715 86.5811 0.029 -0.958 -0.286 194 218 203
-45.1315 12.4659 92.9417 -0.533 -0.196 -0.823 74 102 120
-44.6769 12.2599 92.4501 -0.857 -0.385 -0.343 125 152 169
-44.5260 12.1739 92.1701 -0.857 -0.385 -0.343 177 204 221
-44.3759 12.0883 91.8916 -0.857 -0.385 -0.343 173 201 215
-43.7732 11.9886 92.3857 -0.289 0.116 -0.950 174 203 205
-43.1710 11.7861 92.2002 0.520 0.247 -0.818 88 108 119
-42.5672 11.5995 92.1221 -0.707 0.525 -0.474 97 118 128
-40.4640 10.8890 91.4506 -0.779 0.284 -0.559 195 211 201
-38.3048 9.9597 89.4388 -0.605 -0.732 -0.314 186 206 209
-32.4569 7.3117 83.1241 0.243 0.077 -0.967 132 147 167
-30.3493 6.9021 84.4503 -0.291 0.158 -0.944 174 194 202
-24.9060 5.0353 82.5276 -0.267 -0.377 -0.887 182 207 212
-24.7510 4.9938 82.5495 -0.260 -0.383 -0.886 175 200 205
-24.6062 4.9484 82.5267 -0.260 -0.383 -0.886 186 208 220
-24.4556 4.9051 82.5287 -0.148 -0.650 -0.746 197 219 232
-24.2898 4.8670 82.5942 -0.628 -0.316 -0.711 194 214 230
-23.9031 4.7144 82.3254 -0.630 -0.316 -0.710 195 214 231
-23.7651 4.6668 82.2749 -0.640 -0.305 -0.705 194 213 232
-23.6345 4.6168 82.1942 -0.636 -0.317 -0.704 193 211 229
-23.3729 4.5172 82.0369 -0.332 -0.358 -0.872 184 204 206
-23.2433 4.4672 81.9544 -0.311 -0.391 -0.866 190 210 210
-23.0952 4.4230 81.9456 -0.296 -0.431 -0.852 197 217 218
-22.9403 4.3808 81.9631 -0.279 -0.561 -0.779 208 228 228
-22.5153 4.2420 81.8590 -0.304 -0.568 -0.765 211 230 231
-21.0972 3.7799 81.5179 -0.571 -0.585 -0.575 181 202 201
-20.9605 3.7324 81.4656 -0.697 -0.594 -0.401 181 202 201
-20.8302 3.6834 81.3909 -0.484 -0.725 -0.490 169 190 189
-20.6963 3.6353 81.3295 -0.484 -0.725 -0.490 160 180 180
-20.5571 3.5886 81.2869 -0.465 -0.733 -0.496 161 181 180
-20.4422 3.5361 81.1598 -0.388 -0.720 -0.575 162 182 181
-19.6859 3.2394 80.6458 -0.209 -0.968 -0.140 138 157 159
-18.8683 3.0326 80.8432 -0.557 -0.786 -0.269 138 158 160
-18.7478 2.9822 80.7411 -0.557 -0.786 -0.269 139 161 162
-17.1306 2.4856 80.5535 -0.151 -0.066 -0.986 152 170 170
-17.0282 2.4329 80.4010 -0.248 -0.067 -0.966 158 175 175
-16.9008 2.3845 80.3246 -0.182 -0.072 -0.981 158 174 175
-16.7591 2.3384 80.2912 -0.172 -0.062 -0.983 157 175 175
-16.5994 2.2952 80.3114 -0.165 -0.155 -0.974 158 175 176
-14.2521 1.8265 81.7062 0.324 0.087 -0.942 154 173 174
-14.0388 1.7882 81.8612 0.238 0.138 -0.962 155 174 175
-13.8239 1.7498 82.0186 -0.071 0.293 -0.953 155 174 176
-13.6769 1.7026 81.9884 -0.091 0.287 -0.954 155 174 175
-7.9338 -0.2494 80.0754 0.071 -0.568 -0.820 152 173 175
-7.7879 -0.2964 80.0441 0.020 -0.566 -0.824 153 174 174
-7.6683 -0.3447 79.9539 0.049 -0.638 -0.769 152 174 174
-3.1727 -1.7052 79.5642 -0.025 0.059 -0.998 152 176 180
-3.0131 -1.7524 79.5574 -0.025 0.059 -0.998 153 177 181
-2.9259 -1.8003 79.4082 -0.151 -0.719 -0.679 155 179 183
6.6938 -4.3511 80.9578 -0.567 0.573 -0.592 187 222 228
6.9341 -4.4044 81.0657 -0.058 0.227 -0.972 190 227 232
7.7217 -4.5257 81.7718 0.349 -0.526 -0.776 192 227 234
13.6181 -5.6981 85.3086 0.327 0.150 -0.933 199 237 250
13.8186 -5.7530 85.3294 0.471 0.221 -0.854 199 237 250
14.7207 -5.9796 85.5579 -0.934 0.079 -0.350 154 193 210
14.9131 -6.2414 84.1952 -0.177 0.702 -0.690 140 178 196
15.5723 -6.5312 83.5406 -0.208 -0.685 -0.698 184 223 237
17.4896 -7.0356 83.8763 -0.006 -0.983 -0.182 181 210 221
19.1288 -7.2865 85.3555 0.086 -0.962 -0.258 129 158 151
-46.0362 13.1858 94.8571 -0.982 0.054 -0.181 247 255 253
-45.0997 12.6254 92.9629 -0.443 -0.031 -0.896 74 102 117
-44.3437 12.1928 91.5641 -0.900 -0.291 -0.324 166 192 206
-42.6801 11.8396 92.3995 -0.471 0.589 -0.657 116 136 142
-42.5306 11.7770 92.2722 -0.683 0.511 -0.522 143 164 168
-40.7380 11.1129 91.3188 -0.601 -0.217 -0.769 197 213 202
-36.6896 9.2385 86.7164 -0.406 -0.631 -0.661 206 224 240
-36.4006 9.1446 86.6491 -0.283 -0.682 -0.675 126 151 169
-32.4136 7.4580 83.1581 -0.230 0.279 -0.932 127 145 160
-30.3579 6.7416 82.3601 0.158 -0.263 -0.952 171 193 200
-25.3319 5.2999 82.4346 -0.579 0.180 -0.795 209 233 237
-25.2059 5.2476 82.3311 -0.579 0.180 -0.795 212 234 239
-25.0863 5.1931 82.2008 -0.649 0.224 -0.728 207 231 235
-24.7498 5.1206 82.3632 -0.235 -0.371 -0.898 175 199 204
-24.4673 5.0277 82.2896 -0.228 -0.383 -0.895 183 203 213
-24.1517 4.9464 82.3542 -0.337 -0.571 -0.749 184 203 218
-24.0082 4.9005 82.3259 -0.326 -0.566 -0.757 189 208 224
-23.8772 4.8505 82.2461 -0.527 -0.469 -0.709 198 217 232
-23.7402 4.8025 82.1915 -0.556 -0.416 -0.719 210 227 241
-21.0896 3.9114 81.3758 -0.560 -0.576 -0.596 148 165 162
-20.9532 3.8639 81.3232 -0.601 -0.542 -0.588 147 164 161
-20.8226 3.8150 81.2501 -0.520 -0.605 -0.604 151 169 166
-20.6913 3.7663 81.1800 -0.477 -0.724 -0.498 154 171 170
-20.5624 3.7171 81.1018 -0.465 -0.733 -0.496 154 171 170
-20.4415 3.6660 80.9968 -0.388 -0.720 -0.575 154 170 170
-18.1678 2.8590 80.0181 -0.427 -0.837 -0.342 154 170 170
-18.0432 2.8102 79.9344 -0.428 -0.792 -0.434 155 169 172
-17.4825 2.6977 80.2592 -0.355 -0.221 -0.908 154 169 172
-17.3297 2.6537 80.2605 -0.306 -0.381 -0.873 154 170 170
-17.1871 2.6079 80.2305 -0.306 -0.381 -0.873 154 170 170
-17.0614 2.5592 80.1496 -0.312 -0.380 -0.871 158 172 172
-16.7461 2.4726 80.1795 -0.123 -0.364 -0.923 158 174 172
-16.5713 2.4320 80.2444 -0.157 -0.473 -0.867 159 174 174
-16.4193 2.3876 80.2412 -0.157 -0.473 -0.867 161 175 175
-15.9547 2.2553 80.2544 -0.245 -0.581 -0.776 161 176 174
-15.4403 2.1297 80.4057 -0.264 -0.448 -0.854 160 177 172
-15.2809 2.0859 80.4204 -0.235 -0.518 -0.823 160 178 173
-15.1390 2.0394 80.3850 0.053 -0.533 -0.844 161 178 173
-14.9559 1.9987 80.4651 0.104 -0.583 -0.806 161 178 174
-14.7880 1.9558 80.5018 0.138 -0.590 -0.796 161 178 173
-14.4062 1.8104 80.2724 -0.103 -0.087 -0.991 152 169 164
-14.3359 1.7547 80.0413 -0.211 0.074 -0.975 152 169 163
-14.2111 1.7062 79.9602 -0.264 0.088 -0.960 152 169 162
-12.7971 1.4295 80.8237 -0.288 -0.920 -0.266 157 170 168
-12.6390 1.3841 80.8263 -0.299 -0.917 -0.265 153 166 165
-12.3176 1.2939 80.8437 -0.261 -0.909 -0.326 153 168 166
-11.5650 1.0622 80.7519 -0.316 -0.874 -0.370 156 175 172
-10.8057 0.8306 80.6726 -0.520 -0.844 -0.135 151 166 165
-10.6985 0.7804 80.5469 -0.530 -0.838 -0.127 153 168 167
-9.8609 0.4387 79.8965 -0.194 -0.920 -0.341 160 175 175
-9.4484 0.3541 80.1226 -0.133 -0.913 -0.386 160 175 173
-5.0172 -0.9994 79.6498 0.092 0.290 -0.953 151 177 178
-4.7435 -1.1953 78.8860 -0.103 -0.927 -0.360 151 179 182
4.6137 -3.5592 81.1185 0.131 -0.825 -0.549 92 121 137
5.7240 -3.7727 81.8217 0.023 -0.903 -0.430 128 157 168
7.0102 -4.2592 81.0719 -0.279 0.024 -0.960 192 226 232
7.0721 -4.3048 80.8909 -0.223 -0.097 -0.970 192 226 234
13.7390 -5.5472 85.3702 0.291 0.023 -0.956 198 235 251
15.2484 -6.2302 83.7576 -0.500 -0.432 -0.751 142 181 198
17.0799 -6.4406 85.8441 -0.301 -0.543 -0.784 161 200 218
15.5616 -6.3740 83.4095 -0.489 -0.584 -0.648 178 218 232
18.4827 -7.0746 84.3510 0.086 -0.962 -0.258 171 207 215
19.0529 -7.1597 84.8724 0.075 -0.965 -0.253 147 182 187
20.5875 -7.4037 86.1778 0.081 -0.951 -0.300 175 206 202
-44.6115 12.5142 92.0841 -0.977 0.020 -0.213 163 190 207
-44.1609 12.3990 92.1804 0.266 -0.850 -0.455 171 198 207
-43.1028 12.1164 92.3286 0.519 0.241 -0.820 103 126 129
-42.6429 12.0242 92.5907 -0.527 0.451 -0.720 184 205 204
-42.2037 11.7746 91.7970 -0.828 0.358 -0.432 189 208 202
-38.5966 10.2157 88.4513 -0.499 -0.860 -0.110 202 223 236
-37.6376 9.7636 87.3188 -0.412 -0.437 -0.799 154 178 190
-37.4956 9.7110 87.2436 -0.412 -0.426 -0.805 169 193 206
-37.3549 9.6565 87.1537 -0.518 -0.450 -0.727 101 125 139
-36.8898 9.8428 89.2260 -0.282 -0.613 -0.738 144 167 183
-36.3098 9.6295 88.9301 -0.592 -0.619 -0.516 144 170 183
-36.3780 9.2724 86.4946 -0.388 -0.545 -0.743 114 141 157
-30.4397 7.2199 84.3085 -0.682 -0.077 -0.728 182 203 208
-30.2675 7.1926 84.4534 -0.285 0.211 -0.935 170 194 198
-25.2138 5.4720 82.7626 -0.502 -0.822 -0.269 209 233 237
-25.0853 5.4201 82.6674 -0.411 -0.839 -0.357 210 234 238
-22.9440 4.6353 81.5904 -0.373 -0.904 -0.209 158 178 177
-22.6305 4.5526 81.6407 -0.334 -0.569 -0.752 155 175 174
-22.4876 4.5069 81.6117 -0.334 -0.569 -0.752 154 174 173
-22.3393 4.4627 81.6031 -0.433 -0.519 -0.737 170 186 185
-21.0825 4.0425 81.2325 -0.560 -0.568 -0.603 158 177 175
-20.9500 3.9941 81.1663 -0.602 -0.536 -0.592 159 178 176
-20.8174 3.9457 81.1010 -0.509 -0.598 -0.619 156 175 173
-20.5545 3.8485 80.9635 -0.515 -0.616 -0.596 155 173 173
-20.4379 3.7964 80.8443 -0.384 -0.700 -0.602 156 174 174
-20.3229 3.7440 80.7204 -0.479 -0.640 -0.600 150 168 168
-20.1646 3.7022 80.7456 -0.511 -0.627 -0.588 152 170 172
-19.8558 3.6165 80.7677 -0.466 -0.663 -0.586 164 182 184
-19.6432 3.5869 80.9734 0.099 -0.146 -0.984 154 172 174
-19.4927 3.5428 80.9687 0.150 -0.191 -0.970 152 170 172
-19.3307 3.5011 81.0020 0.150 -0.191 -0.970 153 171 173
-19.1866 3.4555 80.9756 -0.449 -0.606 -0.656 152 170 172
-19.0613 3.4056 80.8874 -0.526 -0.405 -0.747 155 173 175
-18.9299 3.3572 80.8197 -0.526 -0.379 -0.761 155 173 175
-18.6787 3.2582 80.6481 -0.552 -0.359 -0.753 154 172 174
-15.8121 2.4105 80.5182 -0.360 -0.902 -0.237 162 177 174
-15.6806 2.3624 80.4530 -0.368 -0.902 -0.226 160 177 171
-9.0090 0.2946 79.5370 -0.020 -0.687 -0.726 153 169 169
-8.8181 0.2511 79.6118 -0.015 -0.682 -0.731 152 169 171
-8.6377 0.2067 79.6614 -0.014 -0.689 -0.725 151 169 171
-8.2776 0.1175 79.7574 -0.033 -0.726 -0.686 151 167 170
-8.1010 0.0726 79.7964 -0.033 -0.726 -0.686 151 168 168
-7.8546 -0.0237 79.6339 -0.577 -0.623 -0.528 151 169 167
-7.7067 -0.0704 79.6082 -0.573 -0.655 -0.494 150 169 167
-7.5829 -0.1183 79.5290 -0.533 -0.676 -0.508 150 170 166
-7.4176 -0.1641 79.5417 -0.466 -0.782 -0.414 148 167 165
-6.3498 -0.5952 78.7476 0.238 0.089 -0.967 152 173 176
-6.1920 -0.6413 78.7444 0.316 -0.185 -0.930 152 173 174
-3.7246 -1.2847 79.1900 0.175 -0.667 -0.725 152 178 181
-3.5251 -1.3308 79.2641 0.189 -0.651 -0.736 153 178 181
-3.1173 -1.4233 79.4271 0.211 -0.663 -0.718 154 180 181
-2.8897 -1.4694 79.5540 0.174 -0.652 -0.738 155 180 184
-2.7255 -1.5166 79.5553 0.046 -0.712 -0.701 152 177 181
6.4934 -3.8277 81.8202 0.060 -0.914 -0.400 153 180 187
7.0518 -4.1124 81.0221 -0.385 0.465 -0.797 187 220 227
7.1302 -4.1589 80.8678 -0.378 0.481 -0.791 187 220 227
14.8138 -5.7953 84.6298 -0.871 -0.019 -0.491 139 175 197
15.4631 -6.1292 83.6828 -0.118 0.664 -0.738 137 175 194
17.4445 -6.3048 86.2454 0.171 -0.686 -0.708 162 201 218
15.6790 -6.2258 83.4610 -0.427 0.603 -0.674 174 213 227
15.7088 -6.2687 83.2398 -0.387 0.507 -0.770 192 232 243
19.1983 -7.0511 84.6944 -0.023 -0.970 -0.244 178 214 226
19.5989 -7.1226 84.9796 -0.012 -0.969 -0.246 156 191 201
20.1101 -7.2032 85.4129 0.081 -0.951 -0.300 138 171 179
-47.2499 14.1590 96.6838 0.150 -0.989 -0.000 253 255 252
-44.1284 12.5501 92.1520 0.246 -0.881 -0.404 170 197 206
-42.6101 12.1729 92.5392 -0.481 0.175 -0.859 185 206 196
-42.4613 12.1022 92.3613 -0.815 0.123 -0.567 188 209 198
-42.3140 12.0240 92.1327 -0.815 0.123 -0.567 189 209 199
-40.9783 11.4835 91.1394 -0.512 -0.044 -0.858 195 213 201
-40.8298 11.4287 91.0628 -0.517 -0.067 -0.854 195 214 202
-40.6813 11.3743 90.9885 -0.682 -0.110 -0.723 195 213 201
-37.9010 9.9903 87.2652 -0.498 -0.507 -0.703 202 230 241
-37.7531 9.9483 87.2699 -0.544 -0.520 -0.658 152 180 191
-36.9127 9.6178 86.7059 -0.760 -0.287 -0.584 140 166 181
-36.2885 9.7575 88.7487 -0.587 -0.623 -0.517 134 163 174
-35.0266 8.5900 83.6117 -0.068 -0.629 -0.774 254 253 25
-30.9897 7.5382 84.3277 -0.187 -0.048 -0.981 126 142 156
-30.3999 7.3645 84.3042 -0.669 -0.045 -0.742 176 200 204
-30.2327 7.3341 84.4175 -0.268 0.205 -0.941 170 194 198
-25.4784 5.6985 82.7240 -0.479 -0.875 -0.064 204 229 234
-23.6379 4.9969 81.6307 -0.477 -0.855 -0.203 155 176 175
-22.4699 4.6402 81.5030 -0.334 -0.569 -0.752 159 179 179
-22.3207 4.5964 81.4980 -0.433 -0.519 -0.737 165 181 180
-21.9751 4.4348 81.1024 0.014 -0.353 -0.936 165 181 180
-21.6933 4.3428 81.0334 -0.240 -0.540 -0.807 160 176 175
-21.2788 4.2875 81.4439 0.012 -0.149 -0.989 158 174 173
-21.1656 4.2335 81.3069 -0.139 -0.240 -0.961 155 174 172
-21.1004 4.1667 81.0001 -0.591 -0.559 -0.582 155 174 172
-20.2222 3.8982 80.9022 -0.054 -0.587 -0.808 153 171 171
-19.4923 3.6731 80.8086 -0.568 -0.529 -0.630 156 174 176
-19.3455 3.6282 80.7921 -0.480 -0.563 -0.672 149 167 169
-19.1918 3.5848 80.7981 -0.521 -0.583 -0.624 145 163 165
-19.0707 3.5341 80.6971 -0.389 -0.659 -0.643 151 169 171
-18.3428 2.9396 78.2385 -0.217 -0.661 -0.719 154 170 170
-16.4394 2.6483 79.8839 -0.661 -0.290 -0.692 171 182 184
-16.3203 2.5986 79.7856 -0.689 -0.285 -0.666 169 180 182
-14.7141 2.2342 80.4158 -0.295 -0.955 0.011 174 191 185
-14.3634 2.1505 80.5270 -0.223 -0.975 0.013 171 188 182
-14.1518 2.1135 80.6804 -0.202 -0.979 0.001 173 190 184
-14.0273 2.0642 80.5948 -0.204 -0.979 0.003 172 189 183
-13.5888 1.9253 80.5152 -0.361 -0.932 0.027 163 179 176
-13.3565 1.8901 80.7183 -0.309 -0.950 0.057 165 180 177
-13.2194 1.8425 80.6664 -0.309 -0.950 0.057 160 172 170
-13.0880 1.7941 80.5993 -0.309 -0.949 0.057 164 176 174
-12.9409 1.7478 80.5743 -0.310 -0.949 0.058 168 178 179
-10.6786 1.0561 80.3220 -0.380 -0.922 0.071 169 181 179
-10.4568 0.9562 80.0923 -0.361 -0.930 0.069 175 187 185
-8.8478 0.4429 79.7764 -0.202 -0.967 -0.153 162 176 177
-8.6060 0.3460 79.6025 -0.030 -0.870 -0.492 158 173 176
-7.7220 0.0665 79.4445 -0.573 -0.655 -0.494 153 169 166
-7.4559 -0.0284 79.3282 -0.466 -0.782 -0.414 153 169 166
-7.3236 -0.0759 79.2689 -0.466 -0.782 -0.414 153 169 168
-7.1693 -0.1221 79.2577 -0.306 -0.790 -0.531 154 170 169
-6.6938 -0.3140 78.9071 0.053 -0.149 -0.987 154 170 173
-6.5512 -0.3608 78.8711 0.136 -0.055 -0.989 153 169 171
-6.3717 -0.4058 78.9139 0.115 -0.064 -0.991 151 169 171
-6.2039 -0.4515 78.9311 0.122 -0.064 -0.990 152 171 172
-6.0502 -0.4978 78.9183 0.112 -0.000 -0.994 152 171 173
-5.8548 -0.5425 78.9929 0.023 -0.080 -0.997 151 172 173
-5.2463 -0.6240 79.5934 -0.210 -0.899 -0.385 152 173 174
-4.3622 -0.9582 79.0859 0.087 -0.548 -0.832 154 176 176
-3.4768 -1.1899 79.2368 0.199 -0.486 -0.851 156 177 179
-2.0035 -1.5142 79.8788 0.228 -0.364 -0.903 154 177 179
7.1298 -3.9669 81.0310 -0.371 0.121 -0.920 192 223 228
7.2282 -4.0144 80.9088 -0.378 0.481 -0.791 189 220 225
7.2916 -4.0605 80.7310 -0.376 0.507 -0.776 188 219 227
15.3218 -5.8382 84.1655 -0.762 -0.016 -0.647 138 175 193
15.4762 -5.8899 84.1193 -0.160 0.591 -0.791 147 186 203
15.9008 -6.0841 83.6604 -0.409 0.597 -0.690 174 213 227
19.6402 -7.0058 84.6600 0.081 -0.951 -0.300 185 221 236
20.0870 -7.0806 85.0050 0.086 -0.950 -0.299 173 207 219
21.0496 -7.2368 85.7806 0.061 -0.969 -0.240 139 160 156
-45.3093 13.2413 93.3286 -0.789 -0.005 -0.615 81 113 131
-45.1551 13.1494 93.0288 -0.578 0.391 -0.717 76 108 128
-42.5757 12.3343 92.5703 -0.475 0.167 -0.864 186 206 192
-42.4251 12.2754 92.4720 -0.496 0.167 -0.852 188 209 195
-42.2737 12.2242 92.4235 -0.522 0.195 -0.830 187 208 194
-38.0096 10.1880 87.3118 -0.817 -0.267 -0.511 200 230 240
-37.8737 10.1233 87.1499 -0.498 -0.507 -0.703 196 226 236
-37.7267 10.0800 87.1440 -0.544 -0.520 -0.658 154 184 194
-37.4457 9.9699 86.9596 -0.480 -0.506 -0.717 180 210 220
-37.3030 9.9194 86.8998 -0.480 -0.506 -0.717 86 116 127
-36.2641 9.8897 88.6026 -0.579 -0.633 -0.514 128 158 169
-34.9994 8.7223 83.5245 -0.454 0.336 -0.825 246 254 23
-30.3420 7.5217 84.4109 -0.252 0.232 -0.939 169 193 197
-30.1724 7.4928 84.5364 -0.288 0.205 -0.936 171 194 198
-29.5172 7.2195 84.0011 -0.380 0.046 -0.924 187 216 224
-29.3677 7.1769 84.0040 -0.394 0.061 -0.917 192 222 230
-28.6568 6.9414 83.8090 -0.492 -0.286 -0.822 200 227 236
-28.5194 6.8916 83.7442 -0.492 -0.286 -0.822 200 227 236
-28.1973 6.8185 83.8679 -0.426 -0.614 -0.665 200 227 234
-28.0654 6.7656 83.7740 -0.409 -0.640 -0.651 203 230 237
-27.4832 6.7055 84.4531 -0.369 -0.927 -0.071 203 231 235
-23.9338 5.2102 81.4604 -0.509 -0.840 -0.189 157 180 172
-23.7822 5.1680 81.4695 -0.566 -0.787 -0.245 157 180 172
-23.0683 4.9410 81.3335 -0.450 -0.680 -0.579 160 180 179
-22.9202 4.8973 81.3271 -0.269 -0.710 -0.651 159 179 178
-22.7697 4.8543 81.3291 -0.232 -0.699 -0.677 159 179 178
-22.6211 4.8107 81.3233 -0.232 -0.699 -0.677 159 179 178
-22.4766 4.7656 81.3016 -0.224 -0.631 -0.743 159 179 178
-22.2946 4.7322 81.4219 -0.384 -0.498 -0.777 164 181 179
-20.9722 4.2457 80.7529 -0.296 -0.720 -0.628 156 175 173
-20.8234 4.2019 80.7463 -0.320 -0.727 -0.607 155 174 172
-20.3269 4.0829 80.8981 -0.092 -0.159 -0.983 155 173 173
-20.1851 4.0369 80.8652 -0.082 -0.175 -0.981 154 172 172
-19.8648 3.9540 80.9240 -0.503 -0.554 -0.663 154 172 174
-19.7417 3.9033 80.8277 -0.545 -0.541 -0.640 154 172 174
-19.6095 3.8550 80.7625 -0.588 -0.529 -0.612 159 177 179
-19.4818 3.8056 80.6825 -0.588 -0.529 -0.612 158 176 178
-19.3543 3.7562 80.6027 -0.588 -0.529 -0.612 154 172 174
-18.4955 3.4822 80.4335 -0.165 -0.117 -0.979 155 173 175
-18.3580 3.4353 80.3870 -0.269 -0.008 -0.963 155 173 175
-17.7399 3.3368 80.8891 -0.486 -0.851 -0.200 149 165 165
-9.0249 0.5667 79.2373 -0.050 -0.877 -0.478 113 127 127
-8.8384 0.5233 79.3026 -0.030 -0.870 -0.492 116 130 131
-6.5427 -0.1689 79.1042 -0.147 -0.842 -0.519 157 171 172
-6.4761 -0.2196 78.9050 0.058 -0.145 -0.988 159 175 175
-6.3087 -0.2652 78.9216 0.058 -0.145 -0.988 162 178 178
-6.1410 -0.3108 78.9382 0.058 -0.145 -0.988 158 174 174
-5.9732 -0.3565 78.9548 0.058 -0.145 -0.988 156 172 172
-4.3455 -0.8186 78.9958 0.087 -0.548 -0.832 153 171 171
-3.9763 -0.9103 79.0878 0.101 -0.498 -0.861 162 182 181
-3.1138 -1.1428 79.1880 -0.032 -0.365 -0.930 156 176 175
5.4282 -3.3196 80.9717 0.037 -0.936 -0.349 76 104 115
7.4227 -3.7384 81.9535 0.259 -0.866 -0.427 122 152 160
7.6589 -3.8361 81.7658 0.342 -0.734 -0.586 197 227 235
15.3799 -5.6844 84.1320 -0.767 -0.011 -0.641 124 161 179
15.5333 -5.7362 84.0842 -0.667 -0.183 -0.722 150 189 204
15.4443 -5.8151 83.4236 -0.531 -0.344 -0.774 145 184 201
16.0440 -6.1022 82.6995 -0.786 0.372 -0.493 195 235 245
21.1080 -7.1198 85.4821 0.093 -0.918 -0.386 151 175 175
-46.8351 14.1350 95.1314 0.078 -0.996 -0.046 252 254 253
-43.4516 12.8151 92.9598 -0.648 0.155 -0.746 170 194 188
-43.3000 12.7575 92.8725 -0.643 0.145 -0.752 180 202 195
-43.1492 12.6915 92.7308 -0.643 0.145 -0.752 189 210 201
-42.9988 12.6257 92.5894 -0.643 0.145 -0.752 190 208 198
-42.8528 12.5193 92.1868 -0.832 -0.035 -0.553 192 208 198
-37.8151 10.6471 89.5357 -0.670 -0.649 -0.362 200 230 240
-37.8476 10.2539 87.0193 -0.487 0.338 -0.806 192 222 232
-37.7023 10.2078 86.9920 -0.370 -0.260 -0.892 153 183 193
-37.5580 10.1597 86.9504 -0.357 -0.235 -0.904 163 193 203
-37.4140 10.1112 86.9062 -0.357 -0.235 -0.904 175 205 215
-37.2648 10.0717 86.9276 -0.453 -0.148 -0.879 89 119 129
-36.1562 9.6223 86.1100 -0.715 -0.460 -0.527 153 173 190
-34.6709 8.7870 83.5576 -0.286 -0.096 -0.953 240 253 21
-31.0330 7.8902 84.4882 -0.106 -0.180 -0.978 123 136 154
-30.8856 7.8465 84.4803 -0.106 -0.180 -0.978 118 134 149
-29.9153 7.4978 84.0435 -0.288 -0.253 -0.924 171 193 199
-29.7114 7.4911 84.3684 -0.505 -0.593 -0.627 175 200 207
-29.6205 7.4103 84.0269 -0.420 -0.488 -0.765 180 208 217
-29.4455 7.3840 84.1769 -0.628 -0.592 -0.506 187 216 224
-29.2940 7.3424 84.1889 -0.771 -0.476 -0.423 193 223 233
-29.0044 7.2506 84.1356 -0.555 -0.706 -0.440 196 225 235
-27.8430 6.8841 83.9313 -0.384 -0.920 -0.071 201 228 235
-27.7072 6.8331 83.8567 -0.384 -0.920 -0.071 213 241 245
-27.5719 6.7820 83.7799 -0.399 -0.914 -0.073 214 242 246
-26.5941 6.3275 82.6961 -0.468 -0.882 -0.052 152 177 182
-23.8979 5.4470 82.0367 -0.187 0.051 -0.981 157 181 167
-22.2637 4.8695 81.3634 0.256 -0.510 -0.821 162 180 180
-19.6213 3.9817 80.5617 -0.478 -0.612 -0.631 146 164 166
-19.4729 3.9374 80.5513 -0.596 -0.530 -0.603 144 162 164
-16.2387 2.8758 79.7269 -0.344 -0.672 -0.656 85 99 99
-14.1711 2.2449 79.4983 -0.434 -0.788 -0.437 96 113 107
-11.5429 1.2409 77.9444 -0.381 -0.923 0.063 101 113 111
-7.5060 0.2430 78.9609 -0.532 -0.681 -0.503 75 91 88
-6.5977 -0.0343 78.8594 0.067 -0.155 -0.986 98 114 114
-6.4295 -0.0797 78.8780 0.067 -0.155 -0.986 103 119 119
-6.2610 -0.1252 78.8966 0.067 -0.155 -0.986 114 130 130
-6.0923 -0.1707 78.9152 0.067 -0.155 -0.986 120 136 136
-5.9233 -0.2162 78.9339 0.067 -0.155 -0.986 125 141 141
-5.7484 -0.2616 78.9647 0.026 -0.092 -0.995 130 148 148
-5.2342 -0.3987 79.0319 -0.238 -0.895 -0.377 152 170 170
-5.0884 -0.4456 79.0006 -0.281 -0.866 -0.414 160 178 178
-4.8288 -0.4878 79.2029 -0.321 -0.924 -0.206 165 183 183
-4.3288 -0.6791 78.9057 0.087 -0.548 -0.832 166 182 181
-4.1427 -0.7247 78.9550 0.150 -0.504 -0.850 164 180 179
-3.9538 -0.7703 79.0094 0.101 -0.498 -0.861 161 178 177
-3.4309 -0.9091 79.0815 -0.098 -0.340 -0.935 159 175 174
-3.2655 -0.9558 79.0870 -0.145 -0.329 -0.933 156 172 170
-3.0468 -1.0010 79.1970 -0.153 -0.676 -0.721 158 173 171
13.8467 -5.1843 83.4033 0.100 -0.856 -0.507 142 177 196
15.7408 -5.7189 83.4653 -0.178 -0.536 -0.825 140 177 194
15.9077 -5.7712 83.4381 -0.499 0.077 -0.863 175 212 227
21.2586 -7.0103 85.3081 0.041 -0.924 -0.381 182 215 219
21.5605 -7.0741 85.4514 0.070 -0.904 -0.423 155 187 189
21.9408 -7.1441 85.6972 0.154 -0.854 -0.497 138 169 167
22.6917 -7.2842 86.1712 0.154 -0.854 -0.497 204 230 218
23.1446 -7.3606 86.5073 0.104 -0.902 -0.420 200 228 214
-54.4880 18.0115 104.4696 -0.947 0.043 -0.319 251 255 254
-43.5666 13.0988 93.4767 -0.509 -0.276 -0.815 181 201 189
-43.4170 12.9924 93.0842 -0.878 -0.134 -0.459 182 203 191
-43.1198 12.7992 92.4166 -0.956 -0.102 -0.276 188 206 195
-42.5284 12.4838 91.5162 -0.305 0.426 -0.852 195 211 200
-41.6018 12.3200 92.1483 -0.580 -0.809 -0.092 193 217 205
-37.8349 10.3588 86.7067 -0.635 -0.534 -0.559 181 211 221
-37.6741 10.3425 86.8912 -0.333 -0.319 -0.887 161 191 201
-37.5296 10.2950 86.8541 -0.333 -0.319 -0.887 166 194 205
-37.3819 10.2530 86.8566 -0.357 -0.235 -0.904 163 191 202
-37.2378 10.2047 86.8134 -0.401 -0.172 -0.900 99 127 138
-34.7851 8.9642 83.4962 -0.042 -0.138 -0.990 251 253 19
-34.5991 8.9703 83.8639 -0.215 -0.152 -0.965 250 247 11
-30.9879 8.0398 84.5202 -0.373 -0.019 -0.928 129 142 159
-30.8500 7.9889 84.4502 -0.106 -0.180 -0.978 141 157 170
-30.6660 7.9722 84.6735 -0.722 -0.357 -0.593 144 160 171
-30.4129 7.8538 84.3907 -0.802 0.120 -0.585 131 150 155
-30.2928 7.7907 84.2132 -0.802 0.120 -0.585 164 183 188
-30.0087 7.6958 84.1309 -0.388 -0.299 -0.872 173 192 197
-29.6934 7.6217 84.2320 -0.504 -0.628 -0.593 175 200 204
-29.5963 7.5446 83.9279 -0.420 -0.488 -0.765 182 209 215
-29.4326 7.5114 84.0128 -0.637 -0.579 -0.509 188 216 223
-29.2901 7.4642 83.9744 -0.691 -0.542 -0.479 193 221 229
-28.7911 7.3666 84.2561 -0.475 -0.875 -0.095 199 225 232
-26.6301 6.2080 80.9276 -0.443 0.121 -0.888 153 178 185
-25.5685 6.1414 82.4000 -0.430 -0.048 -0.902 148 171 177
-25.4631 6.0792 82.2024 -0.297 -0.327 -0.897 145 168 174
-25.3278 6.0302 82.1396 -0.275 -0.183 -0.944 151 172 177
-25.1781 5.9874 82.1407 -0.287 -0.235 -0.929 153 174 179
-25.0199 5.9480 82.1780 -0.232 -0.406 -0.884 156 177 182
-24.8582 5.9099 82.2294 -0.430 -0.240 -0.870 158 179 184
-24.7139 5.8645 82.2048 -0.405 -0.244 -0.881 158 179 184
-24.5665 5.8204 82.1937 -0.392 -0.247 -0.886 159 180 184
-24.4324 5.7709 82.1255 -0.366 -0.277 -0.889 158 180 177
-24.2953 5.7227 82.0707 -0.262 -0.278 -0.924 156 179 172
-24.1594 5.6741 82.0113 -0.317 -0.309 -0.897 156 179 168
-23.4535 5.3445 81.2262 -0.737 -0.052 -0.674 156 178 174
-23.1646 5.2550 81.1857 -0.754 -0.120 -0.646 156 178 175
-22.2967 5.0783 81.6339 -0.395 -0.866 -0.308 157 178 178
-13.9930 2.2703 79.0089 -0.468 -0.840 -0.276 88 104 101
-13.9032 2.2171 78.8394 -0.414 -0.864 -0.285 90 106 103
-11.8586 1.4608 77.7911 -0.254 -0.950 -0.184 99 114 111
-11.4141 1.3267 77.7511 -0.268 -0.945 -0.188 101 113 113
-11.0451 1.3046 78.2695 -0.243 -0.826 -0.509 102 114 112
-6.7927 0.1466 78.6564 -0.219 -0.830 -0.513 98 114 113
-4.3121 -0.5397 78.8157 0.087 -0.548 -0.832 103 119 118
-4.1205 -0.5849 78.8760 0.150 -0.504 -0.850 111 127 126
-3.9312 -0.6304 78.9311 0.101 -0.498 -0.861 127 143 142
-3.7509 -0.6762 78.9676 0.109 -0.496 -0.862 138 154 151
-3.5723 -0.7222 79.0001 0.072 -0.370 -0.926 148 164 161
-3.3964 -0.7684 79.0268 -0.098 -0.340 -0.935 160 176 173
-3.2310 -0.8150 79.0321 -0.145 -0.329 -0.933 174 189 186
-3.0702 -0.8618 79.0284 -0.081 -0.331 -0.940 175 187 183
0.9246 -1.7502 80.6254 -0.157 -0.975 -0.158 157 176 170
0.7627 -1.8988 79.4192 0.133 -0.712 -0.689 155 176 171
3.0147 -2.5719 79.2541 -0.203 -0.842 -0.499 148 176 171
7.3988 -3.4841 81.3947 0.246 -0.873 -0.421 113 144 151
7.9058 -3.5437 81.9265 0.333 -0.833 -0.441 176 207 215
13.5629 -4.9713 83.1400 -0.458 -0.714 -0.529 167 203 218
13.7238 -5.0229 83.1064 0.100 -0.856 -0.507 144 179 198
14.0029 -5.0805 83.2455 0.136 -0.846 -0.515 143 175 196
15.2836 -5.3216 84.0275 -0.621 -0.513 -0.592 172 207 227
15.7401 -5.5625 83.3484 -0.189 -0.527 -0.829 147 184 202
15.9496 -5.6172 83.3816 -0.175 -0.527 -0.832 166 203 218
16.0415 -5.7075 82.9868 -0.821 -0.059 -0.568 195 233 242
21.8458 -6.9744 85.4551 0.229 -0.750 -0.620 174 209 215
22.1796 -7.0406 85.6382 0.228 -0.753 -0.617 163 192 192
22.5260 -7.1079 85.8365 0.167 -0.768 -0.618 117 142 138
23.2979 -7.2493 86.3323 0.105 -0.901 -0.420 197 223 218
-54.2568 18.0597 104.0507 -0.907 -0.193 -0.375 253 255 252
-46.7519 14.3197 94.3310 -0.011 -0.979 -0.204 246 254 253
-43.2294 13.1222 93.1820 -0.672 0.122 -0.730 193 211 197
-42.9273 12.9850 92.8725 -0.867 -0.298 -0.399 192 208 195
-42.1744 12.6742 92.2910 -0.756 -0.636 -0.157 193 211 201
-37.6477 10.4739 86.7680 -0.357 -0.355 -0.864 166 196 206
-37.5044 10.4242 86.7155 -0.373 -0.359 -0.856 167 197 207
-37.3499 10.3949 86.8071 -0.357 -0.235 -0.904 155 183 194
-36.9099 10.5565 88.5670 -0.554 -0.578 -0.600 148 176 188
