ply
format ascii 1.0
element vertex 868
property float x
property float y
property float z
property float nx
property float ny
property float nz
property uchar diffuse_red
property uchar diffuse_green
property uchar diffuse_blue
end_header
-0.4182 2.2745 75.7869 -0.044 -0.586 -0.809 172 199 218
-0.2695 2.2542 75.7812 -0.031 -0.610 -0.792 134 161 180
-0.1209 2.2338 75.7749 -0.088 -0.617 -0.782 150 177 196
0.0286 2.2115 75.7620 -0.046 -0.641 -0.766 105 132 151
0.1805 2.1834 75.7285 -0.239 -0.606 -0.759 87 114 133
1.0670 1.7344 74.4570 0.085 -0.750 -0.656 101 129 150
1.3722 1.6601 74.3223 -0.409 -0.631 -0.659 163 191 212
2.3922 1.5081 74.2348 0.383 -0.645 -0.661 85 112 133
2.6653 1.5150 74.3908 0.329 -0.695 -0.639 107 134 155
2.9403 1.5187 74.5358 0.350 -0.716 -0.604 166 193 214
3.2274 1.4879 74.5564 -0.435 -0.676 -0.594 98 125 144
5.0096 1.6357 75.9628 0.218 -0.693 -0.688 86 112 129
13.5453 0.4404 75.5201 -0.646 -0.111 -0.755 197 228 246
15.0162 0.4499 76.2566 -0.282 0.488 -0.826 159 188 206
15.1597 0.4309 76.2534 -0.308 0.457 -0.834 159 188 206
15.3028 0.4111 76.2467 -0.118 0.538 -0.834 159 188 206
15.4438 0.3833 76.2089 -0.118 0.538 -0.834 158 186 207
15.7296 0.3437 76.1958 0.499 -0.832 -0.241 158 186 207
15.8826 0.3598 76.3293 0.588 -0.774 -0.236 157 185 206
16.0498 0.4233 76.6487 0.677 -0.645 -0.354 155 183 204
16.2143 0.4738 76.9172 0.736 -0.389 -0.554 155 183 204
16.8633 0.6191 77.7747 0.656 -0.589 -0.472 152 183 201
22.6178 -0.6555 75.7079 -0.293 -0.609 -0.737 188 217 235
24.2910 -0.2398 78.0730 0.461 -0.658 -0.595 60 74 93
28.7876 -0.0612 80.8885 -0.259 -0.295 -0.920 138 162 174
32.9798 -0.3718 81.7140 0.234 -0.696 -0.679 144 174 182
33.3044 -0.3845 81.8205 0.318 -0.632 -0.707 152 182 190
33.4696 -0.3887 81.8834 0.313 -0.644 -0.698 153 183 191
36.7894 0.5770 87.1075 0.466 -0.763 -0.449 194 228 241
36.0838 -1.4907 78.9718 0.530 -0.508 -0.679 109 141 159
36.2685 -1.4783 79.1068 0.530 -0.508 -0.679 121 154 171
40.0252 -0.2280 85.6121 0.259 -0.813 -0.522 94 115 127
40.2083 -0.2274 85.7018 0.259 -0.813 -0.522 92 112 123
-35.5086 6.7204 75.2523 0.370 -0.204 -0.906 165 195 199
-30.3905 7.8825 82.0287 -0.201 -0.649 -0.733 133 164 170
-30.2112 7.8544 82.0084 -0.121 -0.608 -0.785 136 165 173
-30.0378 7.8304 82.0004 -0.121 -0.608 -0.785 135 164 172
-28.1794 7.1080 80.1751 0.474 -0.880 -0.031 117 149 168
-24.9341 6.8366 80.6958 -0.462 -0.596 -0.657 183 226 245
-24.5910 6.7852 80.6657 -0.534 -0.514 -0.671 170 213 234
-23.6658 6.3882 79.6169 -0.774 -0.353 -0.525 168 211 246
-16.9884 6.4579 83.0402 -0.197 -0.928 -0.317 157 186 204
-14.8418 4.7683 77.7291 -0.096 -0.641 -0.761 126 155 171
-14.5244 4.7242 77.7145 -0.209 -0.633 -0.745 123 152 168
-11.1130 2.1763 69.7879 0.418 0.229 -0.879 137 168 186
-11.8610 3.7833 75.4520 -0.320 -0.339 -0.885 143 171 192
-11.3288 3.7869 75.7176 -0.110 0.046 -0.993 144 172 193
-11.1722 3.7622 75.6991 -0.110 0.046 -0.993 145 173 194
-11.0157 3.7374 75.6805 -0.110 0.046 -0.993 145 173 194
-10.2109 3.5859 75.4940 -0.074 -0.101 -0.992 143 174 194
-10.0386 3.5419 75.4107 0.371 -0.062 -0.926 143 174 194
-9.8876 3.5223 75.4089 0.122 -0.147 -0.982 143 174 194
-9.7445 3.5119 75.4380 0.114 -0.146 -0.983 144 175 195
-9.5845 3.4817 75.4004 -0.001 -0.236 -0.972 144 175 193
-9.4428 3.4731 75.4353 -0.174 -0.293 -0.940 142 171 189
-9.2952 3.4574 75.4466 0.107 -0.197 -0.975 142 171 187
-6.8696 3.1192 75.3287 0.181 -0.555 -0.812 186 217 235
-5.9868 3.2188 76.1197 -0.104 -0.635 -0.766 166 196 220
-5.8292 3.1895 76.0848 -0.193 -0.655 -0.730 172 202 226
-3.2296 2.7821 75.7901 -0.239 -0.559 -0.794 161 193 214
-3.0760 2.7554 75.7627 -0.239 -0.559 -0.794 175 207 228
-2.9234 2.7300 75.7400 -0.187 -0.571 -0.799 151 183 204
-1.6017 2.5905 75.8435 -0.408 -0.492 -0.769 141 170 186
-1.1465 2.5148 75.7754 -0.184 -0.676 -0.713 155 182 199
-0.6977 2.4497 75.7443 -0.186 -0.611 -0.770 164 191 208
-0.5464 2.4241 75.7201 -0.129 -0.618 -0.776 165 192 211
-0.3974 2.4031 75.7121 -0.129 -0.618 -0.776 164 191 210
-0.2500 2.3855 75.7157 -0.052 -0.672 -0.738 140 167 186
-0.0986 2.3589 75.6879 -0.214 -0.657 -0.723 150 177 196
0.0528 2.3323 75.6599 -0.189 -0.665 -0.722 103 130 149
0.2048 2.3037 75.6248 -0.239 -0.606 -0.759 87 114 133
4.7065 1.3630 74.2339 0.250 -0.545 -0.800 105 131 148
5.8713 1.1264 73.8995 0.504 -0.205 -0.839 138 164 181
8.1512 0.7707 73.6469 -0.221 -0.379 -0.899 187 216 232
14.2119 0.1570 74.2190 0.158 -0.931 -0.327 158 187 205
16.3903 0.6278 77.0137 0.729 -0.325 -0.602 160 188 209
17.0335 -0.1248 74.4999 -0.677 -0.735 -0.024 198 229 247
28.5242 0.1255 80.8792 -0.148 -0.250 -0.957 132 154 165
28.6785 0.1139 80.9086 0.114 -0.132 -0.985 138 160 171
28.8188 0.0871 80.8748 -0.160 -0.241 -0.957 161 185 197
33.0038 -0.2314 81.6640 0.072 -0.846 -0.529 146 176 186
33.1692 -0.2350 81.7288 0.055 -0.849 -0.526 146 176 184
33.3303 -0.2426 81.7767 0.059 -0.842 -0.536 147 177 185
33.4864 -0.2544 81.8065 0.113 -0.819 -0.563 149 180 185
33.6513 -0.2588 81.8678 0.118 -0.813 -0.570 149 179 187
36.7520 0.6769 86.8408 0.071 -0.654 -0.753 197 231 243
-31.5419 8.2622 82.2720 -0.041 -0.549 -0.835 130 158 169
-30.1731 7.9898 81.9032 -0.340 -0.723 -0.601 142 171 178
-25.9026 6.2100 77.2958 -0.671 -0.416 -0.614 176 213 235
-25.7145 6.1690 77.2319 -0.675 -0.290 -0.678 175 216 238
-24.9592 7.0159 80.7368 -0.478 -0.619 -0.624 183 225 246
-24.7716 6.9779 80.6840 -0.505 -0.596 -0.625 178 220 241
-16.8647 6.5043 82.6461 -0.239 -0.932 -0.272 179 208 226
-14.8084 4.8924 77.6204 -0.096 -0.641 -0.761 131 160 178
-14.6513 4.8719 77.6179 -0.096 -0.641 -0.761 135 164 182
-14.4735 4.8305 77.5476 -0.253 -0.623 -0.741 130 159 177
-11.8431 3.9182 75.3939 -0.320 -0.339 -0.885 143 171 192
-11.6850 3.8916 75.3692 -0.301 -0.357 -0.884 144 172 193
-8.7354 3.7597 76.2677 -0.298 -0.591 -0.749 190 219 235
-8.5708 3.7243 76.2135 -0.285 -0.590 -0.756 176 207 225
-8.4091 3.6923 76.1707 -0.306 -0.565 -0.766 180 211 229
-6.8283 3.2215 75.1642 0.033 -0.516 -0.856 187 218 236
-5.9586 3.3396 76.0132 -0.167 -0.574 -0.802 167 197 221
-3.2066 2.9084 75.7053 -0.210 -0.560 -0.801 159 191 212
-3.0515 2.8788 75.6684 -0.239 -0.559 -0.794 178 210 231
-2.2140 2.8664 76.0166 -0.311 -0.439 -0.843 158 187 203
-2.0637 2.8454 76.0093 -0.530 -0.441 -0.724 161 190 206
-1.2701 2.6548 75.6744 -0.184 -0.676 -0.713 159 186 203
-1.1195 2.6313 75.6578 -0.184 -0.676 -0.713 150 177 194
-0.6670 2.5578 75.5974 -0.108 -0.673 -0.732 162 189 206
-0.3710 2.5197 75.5951 -0.054 -0.660 -0.749 160 187 206
-0.2225 2.4994 75.5896 -0.044 -0.675 -0.736 143 170 189
-0.0727 2.4762 75.5738 -0.214 -0.657 -0.723 149 176 195
0.0786 2.4494 75.5453 -0.189 -0.665 -0.722 102 129 148
0.2344 2.4118 75.4792 -0.339 -0.616 -0.711 88 115 134
1.5710 1.8583 74.0500 -0.034 -0.511 -0.859 167 195 216
1.7135 1.8444 74.0655 -0.097 -0.468 -0.878 122 150 171
1.8594 1.8220 74.0508 -0.069 -0.461 -0.885 92 120 141
2.0036 1.8036 74.0506 -0.065 -0.463 -0.884 101 128 149
2.1490 1.7818 74.0377 -0.089 -0.409 -0.908 94 121 142
2.2886 1.7761 74.0822 -0.041 -0.505 -0.862 95 122 143
2.4323 1.7587 74.0855 -0.041 -0.505 -0.862 95 122 143
2.5770 1.7386 74.0787 -0.041 -0.526 -0.849 96 123 144
2.7202 1.7227 74.0869 -0.103 -0.566 -0.818 105 132 153
2.8646 1.7031 74.0822 -0.103 -0.566 -0.818 172 199 220
3.0090 1.6836 74.0775 -0.103 -0.566 -0.818 176 203 224
3.8487 1.6519 74.3552 -0.177 -0.847 -0.501 111 138 157
3.9951 1.6254 74.3257 -0.183 -0.847 -0.499 108 135 154
4.1559 1.5468 74.1089 -0.359 -0.606 -0.710 123 150 169
4.4562 1.4602 73.9285 0.151 -0.179 -0.972 168 194 211
4.5884 1.4844 74.0805 0.230 -0.566 -0.791 129 155 172
4.7265 1.4865 74.1536 0.209 -0.554 -0.806 105 131 148
4.8655 1.4864 74.2184 0.157 -0.542 -0.826 99 125 142
5.0058 1.4815 74.2665 -0.293 -0.380 -0.877 98 124 141
5.1517 1.4533 74.2300 -0.293 -0.380 -0.877 98 124 141
5.2971 1.4262 74.1978 -0.133 -0.838 -0.530 98 124 141
5.7500 1.2603 73.7942 -0.051 -0.013 -0.999 154 180 197
5.8856 1.2761 73.9170 0.011 -0.270 -0.963 137 163 180
6.0389 1.2025 73.7154 -0.137 -0.171 -0.976 137 163 180
8.1651 0.9473 73.7675 0.397 -0.481 -0.781 186 215 231
13.5961 0.7778 75.6945 -0.752 -0.218 -0.622 195 226 244
14.2100 0.1834 73.7734 -0.049 -0.873 -0.486 162 191 209
17.1504 -0.1319 73.9854 -0.796 -0.602 -0.069 194 225 243
22.5119 0.1031 77.3837 -0.139 -0.203 -0.969 188 221 238
22.8174 0.0961 77.5017 -0.173 -0.034 -0.984 187 220 237
42.2065 1.3546 91.3117 0.744 -0.457 -0.487 75 100 107
-34.7313 9.5206 84.7995 -0.048 -0.858 -0.511 162 196 212
-30.3174 8.1553 81.8248 -0.352 -0.714 -0.605 132 161 166
-30.0937 8.0961 81.7110 -0.449 -0.747 -0.491 95 124 129
-28.0597 7.6338 80.9562 -0.389 -0.212 -0.896 170 203 220
-27.8766 7.6011 80.9212 -0.397 -0.215 -0.892 168 203 222
-24.4818 7.0204 80.3665 -0.488 -0.607 -0.628 170 213 232
-14.6180 4.9959 77.5093 -0.096 -0.641 -0.761 133 162 180
-14.4398 4.9538 77.4372 -0.256 -0.613 -0.748 136 165 181
-9.0313 3.9468 76.2512 -0.533 -0.282 -0.798 156 185 199
-8.8860 3.9360 76.2792 -0.458 -0.463 -0.759 131 160 176
-8.7156 3.8935 76.2023 -0.458 -0.463 -0.759 194 225 243
-8.5414 3.8458 76.1075 -0.285 -0.590 -0.756 171 202 222
-8.3812 3.8155 76.0707 -0.285 -0.590 -0.756 185 216 236
-8.1550 3.6999 75.7497 -0.509 -0.243 -0.825 171 204 223
-6.3860 3.3309 75.2154 0.133 -0.921 -0.366 164 196 215
-6.2541 3.3364 75.2977 -0.692 -0.464 -0.553 184 215 235
-5.9330 3.4639 75.9189 -0.167 -0.574 -0.802 168 196 220
-5.7722 3.4296 75.8673 -0.245 -0.600 -0.761 175 203 227
-3.1838 3.0346 75.6209 -0.203 -0.561 -0.802 159 191 212
-3.0297 3.0068 75.5901 -0.210 -0.560 -0.801 178 209 230
-2.1928 2.9958 75.9414 -0.311 -0.439 -0.843 159 188 203
-2.0405 2.9708 75.9206 -0.468 -0.434 -0.770 162 191 206
-1.8778 2.9260 75.8311 -0.492 -0.386 -0.780 162 189 206
-1.4833 2.6998 75.1807 -0.135 -0.765 -0.629 137 164 181
-1.3438 2.6968 75.2349 -0.403 -0.683 -0.610 151 178 195
-0.9642 2.7692 75.6799 -0.334 -0.373 -0.866 162 189 206
-0.6410 2.6755 75.4853 -0.108 -0.673 -0.732 163 189 206
-0.3459 2.6389 75.4882 -0.054 -0.660 -0.749 159 186 203
-0.1975 2.6185 75.4824 -0.043 -0.670 -0.741 143 170 187
-0.0469 2.5933 75.4598 -0.214 -0.657 -0.723 149 176 193
0.1043 2.5663 75.4309 -0.189 -0.665 -0.722 102 129 148
0.2562 2.5375 75.3959 -0.333 -0.627 -0.705 88 115 134
1.5896 1.9877 73.9899 -0.031 -0.501 -0.865 168 196 217
1.7333 1.9708 73.9947 -0.041 -0.505 -0.862 121 149 170
1.8772 1.9534 73.9980 -0.041 -0.505 -0.862 92 120 141
2.0210 1.9361 74.0013 -0.041 -0.505 -0.862 98 124 145
2.1648 1.9187 74.0046 -0.041 -0.505 -0.862 88 114 135
2.3086 1.9014 74.0079 -0.041 -0.505 -0.862 88 114 136
2.4524 1.8841 74.0112 -0.041 -0.505 -0.862 88 114 136
2.5949 1.8701 74.0265 -0.092 -0.639 -0.763 93 119 140
2.7386 1.8527 74.0294 -0.096 -0.640 -0.762 107 133 155
4.0438 1.6487 73.8872 -0.046 -0.259 -0.965 107 134 153
4.1887 1.6246 73.8662 -0.053 -0.240 -0.969 124 151 170
4.3294 1.6154 73.8980 0.011 -0.042 -0.999 158 184 201
4.4721 1.5993 73.9054 0.151 -0.179 -0.972 169 195 211
4.6152 1.5814 73.9062 0.132 -0.183 -0.974 130 156 173
4.7544 1.5788 73.9619 -0.060 -0.237 -0.970 105 131 147
4.8979 1.5593 73.9571 -0.076 -0.248 -0.966 99 125 141
5.0428 1.5336 73.9300 -0.071 -0.244 -0.967 98 124 141
5.1861 1.5139 73.9244 -0.071 -0.244 -0.967 98 124 141
5.3310 1.4873 73.8939 -0.115 -0.249 -0.962 98 124 140
5.4743 1.4670 73.8860 -0.103 -0.242 -0.965 65 92 108
5.6221 1.4254 73.8015 -0.017 0.018 -1.000 106 132 149
5.7638 1.4115 73.8167 -0.013 0.016 -1.000 154 180 196
5.9053 1.3988 73.8361 -0.012 0.008 -1.000 138 163 180
6.0527 1.3551 73.7438 -0.050 -0.118 -0.992 138 163 180
7.4843 1.0924 73.4441 0.366 -0.541 -0.757 179 208 224
8.1840 1.0706 73.6911 0.390 -0.480 -0.786 185 214 232
22.8471 0.2443 77.5052 -0.214 -0.056 -0.975 187 222 238
31.9808 0.1490 81.4296 0.512 -0.563 -0.649 114 143 157
32.1327 0.1338 81.4448 0.234 -0.653 -0.720 162 192 202
32.3926 0.0641 81.3089 -0.257 -0.722 -0.643 193 223 233
32.6153 -0.0374 81.0385 0.442 -0.444 -0.779 191 219 231
32.7890 -0.0326 81.1377 -0.122 -0.540 -0.833 174 202 213
39.6215 0.3761 85.8458 -0.214 -0.791 -0.573 51 64 89
41.5075 1.2804 90.0679 0.775 -0.553 -0.306 87 107 118
-8.8352 4.0310 76.0853 -0.224 -0.619 -0.753 130 159 175
-8.6723 3.9975 76.0384 -0.285 -0.590 -0.756 196 225 243
-8.5120 3.9672 76.0016 -0.285 -0.590 -0.756 171 202 222
-8.3519 3.9368 75.9649 -0.285 -0.590 -0.756 185 216 236
-8.1387 3.8372 75.6991 -0.509 -0.243 -0.825 172 203 223
-6.7842 3.4777 75.0116 0.033 -0.516 -0.856 185 216 234
-6.6345 3.4580 75.0089 0.011 -0.531 -0.847 175 206 224
-6.6815 3.7146 75.9276 -0.319 -0.357 -0.878 183 214 231
-6.3364 3.4201 75.0086 0.133 -0.921 -0.366 165 195 212
-5.9073 3.5882 75.8246 -0.167 -0.574 -0.802 166 197 223
-5.7423 3.5473 75.7517 -0.242 -0.599 -0.763 172 204 229
-3.4820 3.0061 74.8194 -0.183 -0.494 -0.850 177 212 234
-3.3294 2.9787 74.7903 -0.181 -0.479 -0.859 168 203 225
-3.3137 3.1864 75.5592 -0.208 -0.457 -0.865 180 215 237
-3.1608 3.1607 75.5359 -0.208 -0.457 -0.865 157 191 214
-3.0042 3.1282 75.4896 -0.351 -0.494 -0.795 176 210 232
-2.8602 3.1175 75.5175 -0.101 -0.498 -0.861 159 193 214
-2.7121 3.0997 75.5212 -0.109 -0.539 -0.835 183 214 235
-2.3466 3.1918 76.0291 -0.500 -0.409 -0.763 164 195 212
-2.1717 3.1252 75.8662 -0.311 -0.439 -0.843 157 189 206
-0.9374 2.8858 75.5631 -0.292 -0.267 -0.918 161 191 203
-0.7638 2.8140 75.3806 -0.249 -0.783 -0.571 161 190 204
-0.6151 2.7931 75.3734 -0.108 -0.673 -0.732 161 190 204
-0.4613 2.7613 75.3283 0.134 -0.677 -0.724 163 192 208
-0.3193 2.7544 75.3692 0.079 -0.671 -0.737 158 187 205
0.5780 2.6126 75.2668 0.062 -0.648 -0.759 107 136 157
2.0425 2.0576 73.9137 -0.038 -0.668 -0.743 95 125 145
2.1859 2.0414 73.9210 -0.038 -0.668 -0.743 84 114 134
2.3292 2.0252 73.9282 -0.038 -0.668 -0.743 83 113 134
2.4734 2.0065 73.9270 -0.092 -0.639 -0.763 85 115 136
2.6175 1.9878 73.9253 -0.092 -0.639 -0.763 93 123 144
2.7616 1.9690 73.9237 -0.092 -0.639 -0.763 109 139 160
4.0574 1.7954 73.8905 -0.050 -0.572 -0.819 108 138 156
4.2053 1.7606 73.8316 -0.053 -0.240 -0.969 123 152 169
4.3465 1.7500 73.8584 -0.066 -0.054 -0.996 157 182 195
4.4901 1.7302 73.8529 0.102 -0.106 -0.989 165 188 202
4.6334 1.7116 73.8512 0.090 -0.162 -0.983 129 152 166
5.7831 1.5363 73.7438 -0.067 0.121 -0.990 153 176 190
6.0723 1.4782 73.6654 0.047 0.094 -0.994 140 161 175
8.2027 1.1963 73.6236 0.390 -0.480 -0.786 183 215 228
17.0761 0.2197 74.1739 -0.779 -0.299 -0.551 195 226 244
22.4851 0.7741 78.7248 -0.094 -0.934 -0.345 190 223 240
32.1153 0.5490 82.3826 0.153 -0.671 -0.725 119 146 165
32.4579 0.0903 80.8605 0.421 -0.492 -0.762 187 217 228
32.6379 0.1012 80.9839 0.413 -0.483 -0.772 203 233 244
32.8029 0.0984 81.0507 -0.122 -0.540 -0.833 214 242 254
34.4116 0.1674 82.0526 0.413 -0.613 -0.674 144 176 189
34.5963 0.1783 82.1786 0.137 -0.710 -0.691 149 181 194
34.7669 0.1774 82.2547 0.127 -0.719 -0.683 150 182 195
34.9154 0.1584 82.2542 0.195 -0.757 -0.624 143 176 189
36.0101 0.2035 82.9293 0.429 -0.081 -0.900 132 166 178
37.1949 0.1740 83.3725 0.308 -0.096 -0.947 179 214 232
41.9621 1.3361 89.8529 0.611 -0.757 -0.231 68 90 101
44.1632 1.8852 92.8911 0.733 -0.649 -0.204 73 93 104
41.0830 -0.5398 82.5654 0.064 0.199 -0.978 97 120 126
-14.8530 5.2723 77.2574 -0.229 -0.744 -0.627 142 171 189
-8.4628 4.0628 75.8119 -0.520 -0.279 -0.807 173 201 222
-6.6121 3.5855 74.9309 0.024 -0.529 -0.848 178 207 223
-6.6672 3.8553 75.8877 -0.358 -0.338 -0.870 184 213 228
-6.5038 3.8182 75.8281 -0.373 -0.353 -0.858 167 195 208
-5.8792 3.7085 75.7180 -0.169 -0.561 -0.810 161 196 222
-5.7127 3.6653 75.6375 -0.237 -0.579 -0.780 172 207 233
-2.8387 3.2458 75.4408 -0.101 -0.498 -0.861 154 190 214
-2.6912 3.2291 75.4483 -0.120 -0.530 -0.840 178 212 235
-2.4830 3.3555 76.0047 -0.493 -0.400 -0.773 172 203 223
-2.3266 3.3237 75.9614 -0.508 -0.405 -0.760 162 195 214
-2.1505 3.2545 75.7910 -0.311 -0.439 -0.843 157 191 210
-1.9992 3.2312 75.7763 -0.481 -0.360 -0.799 159 191 211
-1.6687 3.1298 75.5602 -0.499 -0.388 -0.775 151 184 201
-1.5108 3.0925 75.4972 -0.482 -0.393 -0.783 134 167 181
-1.3415 3.0316 75.3539 -0.159 -0.691 -0.705 141 174 185
-1.1889 3.0036 75.3226 -0.184 -0.676 -0.713 149 182 191
-1.0369 2.9764 75.2939 -0.310 -0.583 -0.751 151 184 192
-0.8871 2.9534 75.2796 -0.345 -0.592 -0.728 159 192 200
-0.5879 2.9078 75.2518 -0.074 -0.681 -0.729 158 190 202
0.1527 2.8067 75.2266 -0.218 -0.628 -0.747 137 168 189
0.6006 2.7355 75.1748 0.064 -0.592 -0.804 162 193 213
0.7464 2.7198 75.1852 0.100 -0.564 -0.820 163 195 216
0.8916 2.7055 75.2004 0.025 -0.634 -0.773 161 193 214
1.0356 2.6943 75.2262 -0.012 -0.639 -0.769 162 194 215
1.1813 2.6787 75.2369 -0.012 -0.639 -0.769 161 193 214
1.3293 2.6575 75.2281 -0.004 -0.633 -0.774 162 194 215
4.0786 1.9147 73.7963 -0.053 -0.554 -0.831 145 178 197
4.2218 1.8972 73.7988 -0.053 -0.554 -0.831 142 173 190
4.3631 1.8862 73.8242 -0.113 -0.529 -0.841 145 168 180
5.0797 1.7924 73.8146 -0.043 -0.657 -0.753 154 175 186
5.2223 1.7760 73.8208 -0.043 -0.657 -0.753 154 174 186
5.3657 1.7556 73.8129 -0.114 -0.596 -0.795 155 174 186
5.5102 1.7304 73.7881 -0.203 -0.569 -0.797 151 170 181
5.6541 1.7067 73.7683 -0.203 -0.569 -0.797 149 168 179
5.7980 1.6830 73.7485 -0.203 -0.569 -0.797 144 163 173
5.9417 1.6592 73.7287 -0.203 -0.569 -0.797 140 158 169
6.0905 1.6083 73.6121 -0.104 -0.302 -0.948 134 153 163
6.3767 1.5625 73.5780 0.286 -0.249 -0.926 170 189 200
6.5216 1.5279 73.5189 -0.357 -0.120 -0.926 193 214 224
8.2218 1.3180 73.5416 0.392 -0.503 -0.771 180 215 222
17.2449 0.3596 74.2293 -0.012 0.242 -0.970 195 227 242
32.3455 0.2584 80.8515 0.070 -0.213 -0.975 178 210 221
32.6363 0.2182 80.8396 0.389 -0.523 -0.758 199 229 240
32.8168 0.2293 80.9638 -0.122 -0.540 -0.833 200 230 242
34.4352 0.3080 81.9994 0.465 -0.607 -0.644 146 175 191
34.6232 0.3218 82.1369 0.367 -0.613 -0.699 138 167 183
34.7643 0.2967 82.1107 0.050 -0.631 -0.774 137 167 183
35.0877 0.2803 82.2007 -0.155 -0.751 -0.642 149 181 194
35.2494 0.2719 82.2450 -0.008 -0.805 -0.593 145 177 190
35.4141 0.2659 82.2993 0.353 -0.738 -0.575 145 177 190
35.5819 0.2621 82.3631 0.386 -0.731 -0.562 145 177 190
35.7628 0.2685 82.4703 0.408 -0.731 -0.547 143 175 188
36.3614 0.3291 82.9680 0.414 -0.268 -0.870 142 174 187
-31.1979 8.8672 82.1612 -0.192 0.210 -0.959 70 102 114
-30.9774 8.8108 82.0587 -0.276 0.199 -0.940 80 112 124
-14.8143 5.3903 77.1316 -0.258 -0.678 -0.688 140 169 187
-8.4457 4.1997 75.7583 -0.323 -0.552 -0.769 172 200 221
-8.2934 4.1791 75.7537 -0.285 -0.590 -0.756 184 212 234
-8.1027 4.1078 75.5840 -0.497 -0.285 -0.820 175 203 226
-7.9415 4.0749 75.5390 -0.494 -0.354 -0.794 187 215 239
-6.5895 3.7128 74.8522 0.024 -0.529 -0.848 182 211 225
-5.8541 3.8333 75.6264 -0.169 -0.561 -0.810 160 199 225
-3.4333 3.2506 74.6339 -0.057 -0.445 -0.894 174 211 237
-3.2858 3.2318 74.6339 -0.057 -0.445 -0.894 167 204 230
-3.2818 3.4628 75.4711 -0.283 -0.379 -0.881 183 220 246
-3.1181 3.4181 75.3847 -0.242 -0.448 -0.861 163 199 225
-2.8172 3.3741 75.3640 -0.101 -0.498 -0.861 151 187 212
-2.6687 3.3555 75.3653 -0.120 -0.530 -0.840 180 214 238
-2.5184 3.3335 75.3547 -0.142 -0.500 -0.854 172 204 227
-2.3680 3.3110 75.3428 -0.142 -0.500 -0.854 178 209 230
-2.3042 3.4510 75.8785 -0.508 -0.405 -0.760 169 201 221
-2.0940 3.3166 75.4893 -0.559 -0.591 -0.582 160 195 215
-1.9289 3.2661 75.3825 -0.398 -0.631 -0.666 159 192 213
-1.8092 3.3029 75.5707 -0.502 -0.372 -0.780 152 184 205
-1.3140 3.1469 75.2347 -0.159 -0.691 -0.705 139 173 181
-1.1644 3.1246 75.2229 -0.159 -0.691 -0.705 146 180 185
-1.0149 3.1023 75.2111 -0.159 -0.691 -0.705 151 185 188
-0.5730 3.0485 75.2198 -0.131 -0.507 -0.852 154 186 195
-0.4233 3.0252 75.2044 -0.029 -0.605 -0.796 154 186 197
-0.2752 3.0052 75.2003 -0.080 -0.597 -0.798 143 174 189
0.4867 2.8525 74.9989 -0.376 -0.622 -0.687 154 184 204
0.6295 2.8435 75.0322 0.146 -0.752 -0.643 161 191 209
0.7738 2.8311 75.0537 0.105 -0.681 -0.725 160 192 211
1.0624 2.8063 75.0970 0.049 -0.676 -0.735 158 191 209
1.2047 2.7991 75.1365 -0.012 -0.639 -0.769 158 190 209
3.5717 2.4228 74.8653 -0.018 -0.941 -0.339 156 188 205
3.7001 2.4636 75.0723 0.038 -0.925 -0.377 161 193 210
4.3867 1.9963 73.6984 -0.040 -0.830 -0.556 158 178 189
4.5316 1.9709 73.6735 -0.039 -0.829 -0.557 148 166 176
4.6742 1.9547 73.6803 -0.023 -0.831 -0.556 146 164 174
5.1015 1.9070 73.7048 -0.047 -0.693 -0.720 167 185 195
5.2441 1.8905 73.7107 -0.025 -0.701 -0.713 167 185 195
5.3865 1.8744 73.7181 -0.025 -0.704 -0.710 167 185 195
5.5295 1.8553 73.7147 -0.089 -0.687 -0.722 167 184 193
5.6740 1.8290 73.6863 -0.176 -0.576 -0.798 159 176 184
5.8169 1.8096 73.6820 -0.135 -0.570 -0.810 148 165 173
5.9601 1.7889 73.6728 -0.135 -0.570 -0.810 139 156 164
6.1062 1.7518 73.6059 -0.072 -0.335 -0.939 130 147 155
6.2543 1.7019 73.4936 -0.169 -0.181 -0.969 138 155 163
6.3972 1.6793 73.4779 0.096 -0.486 -0.869 165 182 190
8.2406 1.4425 73.4701 0.302 -0.549 -0.779 179 213 217
17.1174 0.4867 74.1006 -0.425 -0.065 -0.903 190 219 233
22.4582 0.9306 78.1643 0.056 -0.898 -0.436 190 223 240
23.5261 1.1279 79.3694 -0.115 -0.686 -0.718 168 195 212
23.6737 1.1096 79.3714 -0.130 -0.679 -0.722 186 209 225
32.4355 0.3061 80.4994 0.578 -0.461 -0.674 194 226 239
32.6482 0.3470 80.7454 0.291 -0.598 -0.747 193 225 238
32.8460 0.3738 80.9333 -0.132 -0.530 -0.838 195 225 237
33.4096 0.7244 82.4603 0.400 -0.330 -0.855 192 223 243
34.4350 0.4287 81.8634 0.437 -0.637 -0.635 114 143 159
34.6172 0.4380 81.9806 0.059 -0.619 -0.783 135 164 180
34.7731 0.4252 82.0065 0.050 -0.631 -0.774 147 176 192
36.8744 0.4445 83.0435 0.500 -0.660 -0.560 157 189 202
-33.5055 9.5559 82.9664 0.034 -0.136 -0.990 125 158 165
-30.2401 7.8905 78.4810 -0.046 -0.256 -0.966 62 90 103
-28.0187 7.6479 78.6268 0.809 0.043 -0.587 134 167 187
-17.1456 6.9030 80.9297 -0.582 -0.807 -0.097 152 185 202
-8.2642 4.3000 75.6483 -0.285 -0.590 -0.756 184 210 234
-7.4192 4.2686 75.9223 -0.377 -0.231 -0.897 184 211 230
-7.2409 4.2118 75.8002 -0.574 -0.215 -0.790 181 209 224
-7.0740 4.1704 75.7280 -0.594 -0.231 -0.771 180 208 220
-6.9053 4.1261 75.6460 -0.558 -0.303 -0.773 191 219 231
-6.7885 4.1551 75.8036 -0.055 -0.060 -0.997 185 213 225
-6.4546 4.0702 75.6515 -0.456 -0.473 -0.754 177 205 217
-5.6177 3.8465 75.2315 -0.279 -0.873 -0.399 177 218 243
-5.1427 3.5380 74.3411 -0.633 -0.319 -0.706 175 213 235
-3.5225 3.5678 75.1899 0.345 -0.494 -0.798 176 210 233
-3.1202 3.5883 75.4475 -0.279 -0.057 -0.959 164 197 223
-2.9639 3.5562 75.4039 -0.279 -0.057 -0.959 174 207 233
-0.6867 3.1673 75.0500 -0.096 -0.508 -0.856 151 179 185
-0.5482 3.1681 75.1161 -0.035 -0.495 -0.868 150 178 185
-0.3999 3.1476 75.1104 -0.029 -0.605 -0.796 151 179 189
-0.2539 3.1321 75.1217 -0.160 -0.498 -0.852 146 173 186
-0.1041 3.1080 75.1035 -0.158 -0.507 -0.848 140 167 182
0.0462 3.0825 75.0809 -0.159 -0.524 -0.837 154 181 198
0.2179 3.0072 74.8892 -0.294 -0.683 -0.668 141 168 186
0.3700 2.9764 74.8480 -0.448 -0.637 -0.627 144 171 187
1.2334 2.9059 74.9903 0.038 -0.684 -0.729 170 199 215
1.3720 2.9082 75.0621 -0.057 -0.493 -0.868 172 201 216
3.4106 2.2243 73.5392 -0.066 -0.653 -0.755 155 184 197
3.7307 2.5540 74.8698 0.000 -0.913 -0.407 165 194 207
3.8732 2.5468 74.9093 0.052 -0.906 -0.421 164 194 206
4.1261 2.1348 73.5456 -0.094 -0.657 -0.748 157 187 199
4.2658 2.1294 73.5901 0.033 -0.690 -0.723 153 181 193
4.4068 2.1189 73.6170 0.073 -0.717 -0.693 155 174 185
4.5525 2.0908 73.5828 -0.012 -0.738 -0.674 143 161 171
4.6953 2.0732 73.5849 -0.034 -0.706 -0.707 140 158 168
4.8357 2.0655 73.6217 -0.168 -0.672 -0.721 154 172 182
5.1229 2.0233 73.6016 -0.047 -0.681 -0.731 164 182 192
5.2655 2.0063 73.6058 -0.049 -0.688 -0.724 164 182 192
5.4079 1.9898 73.6119 -0.049 -0.688 -0.724 164 182 192
5.5512 1.9693 73.6035 -0.089 -0.687 -0.722 176 193 201
5.6939 1.9510 73.6034 -0.089 -0.687 -0.722 164 181 189
5.8356 1.9377 73.6202 -0.091 -0.693 -0.715 148 165 173
5.9769 1.9265 73.6449 -0.025 -0.702 -0.712 136 153 161
6.1241 1.8834 73.5575 -0.072 -0.335 -0.939 124 141 149
6.2712 1.8389 73.4651 -0.169 -0.181 -0.969 130 147 155
6.4128 1.8242 73.4771 -0.186 -0.198 -0.962 159 176 184
6.8417 1.7536 73.4200 0.094 -0.224 -0.970 185 214 220
8.4013 1.5430 73.3777 0.013 0.353 -0.935 171 203 208
9.1060 1.4853 73.4931 -0.010 0.154 -0.988 187 221 237
9.3886 1.4468 73.4841 -0.010 0.154 -0.988 189 223 239
23.5371 1.2492 79.2518 -0.115 -0.686 -0.718 162 188 205
32.2650 0.8885 81.9524 -0.312 -0.467 -0.828 112 141 157
32.4156 0.8707 81.9573 -0.214 -0.636 -0.741 152 184 196
33.2810 0.8830 82.3977 0.362 -0.438 -0.823 193 225 237
33.4474 0.8788 82.4587 0.357 -0.436 -0.826 199 231 252
34.4361 0.5503 81.7319 0.443 -0.632 -0.637 89 117 135
34.6269 0.5670 81.8793 0.059 -0.619 -0.783 80 107 126
34.7894 0.5598 81.9278 0.061 -0.593 -0.803 89 116 133
34.9475 0.5489 81.9610 -0.052 -0.791 -0.610 116 145 161
37.0989 0.6061 83.1514 0.346 -0.536 -0.770 154 183 197
37.8069 0.6101 83.4898 0.504 -0.598 -0.623 163 193 201
-33.3132 9.6854 82.9005 -0.012 -0.430 -0.903 126 156 164
-31.8844 9.3793 82.4596 -0.395 0.068 -0.916 69 96 113
-31.3711 9.2165 82.1126 -0.157 -0.418 -0.895 74 105 123
-27.9571 7.7598 78.4717 0.803 -0.198 -0.562 148 183 203
-24.2105 7.3853 78.8420 -0.366 0.036 -0.930 173 214 232
-24.0303 7.3505 78.8000 -0.363 0.035 -0.931 174 215 233
-15.6781 5.8869 77.3830 -0.647 -0.558 -0.519 174 203 219
-9.2268 4.6436 75.8862 -0.488 -0.566 -0.665 154 182 194
-8.5515 4.4780 75.6027 -0.323 -0.552 -0.769 196 223 240
-8.3898 4.4449 75.5586 -0.323 -0.552 -0.769 171 198 218
-6.4321 4.1990 75.5730 -0.469 -0.452 -0.758 177 207 218
-6.2581 4.1455 75.4610 -0.525 -0.510 -0.681 171 203 216
-5.7876 4.0578 75.3628 -0.138 -0.700 -0.701 163 199 219
-5.6319 4.0299 75.3341 -0.172 -0.692 -0.701 180 216 237
-5.4723 3.9958 75.2851 0.075 -0.708 -0.702 179 213 234
-5.1980 3.7840 74.6547 -0.020 -0.202 -0.979 178 212 232
-5.0452 3.7581 74.6320 -0.075 -0.180 -0.981 178 213 232
-4.8954 3.7369 74.6244 -0.075 -0.180 -0.981 178 213 231
-4.7462 3.7165 74.6194 -0.158 -0.222 -0.962 179 212 231
-4.5980 3.6975 74.6193 -0.130 -0.218 -0.967 177 207 227
-4.4435 3.6683 74.5854 -0.101 -0.261 -0.960 187 216 236
-3.6786 3.5306 74.4428 0.121 -0.068 -0.990 177 206 226
-3.5018 3.6975 75.1185 0.345 -0.494 -0.798 179 208 228
-3.3709 3.7096 75.2213 0.458 -0.355 -0.815 173 202 222
-3.2603 3.7582 75.4448 -0.219 -0.098 -0.971 187 216 236
-3.1094 3.7361 75.4346 -0.288 -0.023 -0.957 171 197 220
-3.2599 4.2576 77.2261 0.451 -0.781 -0.431 178 204 226
-0.6679 3.2997 74.9900 0.012 -0.443 -0.896 150 172 180
-0.5234 3.2873 75.0114 0.081 -0.347 -0.934 150 170 179
-0.3833 3.2848 75.0663 0.092 -0.357 -0.929 152 174 183
-0.2278 3.2481 75.0062 0.064 -0.544 -0.836 149 171 181
-0.0763 3.2199 74.9747 -0.177 -0.517 -0.837 146 168 178
0.0915 3.1539 74.8156 -0.334 -0.669 -0.664 156 178 189
0.2612 3.0819 74.6363 -0.212 -0.674 -0.708 144 166 178
0.3960 3.0910 74.7302 -0.451 -0.632 -0.631 144 166 176
0.5514 3.0512 74.6590 -0.451 -0.632 -0.631 148 170 181
0.7045 3.0162 74.6039 -0.305 -0.642 -0.703 155 177 187
0.8338 3.0397 74.7465 0.479 -0.439 -0.760 155 177 188
0.9796 3.0226 74.7519 0.051 -0.717 -0.695 146 168 179
1.2534 3.0347 74.9198 0.298 -0.776 -0.557 146 168 179
2.1477 2.4888 73.3798 0.043 -0.725 -0.688 151 171 182
2.2888 2.4772 73.4029 0.040 -0.717 -0.696 155 175 186
2.4307 2.4639 73.4200 -0.082 -0.746 -0.661 155 175 186
2.5734 2.4479 73.4280 -0.094 -0.736 -0.671 156 176 187
2.7169 2.4296 73.4280 -0.094 -0.736 -0.671 146 166 179
2.8593 2.4145 73.4388 -0.057 -0.723 -0.689 150 170 183
3.7619 2.6413 74.6587 0.003 -0.907 -0.422 149 171 179
4.0636 2.5635 74.5186 0.397 -0.317 -0.861 151 174 180
4.2027 2.5673 74.5956 0.394 -0.338 -0.855 153 175 182
4.3458 2.5565 74.6222 0.458 -0.403 -0.792 147 166 175
4.4864 2.5561 74.6847 0.452 -0.393 -0.801 136 154 164
4.6261 2.5599 74.7617 0.452 -0.393 -0.801 134 152 162
4.7660 2.5636 74.8388 0.452 -0.393 -0.801 140 158 168
4.9055 2.5703 74.9260 0.420 -0.415 -0.807 149 167 177
5.1454 2.1345 73.4812 -0.042 -0.707 -0.706 155 173 183
5.2869 2.1219 73.5006 -0.038 -0.700 -0.713 155 173 183
5.4296 2.1040 73.5019 -0.049 -0.688 -0.724 150 168 178
5.5719 2.0876 73.5080 -0.049 -0.688 -0.724 121 140 147
5.7145 2.0694 73.5081 -0.091 -0.693 -0.715 118 137 144
5.8571 2.0511 73.5077 -0.091 -0.693 -0.715 123 140 148
5.9983 2.0400 73.5324 -0.025 -0.702 -0.712 132 149 157
6.1409 2.0214 73.5312 -0.041 -0.689 -0.724 111 128 136
6.2882 1.9761 73.4365 -0.169 -0.181 -0.969 124 141 149
6.4346 1.9336 73.3517 0.043 -0.196 -0.980 150 169 176
6.5762 1.9181 73.3610 0.043 -0.196 -0.980 175 194 201
6.7176 1.9037 73.3740 0.068 -0.259 -0.964 174 194 203
6.8590 1.8901 73.3896 0.098 -0.211 -0.972 181 201 212
7.0007 1.8736 73.3956 0.122 -0.156 -0.980 172 194 204
7.1419 1.8611 73.4152 0.122 -0.156 -0.980 182 204 215
7.2847 1.8365 73.3924 -0.064 -0.352 -0.934 172 194 204
7.4263 1.8205 73.3999 -0.082 -0.344 -0.935 165 187 198
8.5570 1.7097 73.5196 -0.085 0.096 -0.992 185 210 218
8.6989 1.6876 73.5054 -0.085 0.096 -0.992 187 213 222
8.8400 1.6778 73.5346 -0.059 -0.010 -0.998 189 216 225
8.9821 1.6494 73.4978 0.041 -0.007 -0.999 193 219 230
9.9715 1.5234 73.4989 0.158 0.141 -0.977 198 225 237
10.5360 1.4596 73.5283 0.165 0.113 -0.980 196 226 238
10.6770 1.4447 73.5396 0.169 0.105 -0.980 196 226 238
10.9601 1.4386 73.6467 0.010 0.077 -0.997 197 227 239
11.1017 1.4319 73.6871 -0.032 0.068 -0.997 194 224 238
11.2439 1.4335 73.7578 -0.133 0.010 -0.991 194 221 236
12.3640 1.2115 73.4758 -0.134 0.106 -0.985 199 226 243
23.2404 1.3862 79.0511 0.246 -0.615 -0.749 163 196 213
23.5543 1.3802 79.1725 -0.170 -0.633 -0.755 162 188 205
23.8422 1.3329 79.1348 -0.162 -0.634 -0.756 205 228 244
23.9955 1.3238 79.1722 0.316 -0.687 -0.654 91 114 130
24.1555 1.3248 79.2485 0.316 -0.687 -0.654 93 116 132
24.3158 1.3257 79.3249 0.316 -0.687 -0.654 104 127 143
24.5915 1.2611 79.2198 -0.128 -0.558 -0.820 87 103 118
24.7369 1.2402 79.2114 -0.128 -0.558 -0.820 86 98 110
31.9884 1.0668 81.8947 0.022 -0.622 -0.783 86 113 134
32.1425 1.0521 81.9126 -0.187 -0.643 -0.742 140 168 188
33.4368 0.9899 82.2798 0.472 -0.459 -0.753 198 231 249
33.6351 1.0141 82.4565 0.463 -0.448 -0.765 198 231 250
33.8158 1.0222 82.5675 0.470 -0.427 -0.772 199 232 251
34.1249 0.9917 82.5997 -0.060 -0.243 -0.968 121 153 174
34.6328 0.6928 81.7649 0.037 -0.615 -0.787 121 150 166
34.8008 0.6903 81.8323 0.061 -0.593 -0.803 101 130 146
37.5873 0.7019 83.1426 0.586 -0.589 -0.556 150 180 189
-31.5840 9.4309 82.1708 -0.268 -0.314 -0.911 74 104 120
-28.1175 7.7404 77.7526 -0.594 -0.780 -0.197 81 113 136
-27.7360 7.6573 77.6308 -0.692 -0.679 -0.246 150 182 203
-26.7708 7.3394 76.9420 -0.060 -0.998 -0.034 167 203 225
-24.0323 7.5101 78.7865 -0.372 0.029 -0.928 174 215 233
-15.6914 6.0583 77.4210 -0.592 -0.561 -0.579 173 205 220
-14.8672 5.7769 76.7973 -0.470 -0.483 -0.739 174 206 219
-14.6923 5.7371 76.7358 -0.437 -0.491 -0.754 140 172 185
-9.1869 4.7520 75.7391 -0.453 -0.600 -0.660 154 182 194
-6.3466 4.2357 75.1966 -0.010 -0.621 -0.783 173 201 213
-6.0083 4.1399 75.0106 0.028 -0.909 -0.415 159 187 201
-5.8652 4.1303 75.0411 -0.195 -0.894 -0.402 178 205 220
-5.7341 4.1391 75.1316 -0.041 -0.919 -0.392 166 193 208
-4.7278 3.8490 74.5600 -0.101 -0.324 -0.941 168 192 206
-4.5818 3.8337 74.5718 -0.106 -0.342 -0.934 170 192 204
-4.4342 3.8157 74.5748 -0.077 -0.252 -0.965 173 195 207
-4.2849 3.7948 74.5684 -0.077 -0.252 -0.965 173 195 207
-4.1398 3.7807 74.5842 0.408 -0.376 -0.832 183 205 220
-0.6459 3.4251 74.9066 0.032 -0.527 -0.850 178 191 202
-0.5051 3.4208 74.9553 -0.018 -0.482 -0.876 180 192 204
-0.0578 3.3528 74.9169 -0.075 -0.567 -0.820 162 177 184
0.8593 3.1545 74.6299 0.052 -0.778 -0.626 194 209 215
1.2657 3.1834 74.9162 0.103 -0.966 -0.235 190 206 211
1.8934 2.6148 73.1865 0.112 -0.399 -0.910 215 230 236
2.0344 2.6031 73.2089 0.112 -0.399 -0.910 204 219 225
2.1755 2.5915 73.2314 0.112 -0.399 -0.910 191 205 211
2.3181 2.5752 73.2383 0.113 -0.352 -0.929 187 201 206
2.4593 2.5632 73.2599 0.113 -0.352 -0.929 181 194 201
2.6014 2.5487 73.2729 -0.012 -0.495 -0.869 169 182 189
2.7440 2.5325 73.2801 -0.012 -0.495 -0.869 178 191 199
2.8877 2.5128 73.2754 -0.037 -0.501 -0.865 180 193 201
3.0306 2.4956 73.2792 -0.037 -0.501 -0.865 173 186 193
3.1731 2.4794 73.2861 -0.048 -0.512 -0.858 167 180 187
3.3149 2.4654 73.3009 -0.050 -0.537 -0.842 147 163 167
3.4586 2.4453 73.2946 -0.116 -0.497 -0.860 138 154 157
3.6016 2.4272 73.2952 -0.112 -0.504 -0.856 140 156 159
3.9313 2.7345 74.5332 -0.070 -0.833 -0.549 150 166 168
4.0810 2.6994 74.4766 0.397 -0.317 -0.861 164 180 183
4.2187 2.7087 74.5720 0.400 -0.335 -0.853 174 190 194
4.3622 2.6966 74.5939 0.327 -0.442 -0.835 162 180 189
4.5033 2.6945 74.6504 0.327 -0.442 -0.835 147 165 175
4.6431 2.6982 74.7268 0.298 -0.418 -0.858 129 147 157
4.8835 2.2780 73.3474 -0.060 -0.702 -0.710 115 133 143
4.9242 2.7021 74.8680 0.420 -0.415 -0.807 123 141 151
5.1673 2.2484 73.3709 -0.027 -0.713 -0.701 137 155 165
5.3104 2.2281 73.3638 0.112 -0.587 -0.802 137 155 165
5.4532 2.2084 73.3589 0.125 -0.606 -0.786 124 142 152
5.5937 2.2001 73.3931 -0.041 -0.650 -0.759 72 91 98
5.7363 2.1817 73.3924 -0.052 -0.656 -0.753 60 77 85
5.8786 2.1643 73.3953 -0.091 -0.693 -0.715 67 84 92
6.1621 2.1355 73.4214 -0.041 -0.689 -0.724 98 115 123
6.3064 2.1063 73.3834 -0.124 -0.315 -0.941 108 125 133
6.4524 2.0656 73.3054 0.113 -0.402 -0.909 125 142 150
6.5935 2.0540 73.3281 0.113 -0.402 -0.909 148 166 173
6.7345 2.0423 73.3507 0.113 -0.402 -0.909 225 238 246
6.8761 2.0273 73.3615 0.098 -0.211 -0.972 217 229 239
7.0175 2.0140 73.3786 0.098 -0.211 -0.972 204 216 228
7.1588 2.0008 73.3958 0.098 -0.211 -0.972 198 210 222
7.3024 1.9704 73.3532 -0.056 -0.240 -0.969 194 208 221
7.4449 1.9479 73.3377 -0.174 -0.318 -0.932 192 206 219
7.5860 1.9357 73.3584 -0.209 -0.328 -0.921 189 203 216
7.7268 1.9263 73.3890 -0.180 -0.272 -0.945 169 183 196
7.8660 1.9339 73.4788 0.047 -0.259 -0.965 126 142 154
8.5740 1.8585 73.5326 -0.085 0.096 -0.992 199 215 225
8.7157 1.8421 73.5385 -0.094 0.090 -0.991 197 213 224
8.8576 1.8215 73.5300 -0.061 0.098 -0.993 197 216 225
17.0519 0.9422 74.1258 0.103 -0.568 -0.816 170 200 211
17.1924 0.9257 74.1309 0.018 -0.616 -0.788 186 216 227
17.3367 0.9201 74.1764 0.068 -0.592 -0.803 202 232 243
22.7942 1.5359 78.8286 0.232 -0.589 -0.774 187 218 236
23.2540 1.5111 78.9492 0.368 -0.407 -0.836 164 197 214
23.3988 1.4889 78.9361 0.362 -0.597 -0.716 162 191 209
23.5542 1.4837 78.9879 0.053 -0.707 -0.705 160 186 203
23.8570 1.4602 79.0418 -0.182 -0.644 -0.743 206 229 245
24.0074 1.4468 79.0625 0.272 -0.718 -0.640 97 120 136
24.1660 1.4458 79.1309 0.272 -0.718 -0.640 93 116 132
24.3248 1.4449 79.1994 0.272 -0.718 -0.640 120 143 159
24.4477 1.3901 79.0610 0.191 -0.476 -0.858 120 141 155
24.6117 1.3967 79.1588 -0.063 -0.600 -0.797 81 98 111
24.7488 1.3637 79.1038 -0.308 -0.622 -0.720 81 92 102
24.9167 1.3753 79.2210 0.108 -0.720 -0.685 75 82 92
31.9893 1.1863 81.7541 0.031 -0.653 -0.756 94 121 142
32.1559 1.1838 81.8207 -0.180 -0.643 -0.744 150 177 197
32.5572 1.0830 81.6452 -0.253 -0.633 -0.732 148 180 191
33.4554 1.1270 82.2079 0.472 -0.459 -0.753 198 230 250
33.6545 1.1523 82.3874 0.463 -0.448 -0.765 198 231 250
33.8348 1.1601 82.4967 0.471 -0.437 -0.766 198 231 250
34.1530 1.1376 82.5613 -0.060 -0.243 -0.968 125 157 180
34.3353 1.1465 82.6753 0.138 -0.236 -0.962 127 158 179
34.6527 0.8302 81.6988 0.051 -0.605 -0.794 122 151 167
-30.0830 8.3429 78.4167 0.142 -0.217 -0.966 81 107 120
-32.4754 10.2249 83.9603 -0.432 -0.848 -0.309 78 108 124
-32.2495 10.1665 83.8567 -0.431 -0.846 -0.313 76 109 126
-31.9501 10.0555 83.6010 -0.468 -0.818 -0.335 77 110 127
-15.9182 6.3066 77.6319 -0.545 -0.835 -0.073 170 204 216
-15.7535 6.2794 77.6105 -0.512 -0.367 -0.777 173 205 218
-14.8368 5.9028 76.6984 -0.461 -0.499 -0.734 171 205 217
-14.6641 5.8652 76.6438 -0.452 -0.496 -0.741 138 172 184
-7.6271 4.2857 74.2562 -0.498 -0.621 -0.606 183 212 218
-7.3649 4.1108 73.7591 -0.364 -0.366 -0.857 170 199 205
-7.1409 4.1726 74.0772 0.615 -0.458 -0.642 157 185 195
-6.3921 4.2632 74.7333 0.293 -0.782 -0.550 162 190 202
-6.2546 4.2613 74.7884 0.256 -0.806 -0.534 157 185 196
-6.1270 4.2744 74.8920 0.042 -0.828 -0.559 153 180 190
-5.9627 4.2329 74.8199 -0.135 -0.869 -0.475 162 187 197
-5.8241 4.2299 74.8719 -0.252 -0.868 -0.428 172 195 203
-5.6885 4.2315 74.9387 -0.042 -0.916 -0.398 186 208 217
-5.4999 4.1520 74.7439 -0.375 -0.683 -0.627 197 217 226
-5.3415 4.1181 74.6960 -0.257 -0.749 -0.611 187 209 219
-5.0466 4.0842 74.7094 -0.256 -0.912 -0.322 190 211 220
-4.7341 4.0216 74.6300 -0.249 -0.915 -0.316 216 232 238
-4.5800 3.9935 74.6004 -0.233 -0.910 -0.343 218 234 241
-4.4260 3.9650 74.5698 -0.247 -0.902 -0.353 218 234 241
-3.2775 3.8769 74.7769 0.448 -0.791 -0.417 224 241 248
1.9117 2.7440 73.1284 0.136 -0.416 -0.899 78 88 91
2.0524 2.7333 73.1542 0.112 -0.399 -0.910 74 84 86
2.1934 2.7217 73.1766 0.112 -0.399 -0.910 68 79 81
2.3345 2.7100 73.1991 0.112 -0.399 -0.910 64 74 76
2.4774 2.6931 73.2041 0.122 -0.342 -0.932 60 70 73
2.6167 2.6869 73.2448 0.115 -0.367 -0.923 57 67 70
2.7642 2.6559 73.2024 -0.019 -0.511 -0.859 64 74 77
2.9078 2.6365 73.1987 -0.020 -0.521 -0.853 68 78 81
3.0501 2.6211 73.2084 -0.048 -0.512 -0.858 68 77 81
3.1930 2.6035 73.2110 -0.048 -0.512 -0.858 66 76 80
3.3352 2.5882 73.2214 -0.050 -0.537 -0.842 80 91 92
3.4784 2.5696 73.2202 -0.116 -0.497 -0.860 87 98 98
3.6210 2.5530 73.2262 -0.132 -0.498 -0.857 85 96 96
3.6783 2.8364 74.2490 0.145 -0.597 -0.789 86 97 96
4.0517 2.4913 73.2031 -0.096 -0.654 -0.750 111 122 121
4.0967 2.8415 74.4551 0.422 -0.373 -0.826 118 129 128
4.2355 2.8472 74.5377 0.376 -0.339 -0.862 124 136 136
4.4755 2.4543 73.2636 0.078 -0.627 -0.775 129 145 154
4.5222 2.8250 74.5888 0.327 -0.442 -0.835 124 141 151
4.7647 2.4024 73.2115 -0.036 -0.576 -0.817 116 133 143
4.9053 2.3924 73.2394 -0.027 -0.575 -0.818 109 126 136
5.1908 2.3545 73.2348 0.177 -0.553 -0.814 93 110 120
5.3305 2.3490 73.2782 0.112 -0.587 -0.802 94 111 121
5.4731 2.3305 73.2774 -0.013 -0.687 -0.726 80 97 107
5.6147 2.3166 73.2923 -0.049 -0.654 -0.755 75 92 100
5.7579 2.2944 73.2786 -0.111 -0.713 -0.692 82 99 107
5.9011 2.2719 73.2639 -0.108 -0.722 -0.683 94 111 119
6.3276 2.2190 73.2698 -0.080 -0.709 -0.701 96 113 121
6.4709 2.1942 73.2472 0.112 -0.410 -0.905 90 107 115
6.6119 2.1826 73.2700 0.112 -0.410 -0.905 89 105 113
6.7530 2.1710 73.2928 0.112 -0.410 -0.905 107 115 126
6.8941 2.1594 73.3156 0.112 -0.410 -0.905 125 132 144
7.0353 2.1474 73.3367 0.104 -0.408 -0.907 148 155 167
7.1779 2.1252 73.3228 -0.016 -0.254 -0.967 153 161 172
7.3198 2.1077 73.3251 -0.016 -0.254 -0.967 133 142 155
7.4618 2.0893 73.3243 -0.027 -0.272 -0.962 118 127 140
7.6038 2.0696 73.3190 -0.050 -0.264 -0.963 101 109 124
7.7448 2.0595 73.3472 -0.180 -0.272 -0.945 92 99 115
7.8841 2.0666 73.4346 0.049 -0.269 -0.962 97 106 121
8.1659 2.0528 73.5132 0.162 -0.363 -0.917 120 131 143
8.8749 1.9714 73.5462 -0.084 0.078 -0.993 164 177 185
9.4420 1.8993 73.5477 0.098 0.195 -0.976 191 209 209
9.5835 1.8844 73.5590 0.098 0.195 -0.976 197 214 215
11.0005 1.7744 73.8101 -0.122 -0.438 -0.891 205 221 226
11.1427 1.7699 73.8584 -0.147 -0.652 -0.744 200 217 222
11.2842 1.7490 73.8488 -0.147 -0.652 -0.744 193 212 216
11.4249 1.7156 73.7946 -0.119 -0.437 -0.892 190 208 213
18.1608 1.2366 75.1428 -0.389 -0.623 -0.679 194 227 246
22.6875 1.7248 78.8990 0.009 -0.369 -0.929 186 217 235
22.8163 1.6747 78.7806 -0.006 -0.247 -0.969 187 218 236
22.9611 1.6524 78.7675 0.036 -0.299 -0.954 183 214 232
23.1156 1.6464 78.8158 0.074 -0.314 -0.947 172 203 221
23.4136 1.6158 78.8425 0.364 -0.605 -0.708 162 190 209
23.5647 1.6038 78.8683 0.053 -0.707 -0.705 162 186 204
23.8695 1.5838 78.9351 -0.156 -0.628 -0.762 208 231 247
24.0195 1.5700 78.9540 0.266 -0.715 -0.647 100 123 139
24.1777 1.5686 79.0206 0.266 -0.715 -0.647 92 115 131
24.3333 1.5629 79.0705 0.272 -0.718 -0.640 138 161 177
24.4663 1.5233 78.9912 0.191 -0.476 -0.858 130 150 165
24.6275 1.5259 79.0729 -0.070 -0.606 -0.793 75 91 103
24.7655 1.4942 79.0234 -0.360 -0.717 -0.597 77 88 97
24.9203 1.4871 79.0681 0.117 -0.717 -0.688 77 84 93
31.9949 1.3104 81.6324 -0.102 -0.713 -0.694 100 127 148
32.1666 1.3130 81.7190 -0.186 -0.648 -0.738 138 165 186
32.3117 1.2898 81.7028 -0.186 -0.648 -0.738 148 177 194
32.4197 1.2317 81.5471 -0.212 -0.748 -0.629 148 177 190
32.9204 1.2249 81.7483 -0.019 -0.676 -0.737 192 224 237
33.4660 1.2569 82.1069 0.472 -0.460 -0.752 198 231 250
34.0466 1.3168 82.5791 0.429 -0.259 -0.865 153 185 207
34.1811 1.2836 82.5229 -0.060 -0.243 -0.968 134 164 187
34.3455 1.2770 82.5736 0.154 -0.270 -0.950 133 164 185
34.6588 1.2498 82.6190 0.175 -0.256 -0.951 157 186 202
34.8267 1.2458 82.6805 0.363 -0.359 -0.860 136 165 182
35.0089 1.2538 82.7908 0.453 -0.476 -0.754 125 154 171
35.2044 1.2728 82.9456 0.449 -0.486 -0.750 133 162 179
35.3863 1.2798 83.0521 0.448 -0.478 -0.755 100 129 145
35.5357 1.2594 83.0478 -0.294 -0.257 -0.921 120 149 165
-31.3470 9.6896 81.9835 0.333 0.021 -0.943 82 115 132
-31.8871 10.1770 83.4446 -0.186 -0.213 -0.959 83 116 133
-30.4083 9.3174 81.1034 0.502 -0.405 -0.765 88 121 137
-30.4486 9.4474 81.5395 0.504 -0.615 -0.606 88 121 137
-29.6501 9.2736 81.2897 -0.800 -0.285 -0.528 148 180 201
-23.3733 7.6236 78.3357 -0.006 0.138 -0.990 141 185 214
-22.3512 7.4553 78.2056 -0.114 0.314 -0.943 150 194 221
-15.3594 6.1763 76.8680 -0.533 -0.606 -0.591 172 204 217
-11.3098 4.8583 74.0762 0.229 -0.005 -0.973 160 191 211
-10.9802 4.7846 73.9666 0.786 -0.337 -0.518 161 192 210
-10.1373 4.7343 74.1681 -0.209 -0.213 -0.955 166 195 211
-9.9758 4.7005 74.1225 -0.284 -0.178 -0.942 164 196 211
-9.6179 4.4244 73.3181 0.312 0.085 -0.946 163 196 212
-9.5382 4.4900 73.5828 0.626 -0.163 -0.763 158 189 207
-8.7266 4.8272 75.1249 0.396 -0.797 -0.456 139 165 181
-8.5982 4.8376 75.2184 0.396 -0.797 -0.456 167 194 208
-5.6401 4.3192 74.7320 -0.042 -0.916 -0.398 216 232 238
-5.4589 4.2502 74.5723 -0.302 -0.802 -0.515 221 238 241
-5.3018 4.2181 74.5303 -0.302 -0.802 -0.515 229 246 248
-5.1080 4.1276 74.3011 0.255 -0.607 -0.752 223 239 241
-4.9430 4.0818 74.2149 0.016 -0.123 -0.992 215 230 234
-4.6405 4.0328 74.1790 -0.119 -0.117 -0.986 179 193 197
-4.4896 4.0086 74.1621 -0.049 -0.147 -0.988 176 188 193
-0.8944 3.7082 74.7229 0.474 -0.873 -0.114 49 53 69
1.9310 2.8705 73.0612 0.104 -0.441 -0.892 68 75 74
2.0720 2.8588 73.0835 0.104 -0.441 -0.892 79 86 86
2.2131 2.8471 73.1059 0.104 -0.441 -0.892 79 88 87
2.3559 2.8303 73.1111 0.112 -0.460 -0.881 78 86 87
2.4984 2.8147 73.1201 0.097 -0.471 -0.877 93 101 101
2.6428 2.7927 73.1082 -0.055 -0.521 -0.852 104 113 112
2.7853 2.7767 73.1159 -0.020 -0.521 -0.853 106 114 113
2.9279 2.7603 73.1226 -0.020 -0.521 -0.853 107 114 114
3.0704 2.7440 73.1293 -0.020 -0.521 -0.853 112 119 120
3.2129 2.7276 73.1360 -0.020 -0.521 -0.853 119 126 126
3.3554 2.7113 73.1427 -0.020 -0.521 -0.853 116 125 122
3.4982 2.6938 73.1457 -0.116 -0.497 -0.860 115 123 120
3.6441 2.6656 73.1125 -0.134 -0.595 -0.792 117 124 121
3.7879 2.6440 73.1015 -0.206 -0.598 -0.775 118 125 121
3.8367 2.9674 74.2532 0.119 -0.639 -0.760 105 112 108
4.0749 2.6021 73.0836 -0.126 -0.648 -0.751 103 109 106
4.1117 2.9864 74.4430 0.380 -0.347 -0.857 100 109 104
4.2522 2.9863 74.5054 0.380 -0.347 -0.857 100 110 108
4.4986 2.5644 73.1415 0.065 -0.618 -0.784 93 109 115
4.6407 2.5486 73.1501 -0.011 -0.572 -0.820 95 113 120
4.7835 2.5294 73.1470 -0.027 -0.575 -0.818 102 120 128
4.9256 2.5134 73.1545 -0.054 -0.602 -0.796 108 126 133
5.3521 2.4632 73.1704 0.045 -0.706 -0.706 109 127 135
5.4946 2.4446 73.1691 -0.013 -0.687 -0.726 95 113 120
5.6357 2.4326 73.1904 -0.049 -0.654 -0.755 83 98 106
5.7782 2.4139 73.1887 -0.056 -0.651 -0.757 94 108 117
5.9195 2.4009 73.2068 -0.027 -0.631 -0.776 87 101 110
6.0609 2.3877 73.2241 -0.015 -0.627 -0.779 69 83 92
6.2027 2.3723 73.2338 -0.015 -0.627 -0.779 92 105 114
6.3453 2.3520 73.2265 -0.074 -0.572 -0.817 91 105 114
6.4882 2.3294 73.2117 0.180 -0.393 -0.902 91 105 115
6.6291 2.3190 73.2385 0.133 -0.404 -0.905 90 102 114
6.7701 2.3083 73.2640 0.133 -0.404 -0.905 81 85 100
6.9112 2.2975 73.2895 0.133 -0.404 -0.905 75 78 94
7.0523 2.2867 73.3150 0.133 -0.404 -0.905 63 66 82
7.1934 2.2759 73.3406 0.133 -0.404 -0.905 59 62 79
7.3371 2.2456 73.2991 -0.015 -0.254 -0.967 65 69 85
7.4794 2.2252 73.2916 -0.016 -0.254 -0.967 76 80 96
7.6214 2.2064 73.2894 -0.035 -0.266 -0.963 88 92 108
7.7628 2.1929 73.3054 -0.180 -0.272 -0.945 88 93 109
7.9036 2.1856 73.3431 -0.039 -0.279 -0.960 77 83 97
8.0429 2.1947 73.4371 0.195 -0.340 -0.920 90 96 110
8.1842 2.1843 73.4643 0.162 -0.363 -0.917 106 112 126
8.3253 2.1772 73.5025 0.114 -0.331 -0.937 106 113 126
8.4677 2.1543 73.4864 0.055 -0.248 -0.967 102 109 123
8.7508 2.1308 73.5312 -0.068 -0.040 -0.997 90 97 110
9.3185 2.0557 73.5231 0.062 -0.031 -0.998 89 102 101
11.0192 1.9064 73.7631 -0.147 -0.652 -0.744 133 146 147
11.1608 1.8873 73.7598 -0.137 -0.665 -0.734 139 151 153
11.3022 1.8646 73.7438 -0.147 -0.652 -0.744 150 164 165
11.4435 1.8438 73.7342 -0.147 -0.652 -0.744 157 171 172
11.5842 1.8139 73.6930 -0.111 -0.427 -0.897 150 163 164
14.9909 1.5046 74.1380 0.090 0.421 -0.903 171 199 213
23.1390 1.7873 78.7754 0.008 -0.356 -0.934 180 210 228
23.2978 1.7881 78.8493 0.377 -0.429 -0.821 167 198 218
23.5755 1.7243 78.7507 0.047 -0.623 -0.780 162 188 205
23.7374 1.7297 78.8420 -0.156 -0.628 -0.762 161 184 200
23.8822 1.7078 78.8304 -0.156 -0.628 -0.762 203 225 239
24.0241 1.6814 78.8017 0.357 -0.513 -0.781 103 125 139
24.1866 1.6868 78.8935 0.243 -0.665 -0.706 92 115 131
24.3314 1.6651 78.8825 0.237 -0.588 -0.773 152 175 191
24.4851 1.6568 78.9225 0.142 -0.593 -0.793 149 169 186
24.9027 1.5678 78.7983 -0.383 -0.645 -0.662 78 85 95
26.9496 0.5257 76.0737 0.557 -0.285 -0.780 118 137 151
31.9818 1.4160 81.4387 -0.127 -0.720 -0.683 104 130 153
32.1744 1.4391 81.6058 -0.171 -0.729 -0.663 122 149 170
32.3174 1.4141 81.5824 -0.183 -0.689 -0.702 145 174 191
32.4312 1.3613 81.4490 -0.293 -0.777 -0.557 145 176 189
33.4838 1.3934 82.0325 0.468 -0.464 -0.752 179 210 228
33.6791 1.4157 82.1978 0.442 -0.456 -0.772 192 223 243
34.0451 1.4365 82.4347 0.101 -0.208 -0.973 156 187 207
34.3728 1.4224 82.5319 0.167 -0.284 -0.944 131 162 182
34.5274 1.4069 82.5473 0.164 -0.296 -0.941 126 157 179
34.8514 1.3889 82.6296 0.234 -0.579 -0.781 145 175 198
35.0402 1.4027 82.7623 0.460 -0.509 -0.727 129 160 182
36.0154 1.3476 83.0063 -0.117 -0.741 -0.661 192 225 239
-31.2816 9.6062 81.1285 -0.437 -0.295 -0.849 80 109 125
-31.0679 9.5531 81.0393 -0.377 -0.258 -0.890 85 116 134
-30.9202 9.5470 81.0840 0.087 -0.150 -0.985 89 122 141
-30.3890 9.4655 81.0376 0.502 -0.405 -0.765 95 128 145
-30.4046 9.5783 81.4222 0.509 -0.609 -0.608 95 128 146
-24.8899 8.4574 79.9888 -0.798 -0.270 -0.539 178 216 235
-23.3982 7.8020 78.3785 0.005 0.116 -0.993 141 185 214
-21.3844 7.6092 78.6063 0.292 -0.534 -0.793 178 216 235
-15.7579 6.6019 77.6170 -0.543 0.028 -0.839 166 199 214
-10.7832 5.0222 74.3505 0.649 -0.124 -0.751 150 183 202
-10.5886 4.9497 74.1854 -0.134 -0.142 -0.981 149 184 202
-10.4380 4.9296 74.1828 -0.181 -0.219 -0.959 150 183 201
-10.2809 4.9014 74.1549 -0.189 -0.221 -0.957 147 179 197
-10.1244 4.8739 74.1291 -0.203 -0.204 -0.958 146 177 195
-9.9653 4.8429 74.0925 -0.284 -0.178 -0.942 146 178 195
-8.2344 4.5131 73.7189 -0.012 0.202 -0.979 191 220 230
-7.6463 4.4429 73.7373 -0.031 -0.008 -0.999 210 241 241
-5.5813 4.3902 74.4744 -0.020 -0.789 -0.614 130 143 149
-5.2603 4.3148 74.3556 -0.302 -0.802 -0.515 120 132 138
-5.0820 4.2482 74.2038 0.085 -0.694 -0.715 108 121 127
-4.9238 4.2127 74.1513 -0.105 -0.127 -0.986 90 103 109
-4.7726 4.1884 74.1341 -0.205 0.101 -0.974 74 87 93
-4.6168 4.1564 74.0924 -0.195 0.093 -0.976 51 62 68
-4.4628 4.1269 74.0587 -0.195 0.093 -0.976 51 62 68
-3.6002 4.0513 74.1807 0.418 -0.297 -0.859 22 31 36
1.8059 3.0183 73.0036 -0.031 -0.513 -0.858 54 59 62
1.9481 3.0031 73.0142 0.115 -0.454 -0.883 46 51 54
2.0912 2.9856 73.0172 0.080 -0.548 -0.833 55 60 64
2.2324 2.9736 73.0385 0.080 -0.548 -0.833 67 75 78
2.3759 2.9547 73.0368 0.106 -0.585 -0.804 76 84 88
2.5181 2.9396 73.0479 0.032 -0.606 -0.795 82 90 92
2.6586 2.9296 73.0758 0.025 -0.586 -0.810 89 97 99
2.8017 2.9120 73.0785 -0.043 -0.557 -0.829 111 119 120
2.9462 2.8895 73.0649 -0.070 -0.532 -0.844 122 130 132
3.0894 2.8711 73.0646 -0.070 -0.532 -0.844 124 129 133
3.2325 2.8526 73.0642 -0.070 -0.532 -0.844 126 132 134
3.3771 2.8293 73.0478 -0.119 -0.590 -0.799 124 130 130
