ply
format ascii 1.0
element vertex 861
property float x
property float y
property float z
property float nx
property float ny
property float nz
property uchar diffuse_red
property uchar diffuse_green
property uchar diffuse_blue
end_header
-28.2326 33.6264 68.5750 -0.589 -0.029 -0.808 155 162 155
-26.8286 33.4254 68.2319 -0.035 -0.185 -0.982 65 67 52
-23.4035 33.0794 67.7061 -0.613 -0.010 -0.790 108 109 92
-23.1986 32.8516 67.2281 -0.097 -0.529 -0.843 183 184 176
-22.8709 32.7166 66.9580 -0.647 -0.062 -0.760 182 183 175
-22.4695 32.6356 66.8090 -0.521 -0.408 -0.750 179 179 167
-22.3463 32.6010 66.7423 -0.521 -0.408 -0.750 159 159 147
-22.2107 32.5752 66.6955 -0.496 -0.364 -0.788 119 119 107
-18.1110 31.4777 64.5924 -0.301 -0.077 -0.951 75 73 50
-17.5113 31.4095 64.4840 -0.250 -0.225 -0.942 79 74 54
-17.3534 31.3971 64.4674 -0.245 -0.238 -0.940 85 80 60
-16.3875 31.2241 64.1564 -0.213 -0.290 -0.933 89 79 55
-16.2325 31.2092 64.1343 -0.351 -0.118 -0.929 88 80 57
-16.1023 31.1798 64.0791 -0.449 -0.079 -0.890 90 83 57
-15.9649 31.1545 64.0334 -0.456 -0.079 -0.886 92 85 59
-15.8314 31.1269 63.9825 -0.447 -0.093 -0.890 92 85 59
-15.7113 31.0916 63.9141 -0.275 -0.057 -0.960 93 82 60
-15.5894 31.0573 63.8480 -0.272 -0.052 -0.961 94 81 62
-10.0821 30.3132 62.5977 -0.409 0.015 -0.913 98 81 65
-9.9775 30.2698 62.5108 -0.407 0.028 -0.913 98 82 67
-8.9388 30.2116 62.4522 -0.095 -0.470 -0.878 93 75 61
-5.8475 29.9043 61.9882 -0.621 -0.061 -0.782 115 98 80
-5.4610 29.8068 61.8029 -0.436 -0.170 -0.884 105 88 72
-5.3294 29.7756 61.7440 -0.436 -0.170 -0.884 104 88 73
-5.1196 29.7794 61.7657 -0.397 -0.160 -0.904 104 88 73
-1.4866 29.5717 61.5515 -0.491 -0.458 -0.741 80 67 50
-1.3017 29.5612 61.5408 -0.552 -0.375 -0.744 76 63 46
1.0501 29.5642 61.6984 -0.077 0.014 -0.997 75 68 49
1.3000 29.5775 61.7434 -0.283 0.073 -0.956 84 76 55
1.9091 29.4746 61.5604 -0.568 -0.339 -0.750 91 84 65
2.2985 29.4560 61.5455 0.140 -0.490 -0.860 88 81 63
5.0709 29.4958 61.8096 0.087 0.154 -0.984 76 73 56
8.6183 29.1143 61.2151 -0.495 -0.202 -0.845 102 95 77
8.7503 29.0785 61.1464 -0.495 -0.202 -0.845 107 101 83
11.0424 29.2136 61.5852 -0.071 -0.669 -0.740 96 97 66
12.9492 29.2822 61.8559 0.052 -0.826 -0.561 110 111 80
14.5575 29.3219 62.0448 -0.309 -0.216 -0.926 102 108 72
14.6622 29.2745 61.9493 -0.328 -0.283 -0.901 111 115 80
15.6531 29.2694 62.0021 0.259 -0.476 -0.841 145 143 118
16.3295 29.4046 62.3373 0.394 -0.474 -0.788 138 136 111
17.9003 29.4134 62.4572 0.188 -0.227 -0.956 128 127 99
18.7335 29.3484 62.3707 0.216 -0.848 -0.483 121 120 89
-56.3461 47.1524 95.5311 -0.803 0.398 -0.445 64 95 61
-55.8389 47.3590 96.0062 -0.411 0.601 -0.686 67 94 63
-55.0040 45.6044 92.2906 -0.314 -0.829 -0.463 67 97 60
-54.8668 45.4961 92.0667 0.055 -0.547 -0.835 63 93 55
-54.7159 45.4696 92.0190 0.045 -0.529 -0.848 53 83 45
-54.5687 45.4216 91.9252 0.245 -0.412 -0.878 52 84 43
-54.4196 45.3847 91.8551 0.288 -0.386 -0.876 51 83 42
-52.9873 44.0633 89.1069 -0.791 0.159 -0.591 60 86 61
-52.8232 44.1086 89.2144 -0.777 -0.007 -0.630 55 78 55
-52.2914 43.7560 88.4903 -0.819 -0.059 -0.570 40 44 45
-51.8882 43.5260 88.0217 -0.729 -0.056 -0.682 31 36 34
-51.7542 43.4503 87.8673 -0.723 -0.077 -0.687 29 35 30
-51.6231 43.3652 87.6928 -0.843 -0.080 -0.532 63 68 64
-51.4962 43.2660 87.4877 -0.850 0.012 -0.526 132 137 133
-51.3728 43.1556 87.2583 -0.893 -0.013 -0.451 152 158 156
-51.2427 43.0719 87.0868 -0.879 0.027 -0.476 144 150 146
-50.7294 42.7266 86.3772 -0.678 -0.223 -0.700 82 88 78
-50.5948 42.6651 86.2536 -0.628 -0.284 -0.724 68 74 64
-50.4537 42.6261 86.1785 -0.692 -0.250 -0.677 57 63 53
-50.3274 42.5384 85.9981 -0.764 -0.132 -0.631 53 59 49
-50.2190 42.3943 85.6955 -0.717 -0.048 -0.696 48 53 46
-49.6254 42.8169 86.6397 -0.844 -0.130 -0.520 50 51 46
-49.0369 42.2616 85.4841 -0.573 -0.092 -0.814 52 54 51
-48.9011 42.2085 85.3784 -0.486 -0.061 -0.872 61 63 60
-48.7620 42.1655 85.2948 -0.555 -0.075 -0.829 68 70 67
-48.6202 42.1304 85.2284 -0.500 -0.041 -0.865 55 57 56
-48.6909 41.4998 83.8698 -0.816 -0.019 -0.577 67 69 68
-48.4458 41.3376 83.5367 -0.669 -0.162 -0.726 87 89 84
-48.3189 41.2700 83.3996 -0.546 -0.139 -0.826 86 89 82
-47.6330 41.0758 83.0253 -0.270 -0.702 -0.659 75 76 70
-47.5521 40.8944 82.6408 -0.844 -0.334 -0.420 84 85 79
-47.4369 40.8025 82.4506 -0.852 -0.308 -0.424 88 89 81
-47.2397 40.5404 81.9000 -0.770 -0.237 -0.592 87 88 80
-46.1734 39.8580 80.5010 -0.235 -0.273 -0.933 73 76 69
-46.0357 39.8292 80.4479 -0.172 -0.294 -0.940 67 70 63
-44.6581 40.1700 81.2655 -0.492 0.188 -0.850 82 89 82
-43.7236 38.9900 78.7898 -0.708 -0.023 -0.706 111 122 116
-43.5982 38.9401 78.6904 -0.669 0.028 -0.743 132 142 137
-43.4496 38.9340 78.6865 -0.466 0.159 -0.871 133 143 138
-43.1845 38.8614 78.5473 -0.355 0.305 -0.884 130 141 135
-42.8708 39.1557 79.1987 -0.787 -0.235 -0.571 123 134 128
-42.7387 39.1164 79.1224 -0.819 -0.192 -0.541 123 134 128
-42.9143 38.5243 77.8403 -0.735 0.254 -0.628 124 134 128
-42.6937 38.3776 77.5389 -0.706 0.044 -0.706 118 127 122
-42.5685 38.3314 77.4475 -0.563 0.104 -0.820 118 127 122
-42.3576 38.1716 77.1174 -0.635 -0.533 -0.560 116 125 120
-41.5178 38.8207 78.5636 -0.395 -0.553 -0.734 133 142 139
-40.9007 38.5580 78.0378 -0.356 0.150 -0.923 146 152 150
-40.7644 38.5272 77.9802 -0.356 0.150 -0.923 146 152 150
-28.2383 33.7474 68.4965 -0.700 -0.041 -0.713 157 162 156
-26.6890 32.9923 66.9715 -0.550 -0.213 -0.808 91 92 76
-26.3781 33.1113 67.2464 -0.503 -0.326 -0.800 86 89 72
-24.1898 32.6201 66.3278 -0.073 -0.053 -0.996 133 134 119
-24.0337 32.6116 66.3194 -0.075 -0.056 -0.996 183 185 173
-23.2011 32.9783 67.1587 -0.079 -0.492 -0.867 181 182 174
-22.6014 32.7926 66.7971 -0.653 -0.159 -0.741 184 186 175
-22.1001 32.1788 65.5105 -0.250 -0.106 -0.962 90 88 75
-21.9517 32.1635 65.4868 -0.104 -0.227 -0.968 95 93 78
-21.2312 32.1879 65.5840 -0.550 -0.317 -0.773 106 104 88
-20.5643 32.0554 65.3410 -0.218 -0.273 -0.937 68 55 46
-20.2744 32.0176 65.2778 -0.352 -0.294 -0.888 74 61 53
-17.9325 31.6076 64.5434 -0.465 -0.132 -0.876 88 75 56
-17.8073 31.5753 64.4818 -0.465 -0.132 -0.876 95 81 62
-17.5285 31.5284 64.3984 -0.420 -0.133 -0.898 89 76 56
-17.7388 31.2918 63.8773 -0.214 -0.580 -0.786 86 77 56
-17.6013 31.2679 63.8345 -0.212 -0.578 -0.788 87 77 55
-16.3832 31.3564 64.1005 -0.167 -0.318 -0.933 91 80 53
-16.0770 31.3245 64.0510 -0.443 -0.075 -0.894 88 81 55
-15.9384 31.2999 64.0068 -0.456 -0.079 -0.886 81 74 48
-15.8024 31.2737 63.9590 -0.358 -0.110 -0.927 81 74 48
-15.6784 31.2406 63.8957 -0.268 -0.055 -0.962 81 74 49
-14.4104 31.0289 63.5199 -0.210 -0.197 -0.958 91 80 58
-14.2652 31.0075 63.4830 -0.226 -0.084 -0.971 94 84 59
-9.9238 30.4291 62.5115 -0.452 -0.014 -0.892 81 65 50
-9.3299 30.3424 62.3622 -0.148 -0.072 -0.986 92 76 61
-9.1828 30.3199 62.3230 0.066 0.026 -0.997 91 75 60
-8.9485 30.3401 62.3809 -0.094 -0.664 -0.741 90 74 59
-8.5069 30.2717 62.2617 -0.353 -0.739 -0.574 101 83 71
-4.5059 29.7384 61.3656 -0.229 -0.401 -0.887 82 68 57
-4.3808 29.7043 61.3002 -0.205 -0.487 -0.849 83 69 58
0.7097 29.7402 61.6943 0.157 -0.099 -0.983 55 47 35
1.9354 29.6252 61.5235 -0.556 -0.327 -0.764 94 87 69
5.1813 29.6804 61.8442 0.001 -0.120 -0.993 74 71 54
8.6135 29.2573 61.1495 -0.192 -0.089 -0.977 104 99 81
8.8077 29.2434 61.1316 -0.201 -0.072 -0.977 119 114 95
11.0900 29.2950 61.3845 -0.481 -0.430 -0.764 95 99 66
12.8103 29.3848 61.6846 0.109 -0.771 -0.627 114 114 86
13.1635 29.4209 61.7840 0.086 -0.786 -0.612 119 118 90
14.9279 29.4301 61.9135 -0.199 -0.403 -0.893 131 136 103
15.1393 29.4172 61.8992 -0.044 -0.549 -0.834 140 143 112
15.6624 29.4237 61.9455 0.223 -0.477 -0.850 145 143 118
18.1887 29.5764 62.4307 0.103 -0.313 -0.944 133 132 102
18.5645 29.4500 62.1828 0.130 -0.858 -0.497 120 119 90
-54.8609 45.6168 91.9358 -0.243 -0.868 -0.433 64 94 56
-54.5647 45.5327 91.7738 0.261 -0.575 -0.776 52 84 45
-53.5064 44.6043 89.8525 -0.383 0.471 -0.795 54 81 55
-53.1958 44.6138 89.8914 -0.332 0.395 -0.856 57 78 61
-52.8017 44.3037 89.2521 -0.827 -0.103 -0.553 44 65 47
-52.6682 44.2142 89.0689 -0.827 -0.103 -0.553 39 52 45
-52.5364 44.1196 88.8745 -0.834 -0.106 -0.542 38 44 47
-52.4083 44.0116 88.6512 -0.819 -0.061 -0.571 38 41 49
-52.2759 43.9234 88.4706 -0.819 -0.061 -0.571 35 38 46
-52.1486 43.8162 88.2491 -0.746 0.027 -0.666 29 32 37
-51.7387 43.6166 87.8470 -0.730 -0.061 -0.681 94 100 99
-51.6097 43.5230 87.6546 -0.740 0.083 -0.667 142 150 148
-51.4799 43.4343 87.4728 -0.844 0.026 -0.535 140 148 145
-51.2269 43.2374 87.0670 -0.879 0.027 -0.476 91 100 95
-50.7175 42.8774 86.3279 -0.696 -0.214 -0.685 57 60 51
-50.5819 42.8191 86.2114 -0.707 -0.247 -0.663 43 49 39
-49.4461 42.5321 85.6662 -0.616 -0.153 -0.773 55 56 51
-49.3036 42.4985 85.6028 -0.593 -0.243 -0.767 55 56 51
-48.8835 42.3753 85.3647 -0.569 -0.098 -0.817 99 101 98
-48.7455 42.3290 85.2741 -0.569 -0.098 -0.817 85 87 84
-48.6111 42.2726 85.1616 -0.575 -0.084 -0.814 78 80 79
-48.5555 41.5689 83.6602 -0.813 -0.015 -0.582 84 86 83
-48.4266 41.5057 83.5329 -0.619 -0.120 -0.776 87 89 84
-48.3063 41.4198 83.3565 -0.578 -0.122 -0.807 87 90 83
-47.5572 40.9982 82.5001 -0.774 -0.492 -0.398 79 82 73
-47.4803 40.8098 82.1019 -0.787 -0.153 -0.598 84 85 77
-47.3584 40.7370 81.9536 -0.902 -0.282 -0.327 84 85 77
-44.1775 39.4071 79.3017 -0.850 -0.094 -0.518 82 89 82
-43.8424 39.1735 78.8223 -0.322 0.243 -0.915 120 129 124
-43.5954 39.0663 78.6079 -0.299 0.161 -0.940 141 150 145
-43.1126 38.8356 78.1438 -0.716 0.064 -0.696 124 133 128
-41.5225 38.9366 78.4555 -0.398 -0.555 -0.730 144 153 150
-41.4015 38.8795 78.3406 -0.501 0.222 -0.836 143 154 150
-40.7346 38.6999 77.9967 -0.356 0.150 -0.923 146 152 150
-28.3496 33.9183 68.5187 -0.253 -0.081 -0.964 162 165 158
-28.2179 33.8911 68.4684 -0.700 -0.041 -0.713 162 165 158
-28.1082 33.8447 68.3759 -0.736 -0.044 -0.675 163 166 158
-27.6702 34.0832 68.9122 -0.530 0.037 -0.847 167 169 156
-26.5802 33.3401 67.3888 -0.656 -0.487 -0.576 104 104 88
-26.4773 33.2900 67.2878 -0.603 -0.522 -0.603 104 104 88
-26.3678 33.2454 67.1992 -0.546 -0.451 -0.706 104 104 88
-24.0015 32.7622 66.3085 -0.075 -0.056 -0.996 182 185 176
-22.3607 33.0957 67.1203 -0.963 -0.263 0.054 182 184 173
-22.1981 32.3565 65.5495 -0.359 -0.296 -0.885 87 83 73
-20.9484 32.2738 65.4480 -0.250 -0.021 -0.968 117 110 98
-20.8096 32.2510 65.4075 -0.226 -0.037 -0.973 91 80 71
-20.5656 32.1825 65.2760 -0.136 -0.238 -0.962 72 56 45
-17.8917 31.7620 64.5379 -0.369 -0.115 -0.922 91 74 58
-17.7582 31.7349 64.4878 -0.369 -0.115 -0.922 97 81 65
-17.1039 31.3755 63.7587 -0.129 -0.386 -0.913 91 80 58
-16.4159 31.5737 64.2241 0.171 0.055 -0.984 90 80 55
-16.3729 31.4922 64.0524 -0.167 -0.318 -0.933 90 80 55
-16.2340 31.4680 64.0089 -0.193 -0.317 -0.928 91 81 56
-15.9298 31.4349 63.9565 -0.431 -0.227 -0.873 81 74 48
-15.5166 31.3595 63.8201 -0.265 -0.118 -0.957 84 73 51
-15.3594 31.3455 63.7998 -0.251 0.031 -0.967 86 74 53
-15.2961 31.2773 63.6577 -0.627 0.350 -0.696 88 73 54
-14.4357 31.1450 63.4266 -0.037 -0.384 -0.922 90 79 57
-14.1122 31.1210 63.3949 -0.553 -0.054 -0.831 102 92 67
-13.9895 31.0871 63.3297 -0.603 -0.109 -0.790 107 97 72
-13.8893 31.0407 63.2365 -0.585 -0.061 -0.809 101 91 66
-13.6056 30.7923 62.7225 -0.557 -0.208 -0.804 88 76 52
-9.9581 30.5444 62.4120 -0.474 -0.248 -0.845 85 68 52
-8.8316 30.4356 62.2473 -0.324 -0.781 -0.534 83 63 52
-8.5763 30.3712 62.1249 -0.324 -0.755 -0.570 95 77 65
-4.3460 29.8547 61.2753 -0.207 -0.506 -0.837 89 72 64
1.1935 29.9016 61.7092 0.011 0.009 -1.000 97 86 66
1.7071 29.8473 61.6241 -0.134 0.015 -0.991 98 90 69
5.3724 29.8105 61.7662 -0.683 -0.193 -0.704 66 63 46
6.1110 29.5787 61.3150 -0.537 -0.090 -0.838 42 39 22
6.6052 29.5092 61.1961 -0.406 -0.451 -0.795 79 74 55
6.7924 29.4942 61.1752 -0.322 -0.413 -0.852 73 67 52
11.0214 29.5833 61.6204 0.175 -0.073 -0.982 99 99 74
11.0580 29.4309 61.2968 -0.410 -0.318 -0.855 91 92 63
12.8518 29.5475 61.6541 0.252 -0.482 -0.839 105 103 79
14.0129 29.6069 61.8511 0.004 -0.351 -0.936 118 119 90
14.7368 29.5999 61.8797 -0.199 -0.403 -0.893 124 127 96
14.9239 29.5794 61.8471 -0.199 -0.403 -0.893 134 136 103
15.3454 29.5535 61.8172 -0.034 -0.540 -0.841 148 147 121
15.6140 29.5592 61.8455 0.125 -0.540 -0.832 141 136 114
17.7956 29.6059 62.0767 -0.270 -0.353 -0.896 132 133 103
-59.2412 51.0824 102.9306 0.615 -0.678 -0.402 42 48 43
-59.0724 51.1121 103.0037 0.615 -0.676 -0.406 40 50 42
-55.7569 46.9690 94.3753 -0.461 0.537 -0.706 70 92 63
-54.0166 45.2336 90.7817 0.045 -0.920 -0.388 43 76 29
-53.5142 44.6639 89.5978 -0.605 0.119 -0.788 54 80 56
-53.3227 44.8411 89.9862 -0.523 -0.568 -0.636 57 78 64
-52.7890 44.4606 89.2073 -0.838 -0.043 -0.545 32 49 39
-52.6684 44.3154 88.9052 -0.697 0.125 -0.707 30 42 39
-52.5339 44.2328 88.7370 -0.712 0.121 -0.691 29 35 42
-51.7252 43.7747 87.8087 -0.649 0.044 -0.760 159 165 163
-51.5914 43.6992 87.6557 -0.667 0.036 -0.744 122 128 124
-51.4561 43.6307 87.5178 -0.738 0.077 -0.671 87 93 89
-51.3305 43.5273 87.3049 -0.823 0.022 -0.568 82 88 84
-50.5824 42.9275 86.0715 -0.717 -0.177 -0.674 44 47 38
-50.0255 42.7500 85.7260 -0.314 -0.325 -0.892 57 60 53
-49.8490 42.8251 85.8960 -0.515 -0.266 -0.815 58 59 54
-49.5632 42.7585 85.7709 -0.491 -0.358 -0.794 60 61 56
-49.4338 42.6838 85.6193 -0.675 0.044 -0.737 61 62 57
-49.2956 42.6369 85.5275 -0.604 -0.231 -0.763 60 61 56
-48.7304 42.4884 85.2443 -0.555 -0.075 -0.829 82 84 81
-47.5668 41.0902 82.3350 -0.803 -0.342 -0.487 78 81 72
-47.5353 40.7871 81.6914 -0.685 -0.335 -0.647 79 80 72
-47.1426 41.3936 83.0056 -0.218 -0.391 -0.894 79 80 72
-46.9746 41.4305 83.0941 -0.675 -0.240 -0.698 74 75 67
-46.1567 40.4747 81.1065 -0.757 0.092 -0.647 76 77 71
-46.0717 40.3238 80.7902 -0.370 0.228 -0.901 61 62 56
-45.9466 40.2650 80.6723 -0.353 0.148 -0.924 49 50 44
-45.8092 40.2343 80.6149 -0.353 0.148 -0.924 50 52 45
-45.4793 40.2930 80.7590 -0.475 -0.254 -0.842 72 77 71
-45.3447 40.2548 80.6856 -0.679 -0.098 -0.728 76 81 75
-44.2080 40.3876 81.0344 -0.564 0.232 -0.793 73 80 73
-44.0500 39.4799 79.1110 -0.843 -0.143 -0.518 117 126 121
-43.9328 39.4125 78.9743 -0.625 -0.065 -0.778 126 135 130
-42.9056 40.2001 80.7111 0.304 -0.212 -0.929 125 134 129
-42.8248 40.0592 80.4157 -0.695 -0.273 -0.666 120 129 124
-42.6984 40.0043 80.3063 -0.695 -0.273 -0.666 120 129 124
-42.6114 39.8775 80.0414 -0.915 -0.245 -0.321 126 135 130
-41.9640 39.0978 78.4188 -0.249 0.014 -0.968 139 148 143
-30.0770 32.7924 65.6854 -0.742 -0.552 -0.380 153 156 149
-28.5136 33.7570 67.8302 -0.138 -0.082 -0.987 162 165 158
-28.3789 33.7338 67.7886 -0.084 0.172 -0.982 163 166 158
-28.2199 33.7316 67.7931 0.078 0.051 -0.996 170 172 158
-26.7651 33.5843 67.5642 -0.842 -0.424 -0.334 83 80 65
-22.9238 33.4419 67.4846 -0.286 -0.265 -0.921 182 185 176
-22.3958 33.1993 66.9989 -0.963 -0.263 0.054 173 175 164
-22.2324 32.4592 65.4325 -0.217 -0.465 -0.858 81 77 66
-22.0840 32.4441 65.4090 -0.183 -0.462 -0.868 82 78 67
-21.9448 32.4225 65.3711 -0.192 -0.446 -0.874 86 82 71
-21.7954 32.4079 65.3488 -0.196 -0.433 -0.880 93 89 78
-18.0132 31.9258 64.5424 -0.381 -0.107 -0.918 85 69 54
-17.8815 31.8975 64.4898 -0.397 -0.451 -0.799 90 74 59
-11.3484 30.8383 62.6147 -0.589 -0.440 -0.678 105 87 73
-10.8644 30.7959 62.5526 -0.213 -0.281 -0.936 107 90 72
-10.7135 30.7761 62.5192 -0.268 -0.056 -0.962 107 90 72
1.2594 30.0684 61.7091 0.007 0.013 -1.000 96 88 69
1.8826 29.8844 61.3536 -0.497 -0.308 -0.811 94 89 66
2.9698 29.7978 61.2325 -0.571 0.182 -0.801 86 80 64
5.0437 29.9142 61.6011 -0.321 -0.314 -0.894 76 73 59
6.1158 29.7237 61.2577 -0.530 -0.087 -0.844 45 42 25
6.2399 29.6855 61.1837 -0.530 -0.087 -0.844 60 57 39
6.5505 29.6324 61.0886 -0.430 -0.462 -0.776 69 66 46
7.2667 29.5603 60.9769 -0.314 -0.271 -0.910 74 68 55
7.4241 29.5342 60.9304 -0.314 -0.271 -0.910 90 84 71
7.5905 29.5113 60.8914 -0.210 -0.284 -0.936 110 104 92
11.0350 29.7353 61.5688 0.156 -0.020 -0.988 101 101 76
13.4185 29.7225 61.6802 0.248 -0.275 -0.929 119 117 92
14.3692 29.7932 61.8861 -0.425 -0.436 -0.793 118 121 90
-55.5963 47.0618 94.1860 -0.273 0.337 -0.901 79 94 69
-54.7631 45.4607 90.8382 -0.277 -0.452 -0.848 57 85 45
-54.6161 45.4212 90.7627 -0.472 -0.578 -0.665 57 88 46
-53.0346 44.8431 89.6260 -0.880 -0.171 -0.443 26 43 34
-52.9047 44.7322 89.3982 -0.882 -0.164 -0.442 29 46 39
-52.7742 44.6269 89.1823 -0.810 -0.196 -0.553 32 47 42
-52.6411 44.5352 88.9954 -0.791 -0.177 -0.585 24 34 34
-52.5232 44.3808 88.6745 -0.710 0.110 -0.696 25 31 36
-51.7078 43.9485 87.8038 -0.649 0.044 -0.760 98 103 99
-51.4365 43.8114 87.5284 -0.706 0.108 -0.700 71 76 70
-49.8204 43.0290 85.9604 -0.613 -0.199 -0.765 58 59 54
-49.6912 42.9517 85.8038 -0.302 -0.009 -0.953 58 59 54
-49.4317 42.8042 85.5055 -0.519 0.229 -0.823 68 69 64
-49.2766 42.8088 85.5241 -0.573 -0.091 -0.814 68 69 64
-49.1424 42.7498 85.4064 -0.300 -0.071 -0.951 68 69 64
-48.4202 42.6094 85.1495 -0.289 0.522 -0.802 81 83 80
-47.5556 41.2350 82.2841 -0.772 0.066 -0.632 79 82 75
-47.5394 40.8924 81.5586 -0.705 -0.303 -0.641 79 80 74
-47.1337 41.5341 82.9419 -0.218 -0.391 -0.894 79 80 72
-46.9649 41.5733 83.0344 -0.664 -0.253 -0.703 75 76 68
-46.8330 41.5201 82.9290 -0.664 -0.253 -0.703 64 65 57
-45.4844 40.4012 80.6326 -0.412 0.086 -0.907 71 76 70
-44.5746 40.7096 81.3376 -0.500 0.192 -0.845 75 82 75
-44.1732 40.5807 81.0868 -0.621 0.075 -0.780 109 116 109
-44.0216 40.5743 81.0817 -0.419 -0.200 -0.885 118 125 118
-43.0652 40.3173 80.5906 0.318 -0.236 -0.918 122 131 126
-42.8912 40.3516 80.6729 0.276 -0.269 -0.923 122 131 126
-42.8288 40.1756 80.3033 -0.719 -0.227 -0.656 123 132 127
-42.6985 40.1282 80.2103 -0.921 -0.241 -0.307 125 134 129
-42.6113 40.0016 79.9467 -0.915 -0.245 -0.321 132 141 136
-42.7054 38.7191 77.2224 -0.831 -0.185 -0.525 137 146 141
-42.5655 38.6994 77.1884 -0.752 0.165 -0.638 137 146 141
-42.4376 38.6583 77.1085 -0.672 0.283 -0.685 137 146 141
-42.3291 38.5837 76.9564 -0.630 0.046 -0.775 145 154 149
-28.4894 33.9030 67.8100 -0.165 -0.098 -0.981 162 165 158
-28.3379 33.8945 67.8004 -0.167 -0.077 -0.983 162 165 157
-22.9080 33.5830 67.4450 -0.273 -0.226 -0.935 182 185 176
-23.2984 32.9142 66.0052 -0.202 -0.135 -0.970 182 185 176
-22.2411 32.5798 65.3556 -0.309 -0.248 -0.918 74 72 60
-22.1049 32.5562 65.3132 -0.173 -0.223 -0.959 77 73 62
-21.9614 32.5378 65.2822 -0.271 -0.284 -0.920 81 77 66
-19.4663 32.3621 65.0499 -0.387 -0.276 -0.880 94 80 67
-19.3237 32.3411 65.0134 -0.446 -0.284 -0.849 94 80 67
-19.2369 32.2836 64.8962 -0.477 -0.121 -0.870 92 78 65
-18.7028 32.1760 64.6981 -0.370 -0.257 -0.893 86 70 55
-18.5683 32.1497 64.6499 -0.370 -0.257 -0.893 93 77 61
-17.9965 32.0654 64.5034 -0.420 -0.462 -0.781 84 68 53
-17.8655 32.0367 64.4499 -0.420 -0.462 -0.781 89 73 57
-13.8915 31.3003 63.1118 -0.556 -0.045 -0.830 100 90 65
-13.8275 31.2337 62.9742 -0.452 -0.553 -0.700 100 90 65
-11.3679 30.9597 62.5315 -0.316 -0.213 -0.925 101 83 69
-11.2259 30.9357 62.4885 -0.316 -0.213 -0.925 99 82 66
-10.9972 30.9568 62.5462 -0.193 -0.316 -0.929 99 82 64
-10.6989 30.9156 62.4756 -0.376 -0.297 -0.878 99 82 62
-10.5812 30.8787 62.4040 -0.358 -0.213 -0.909 104 87 67
-10.4490 30.8493 62.3490 -0.389 -0.253 -0.886 99 82 64
-9.8362 30.9683 62.6356 -0.208 -0.292 -0.933 93 76 60
-8.9001 30.8593 62.4571 -0.729 0.230 -0.644 95 82 66
-8.6503 30.7914 62.3273 -0.463 -0.327 -0.824 90 71 57
1.3648 30.1637 61.5591 -0.594 -0.508 -0.624 90 86 63
5.0307 30.0520 61.5282 -0.418 -0.470 -0.777 83 79 69
10.9376 29.7655 61.2525 -0.175 0.011 -0.984 103 103 77
12.4924 29.8051 61.4238 0.200 -0.256 -0.946 94 92 67
12.7287 29.8030 61.4327 0.173 -0.337 -0.926 105 101 76
14.7762 29.9140 61.7831 -0.109 -0.292 -0.950 111 115 84
14.9444 29.8874 61.7360 -0.216 -0.244 -0.945 118 119 88
15.0793 29.8497 61.6636 -0.115 -0.396 -0.911 122 122 94
15.3242 29.8483 61.6745 -0.417 -0.116 -0.901 130 128 105
15.4154 29.7961 61.5691 -0.504 -0.022 -0.863 129 124 104
15.5462 29.7571 61.4937 -0.504 -0.022 -0.863 135 130 110
15.7786 29.7513 61.4944 -0.316 -0.470 -0.824 139 134 112
-55.9282 48.1607 96.0949 -0.542 0.747 -0.385 122 129 112
-55.2639 46.2473 92.0912 -0.443 0.775 -0.450 80 97 68
-51.6923 44.1145 87.7818 -0.657 0.036 -0.753 89 93 86
-49.9388 43.2545 86.0613 -0.707 -0.007 -0.707 62 64 59
-49.8108 43.1723 85.8946 -0.606 0.014 -0.795 68 69 64
-49.5405 43.0562 85.6642 -0.630 0.034 -0.776 73 74 69
-48.9799 42.8905 85.3447 -0.300 -0.071 -0.951 76 78 73
-48.8402 42.8486 85.2637 -0.391 -0.095 -0.915 83 85 80
-48.6968 42.8173 85.2055 -0.472 -0.080 -0.878 72 74 69
-47.7584 41.6107 82.7090 -0.621 0.183 -0.762 79 82 75
-47.5321 41.0263 81.4874 -0.705 -0.303 -0.641 78 81 74
-47.0804 41.7862 83.1161 -0.423 -0.303 -0.854 78 81 74
-46.9396 41.7548 83.0574 -0.423 -0.303 -0.854 75 78 71
-46.8241 41.6609 82.8654 -0.680 -0.287 -0.675 63 66 59
-46.6870 41.6208 82.7883 -0.432 -0.472 -0.768 63 66 57
-46.5393 41.6067 82.7665 -0.422 -0.462 -0.780 63 66 57
-46.1273 40.7790 81.0413 -0.727 0.059 -0.684 76 78 71
-45.6036 40.5921 80.6751 -0.428 0.149 -0.891 38 43 37
-45.4513 40.5932 80.6856 -0.675 -0.075 -0.734 53 58 52
-44.5469 40.8895 81.3603 -0.475 0.198 -0.858 118 124 120
-43.7624 40.5953 80.7816 -0.412 0.133 -0.902 135 142 135
-43.6328 40.5451 80.6827 -0.391 0.105 -0.914 129 138 133
-43.5071 40.4875 80.5679 -0.480 0.185 -0.858 125 134 129
-43.3664 40.4595 80.5164 -0.383 0.148 -0.912 126 135 130
-43.0594 40.4523 80.5177 0.374 0.118 -0.920 129 138 133
-42.9493 40.3657 80.3409 -0.604 -0.191 -0.773 128 137 132
-42.8197 40.3167 80.2444 -0.719 -0.227 -0.656 128 137 132
-42.7119 40.2273 80.0615 -0.682 -0.208 -0.701 131 140 135
-42.4924 40.0584 79.7168 -0.879 -0.316 -0.356 137 146 141
-28.6036 34.0692 67.8245 -0.257 0.035 -0.966 165 168 161
-28.4645 34.0498 67.7912 -0.165 -0.098 -0.981 165 168 161
-28.3198 34.0353 67.7683 -0.165 -0.098 -0.981 165 168 160
-27.1063 33.8237 67.3872 -0.709 -0.389 -0.589 66 67 51
-25.6737 33.3871 66.5432 -0.177 -0.517 -0.838 93 97 72
-25.3727 33.3647 66.5121 -0.389 -0.515 -0.764 81 85 62
-23.6446 33.2850 66.4374 -0.271 -0.121 -0.955 180 183 174
-22.2273 32.7164 65.3139 -0.309 -0.248 -0.918 75 73 61
-22.0897 32.6938 65.2737 -0.309 -0.248 -0.918 71 67 56
-21.9521 32.6712 65.2334 -0.309 -0.248 -0.918 73 69 58
-19.5622 32.5427 65.0915 -0.017 -0.191 -0.981 84 70 57
-19.4580 32.4963 64.9991 -0.352 -0.229 -0.908 89 75 62
-19.3300 32.4657 64.9416 -0.460 -0.270 -0.846 95 81 68
-19.2236 32.4209 64.8528 -0.482 -0.175 -0.859 103 89 76
-18.6902 32.3129 64.6535 -0.370 -0.257 -0.893 108 92 76
-18.5557 32.2866 64.6053 -0.370 -0.257 -0.893 112 96 80
-18.4275 32.1440 64.3112 -0.575 -0.511 -0.639 98 85 68
-18.0051 32.1891 64.4293 -0.417 -0.457 -0.786 86 70 54
-15.7984 32.1189 64.4007 0.486 -0.647 -0.588 85 78 52
-13.8034 31.3774 62.9432 -0.660 -0.436 -0.612 100 90 65
-9.9728 31.1290 62.6263 -0.293 -0.405 -0.866 92 75 59
-9.8199 31.1095 62.5935 -0.206 -0.324 -0.923 95 79 63
-10.0365 30.9012 62.1419 -0.472 -0.578 -0.666 104 88 73
-8.5860 30.8608 62.1352 -0.345 -0.047 -0.938 97 79 67
1.8317 30.1437 61.1857 -0.592 -0.300 -0.748 77 82 41
4.7440 30.1701 61.3991 -0.227 -0.273 -0.935 63 60 50
12.6965 29.9404 61.3450 0.170 -0.305 -0.937 124 120 95
13.1665 30.0182 61.5347 0.146 0.130 -0.981 126 122 97
13.4358 30.0269 61.5677 0.140 0.147 -0.979 122 120 95
15.4388 30.0370 61.6976 -0.464 -0.092 -0.881 120 118 95
15.4811 29.9685 61.5552 -0.496 -0.032 -0.868 131 126 104
15.6135 29.9299 61.4809 -0.496 -0.032 -0.868 137 132 112
15.7390 29.8891 61.4015 -0.468 -0.082 -0.880 139 134 112
-55.3759 46.6032 92.4500 -0.466 0.724 -0.509 81 94 71
-52.3487 44.6733 88.5505 -0.769 0.071 -0.636 142 147 139
-51.6832 44.2560 87.7080 -0.707 -0.058 -0.705 81 84 75
-50.1829 43.5743 86.3529 -0.828 -0.112 -0.550 63 65 60
-49.7931 43.3416 85.8841 -0.606 0.014 -0.795 70 72 67
-49.6696 43.2459 85.6894 -0.335 -0.017 -0.942 79 80 75
-49.5186 43.2379 85.6805 -0.634 0.006 -0.773 78 80 75
-49.3782 43.1967 85.6012 -0.670 0.026 -0.742 78 80 75
-49.2395 43.1502 85.5107 -0.608 0.037 -0.793 85 87 82
-49.1011 43.1035 85.4197 -0.499 -0.064 -0.864 88 90 85
-48.9631 43.0555 85.3260 -0.435 -0.112 -0.893 84 85 80
-48.4447 42.3391 83.8468 -0.788 -0.066 -0.612 85 86 81
-47.7402 41.7747 82.6971 -0.735 0.004 -0.678 84 87 80
-47.6208 41.6904 82.5260 -0.704 0.010 -0.710 84 86 81
-46.8012 41.8361 82.8750 -0.687 -0.276 -0.672 59 62 55
-46.8537 41.3310 81.8105 -0.149 -0.690 -0.708 60 63 56
-46.3973 41.3322 81.8367 -0.535 -0.676 -0.507 75 79 72
-46.2904 41.2249 81.6168 -0.434 -0.694 -0.575 78 82 75
-46.2122 41.0520 81.2573 -0.643 -0.312 -0.700 79 83 77
-46.0973 40.9666 81.0838 -0.650 -0.310 -0.694 70 75 69
-45.9895 40.8661 80.8780 -0.421 -0.007 -0.907 63 68 62
-45.5720 40.7815 80.7219 -0.734 -0.066 -0.676 76 83 76
-45.4313 40.7565 80.6769 -0.705 -0.062 -0.706 87 94 87
-44.5209 41.0663 81.3755 -0.493 0.189 -0.849 141 147 143
-43.7430 40.7570 80.7659 -0.472 0.193 -0.860 122 131 126
-43.6062 40.7208 80.6970 -0.352 0.166 -0.921 119 128 123
-43.4670 40.6893 80.6381 -0.352 0.166 -0.921 120 129 124
-43.3303 40.6530 80.5687 -0.293 0.134 -0.947 121 130 125
-43.0263 40.6394 80.5561 0.391 -0.156 -0.907 132 141 136
-42.8090 40.4606 80.1917 -0.783 -0.219 -0.583 134 143 138
-42.4944 40.1786 79.6150 -0.879 -0.316 -0.356 144 153 148
-28.7302 34.2242 67.8149 -0.079 -0.056 -0.995 167 170 163
-28.5967 34.2000 67.7709 -0.135 -0.101 -0.986 168 171 164
-28.3145 34.1648 67.7117 0.017 -0.287 -0.958 168 171 163
-27.5418 34.1332 67.6856 -0.563 -0.347 -0.750 59 61 47
-27.2266 33.9851 67.3907 -0.676 -0.271 -0.686 75 77 63
-23.2303 33.2185 65.9875 -0.143 -0.149 -0.978 186 189 180
-23.0914 33.1967 65.9490 -0.182 -0.168 -0.969 170 173 162
-22.9554 33.1727 65.9056 -0.664 -0.151 -0.733 139 141 130
-22.8601 33.1188 65.7971 -0.682 -0.148 -0.716 112 109 100
-20.8398 32.8604 65.3594 -0.249 -0.273 -0.929 86 77 68
-19.4388 32.6377 64.9643 -0.483 -0.187 -0.856 89 75 62
-19.3308 32.5938 64.8776 -0.482 -0.175 -0.859 95 81 68
-19.2066 32.5608 64.8147 -0.482 -0.175 -0.859 101 87 74
-17.9972 32.3231 64.3781 -0.418 -0.456 -0.786 87 70 54
-17.8660 32.2945 64.3249 -0.418 -0.456 -0.786 86 71 52
-17.1877 31.9467 63.6291 -0.079 -0.148 -0.986 95 80 59
-15.2748 31.8093 63.4400 -0.347 -0.316 -0.883 91 76 57
-15.0812 31.8170 63.4662 -0.695 0.151 -0.703 89 76 57
-14.9962 31.7610 63.3530 -0.690 0.159 -0.707 96 83 64
-13.7984 31.5104 62.8887 -0.559 -0.444 -0.701 100 90 65
-10.8446 31.2018 62.3939 -0.128 -0.346 -0.929 98 81 63
-9.8424 31.2308 62.5073 -0.244 -0.371 -0.896 98 84 67
-8.6231 30.9754 62.0339 -0.634 -0.297 -0.714 97 79 67
-3.4590 30.3403 60.9682 -0.820 0.016 -0.572 83 74 55
1.5855 30.5345 61.6397 -0.123 0.004 -0.992 81 83 57
1.7803 30.2626 61.0784 -0.257 -0.072 -0.964 79 87 41
2.0244 30.2744 61.1159 -0.724 -0.242 -0.646 77 84 41
2.2996 30.2985 61.1808 0.066 -0.377 -0.924 78 82 47
10.7711 30.2516 61.5244 -0.415 -0.386 -0.824 108 106 85
10.9183 30.2197 61.4651 -0.415 -0.386 -0.824 108 106 84
14.4506 30.2716 61.7585 0.029 -0.398 -0.917 113 116 85
14.6005 30.2390 61.6977 -0.085 -0.389 -0.917 114 117 86
15.4825 30.2025 61.6671 -0.376 -0.212 -0.902 120 118 93
15.5673 30.1479 61.5567 -0.344 -0.406 -0.847 131 126 104
15.8181 30.1484 61.5709 -0.560 -0.300 -0.772 138 134 111
15.9140 30.0976 61.4690 -0.536 -0.324 -0.780 139 134 110
17.7188 30.1109 61.5912 -0.253 0.037 -0.967 119 120 89
-59.9621 40.6007 79.2688 -0.837 -0.151 -0.526 54 76 50
-54.9730 46.2942 91.4394 -0.555 -0.444 -0.703 59 86 46
-54.7930 46.4427 91.7592 -0.206 -0.703 -0.681 56 85 41
-51.6666 44.4266 87.6954 -0.664 -0.100 -0.741 63 66 58
-51.3859 44.3243 87.4953 -0.634 0.018 -0.773 57 58 50
-49.7754 43.5111 85.8736 -0.606 0.014 -0.795 63 65 60
-49.6517 43.4156 85.6799 -0.335 -0.017 -0.942 71 73 68
-49.5027 43.4013 85.6575 -0.637 -0.002 -0.771 74 76 71
-49.3588 43.3705 85.6001 -0.645 0.027 -0.764 78 80 75
-49.2209 43.3214 85.5044 -0.608 0.037 -0.793 86 88 83
-48.4354 42.4805 83.7832 -0.796 -0.061 -0.602 85 86 80
-48.2954 42.4460 83.7180 -0.799 -0.112 -0.590 81 82 77
-46.8769 42.1489 83.1672 -0.305 -0.340 -0.890 55 60 54
-46.4775 41.6239 82.0882 -0.774 -0.005 -0.633 60 69 61
-46.0798 41.1256 81.0649 -0.632 -0.152 -0.760 64 71 64
-45.9601 41.0518 80.9164 -0.471 -0.010 -0.882 73 82 75
-45.8359 40.9893 80.7917 -0.272 0.254 -0.928 82 90 86
-45.5514 40.9465 80.7164 -0.651 0.122 -0.749 117 127 119
-45.4111 40.9206 80.6692 -0.576 0.203 -0.792 124 134 126
-43.8477 40.9806 80.8734 -0.546 0.250 -0.800 120 129 124
-43.7202 40.9253 80.7640 -0.550 0.206 -0.809 118 127 122
-43.5851 40.8855 80.6876 -0.505 0.207 -0.838 121 130 125
-43.4385 40.8686 80.6596 -0.352 0.166 -0.921 124 135 131
-42.9395 40.6316 80.1883 -0.827 -0.411 -0.385 138 147 144
-42.9558 39.4492 77.7120 -0.639 -0.177 -0.749 147 156 153
-28.4200 34.3390 67.7430 -0.169 0.043 -0.985 169 172 165
-27.5607 34.2422 67.5836 -0.485 -0.370 -0.792 66 68 54
-27.2229 34.1135 67.3312 -0.570 -0.199 -0.797 82 84 70
-27.1137 34.0681 67.2415 -0.583 -0.201 -0.787 102 100 85
-25.2441 33.5873 66.3288 -0.443 -0.334 -0.832 71 75 52
-23.0841 33.3290 65.8966 -0.285 -0.035 -0.958 158 160 149
-22.9579 33.2978 65.8376 -0.663 -0.092 -0.743 123 124 113
-20.8210 33.0015 65.3245 -0.264 -0.216 -0.940 85 77 66
-20.4015 32.8166 64.9585 -0.368 -0.563 -0.740 64 47 37
-19.4386 32.7664 64.9017 -0.398 -0.282 -0.873 89 75 62
-18.6466 32.3721 64.1160 -0.675 -0.296 -0.676 103 87 71
-17.9409 32.2644 63.9259 -0.282 -0.346 -0.895 86 71 53
-17.1670 32.0880 63.5956 -0.053 0.043 -0.998 84 74 52
-14.2361 31.7021 62.9347 -0.610 -0.013 -0.792 94 84 59
-13.9388 31.6643 62.8705 -0.491 -0.031 -0.870 100 90 65
-13.8068 31.6358 62.8175 -0.499 -0.034 -0.866 100 90 65
-13.1614 31.6901 62.9635 -0.217 -0.089 -0.972 60 49 27
-10.0383 31.1642 62.0193 -0.378 0.204 -0.903 118 108 91
-3.3769 30.4222 60.8004 -0.436 -0.244 -0.866 79 76 53
1.1301 30.6634 61.5317 0.190 -0.394 -0.899 67 68 51
1.3610 30.6705 61.5583 -0.132 -0.052 -0.990 73 75 55
1.5799 30.6725 61.5734 -0.077 -0.037 -0.996 81 84 55
1.7725 30.6634 61.5639 -0.083 -0.041 -0.996 92 96 59
1.9840 30.3979 61.0187 -0.664 -0.292 -0.689 78 84 41
2.2845 30.4326 61.1064 -0.089 -0.446 -0.891 77 83 47
8.0340 30.1649 60.8349 -0.303 0.065 -0.951 66 62 50
11.3774 30.1937 61.0630 -0.010 -0.382 -0.924 104 104 76
11.8763 30.2017 61.1049 0.173 -0.250 -0.953 113 113 85
12.2209 30.2386 61.1993 0.165 -0.125 -0.978 121 121 95
12.5569 30.2720 61.2862 0.196 -0.138 -0.971 126 126 100
13.0883 30.2890 61.3484 0.210 -0.221 -0.952 125 123 98
14.1931 30.4178 61.6735 -0.186 -0.640 -0.746 107 110 81
14.3893 30.4010 61.6483 -0.248 -0.702 -0.668 107 110 81
15.5259 30.3680 61.6363 -0.017 -0.763 -0.646 120 119 91
15.8108 30.2971 61.5020 -0.537 -0.311 -0.784 138 134 109
15.9596 30.2637 61.4397 -0.536 -0.315 -0.784 139 135 108
17.7899 30.2865 61.5794 -0.253 0.037 -0.967 114 115 85
18.4587 30.3381 61.7208 0.185 -0.157 -0.970 97 98 65
-55.5127 47.9335 94.4520 -0.935 -0.323 -0.144 103 112 91
-55.0046 47.1347 92.8111 -0.954 -0.232 -0.192 61 84 48
-54.7805 46.6021 91.7114 -0.243 -0.729 -0.640 59 88 44
-54.6301 46.5717 91.6553 -0.253 -0.733 -0.632 65 94 50
-54.2008 46.3615 91.2377 -0.820 -0.044 -0.571 62 88 60
-52.1726 44.9725 88.4397 -0.780 0.064 -0.623 112 118 115
-51.6550 44.5779 87.6419 -0.625 -0.075 -0.777 68 71 64
-51.5024 44.5736 87.6404 -0.379 0.154 -0.913 74 75 67
-51.3694 44.4938 87.4805 -0.656 0.088 -0.750 83 84 76
-51.2336 44.4260 87.3457 -0.758 0.213 -0.616 79 79 69
-49.8906 43.7483 85.9974 -0.721 -0.039 -0.692 53 55 50
-49.7577 43.6807 85.8630 -0.606 0.014 -0.795 58 60 55
-49.6338 43.5855 85.6704 -0.335 -0.017 -0.942 64 67 60
-49.4790 43.5890 85.6852 -0.783 -0.248 -0.570 70 72 67
-49.3430 43.5335 85.5760 -0.669 0.013 -0.743 78 80 75
-48.6717 42.7910 84.0604 -0.384 0.040 -0.922 97 98 92
-48.2855 42.5888 83.6576 -0.800 -0.264 -0.539 79 80 74
-46.5323 41.6100 81.7014 -0.794 0.190 -0.578 54 63 55
-46.4200 41.5145 81.5078 -0.852 0.186 -0.489 56 66 58
-46.3000 41.4388 81.3557 -0.808 0.257 -0.531 65 74 69
-46.1804 41.3630 81.2035 -0.822 -0.028 -0.569 69 78 73
-46.0544 41.3028 81.0840 -0.670 -0.200 -0.715 80 89 84
-45.9373 41.2228 80.9229 -0.454 0.008 -0.891 102 111 106
-45.8055 41.1772 80.8342 -0.272 0.254 -0.928 126 137 131
-45.6765 41.1255 80.7327 -0.556 -0.026 -0.831 135 146 140
-45.5280 41.1179 80.7239 -0.651 0.122 -0.749 138 149 141
-45.3836 41.1009 80.6955 -0.576 0.203 -0.792 139 150 142
-44.9707 41.6739 81.9101 -0.421 0.407 -0.811 138 149 141
-44.8337 41.6348 81.8352 -0.410 0.417 -0.812 131 142 134
-44.0722 41.2780 81.1280 -0.567 0.273 -0.777 123 134 130
-43.9479 41.2148 81.0022 -0.576 0.271 -0.772 122 133 129
-43.8160 41.1676 80.9102 -0.546 0.250 -0.800 122 133 129
-43.6847 41.1195 80.8162 -0.496 0.202 -0.844 122 133 129
-43.5577 41.0632 80.7050 -0.404 0.101 -0.909 126 137 133
-43.4087 41.0506 80.6860 -0.429 0.083 -0.899 130 141 137
-27.6476 34.4332 67.6499 -0.350 -0.356 -0.866 69 73 58
-27.5656 34.3632 67.5080 -0.497 -0.346 -0.796 70 74 59
-27.2042 34.2549 67.2996 -0.646 -0.086 -0.758 88 91 76
-27.1189 34.1888 67.1660 -0.679 -0.026 -0.733 89 91 74
-26.5859 33.9526 66.6991 -0.581 0.020 -0.814 84 86 67
-23.0580 33.4755 65.8747 -0.283 -0.149 -0.948 148 150 139
-22.9333 33.4431 65.8131 -0.339 -0.096 -0.936 109 110 99
-22.7142 33.3560 65.6422 -0.702 -0.062 -0.710 83 79 67
-21.4446 33.0510 65.0676 -0.666 0.086 -0.741 121 117 106
-20.8125 33.1354 65.2741 -0.273 -0.202 -0.941 85 77 66
-20.4436 32.9155 64.8333 -0.308 -0.510 -0.803 58 41 31
-19.7251 32.9355 64.9096 -0.250 -0.221 -0.943 86 72 59
-19.5723 32.9217 64.8883 -0.271 -0.246 -0.931 84 70 57
-19.4139 32.9115 64.8748 -0.406 -0.279 -0.871 90 77 61
-19.2796 32.8851 64.8262 -0.556 -0.423 -0.715 96 84 68
-19.1607 32.8485 64.7555 -0.556 -0.423 -0.715 98 86 72
-19.3000 32.6406 64.3155 -0.490 -0.093 -0.867 85 73 59
-18.7890 32.7486 64.5653 -0.467 -0.322 -0.824 63 49 36
-18.6660 32.7148 64.5007 -0.470 -0.303 -0.829 72 58 45
-18.7090 32.5728 64.2025 -0.583 -0.551 -0.597 84 70 57
-18.6026 32.5287 64.1157 -0.597 -0.529 -0.604 84 71 57
-18.3049 32.3834 63.8271 -0.490 -0.239 -0.838 81 67 54
-13.4358 31.8729 62.9979 -0.215 -0.025 -0.976 75 64 42
-13.2862 31.8539 62.9654 -0.215 -0.025 -0.976 77 66 44
-13.1148 31.8471 62.9595 -0.228 -0.084 -0.970 77 69 46
-8.0685 31.1340 61.7164 0.001 -0.130 -0.991 98 80 70
-4.6050 31.0985 61.8094 0.066 -0.381 -0.922 103 83 74
0.9677 30.7352 61.3210 -0.032 -0.163 -0.986 64 65 49
1.7065 30.8655 61.6282 -0.056 -0.701 -0.711 88 91 62
1.9017 30.8574 61.6208 -0.056 -0.701 -0.711 111 115 76
2.0304 30.8216 61.5525 -0.042 -0.654 -0.756 104 110 65
2.2410 30.5549 61.0065 -0.149 -0.118 -0.982 75 80 46
4.5475 30.6066 61.2256 -0.158 0.089 -0.983 37 35 22
7.2912 30.4568 61.0457 -0.224 -0.054 -0.973 39 35 24
10.3283 30.3865 61.0458 -0.202 -0.117 -0.972 108 106 85
10.9123 30.5119 61.3354 -0.438 -0.368 -0.820 109 107 85
10.7211 30.3590 61.0074 -0.048 -0.267 -0.962 104 102 78
11.6889 30.3669 61.0706 0.156 -0.304 -0.940 117 117 89
11.9598 30.3785 61.1078 0.160 -0.236 -0.959 127 127 99
12.6947 30.4684 61.3307 0.288 -0.336 -0.897 126 126 100
13.7019 30.6508 61.7597 0.480 -0.353 -0.803 124 124 100
15.6223 30.4681 61.4713 -0.017 -0.747 -0.665 137 133 106
15.9534 30.4127 61.3717 -0.523 -0.316 -0.791 141 137 108
16.6252 30.3873 61.3512 0.301 -0.257 -0.918 116 117 88
18.0489 30.6070 61.8781 0.254 0.087 -0.963 114 114 87
17.8881 30.4712 61.5872 -0.237 0.041 -0.971 115 115 88
-54.9681 47.4434 93.0700 -0.774 -0.625 0.100 62 84 49
-54.6249 46.6883 91.5180 -0.253 -0.733 -0.632 71 100 58
-54.4866 46.5904 91.3213 -0.341 -0.710 -0.616 57 85 45
-54.3279 46.6085 91.3661 -0.772 -0.339 -0.538 71 98 64
-54.1851 46.5374 91.2252 -0.805 -0.292 -0.517 97 123 99
-53.7810 46.2094 90.5629 -0.730 0.221 -0.647 156 179 169
-52.6893 45.5072 89.1556 -0.684 0.155 -0.713 109 122 116
-52.5517 45.4328 89.0074 -0.684 0.155 -0.713 100 111 103
-52.4222 45.3245 88.7885 -0.687 0.128 -0.716 105 115 106
-52.2947 45.2103 88.5573 -0.759 0.070 -0.648 92 99 91
-52.1577 45.1381 88.4137 -0.852 0.154 -0.500 80 86 81
-51.7630 44.8637 87.8624 -0.299 0.232 -0.926 65 68 59
-51.6347 44.7632 87.6596 -0.564 0.025 -0.825 85 88 80
-51.4815 44.7605 87.6611 -0.391 0.152 -0.908 86 89 80
-51.3497 44.6757 87.4911 -0.611 0.143 -0.779 86 87 79
-49.7396 43.8517 85.8550 -0.605 0.026 -0.796 59 62 55
-49.6236 43.7306 85.6089 -0.525 -0.205 -0.826 60 63 56
-49.4705 43.7290 85.6126 -0.783 -0.248 -0.570 58 60 55
-49.3321 43.6810 85.5194 -0.668 0.011 -0.745 61 63 58
-49.1965 43.1557 84.4350 -0.333 -0.738 -0.588 88 90 85
-48.7707 43.0615 84.2591 -0.379 -0.511 -0.772 88 89 83
-48.5134 42.9223 83.9821 -0.756 -0.246 -0.607 85 86 78
-48.1933 42.5372 83.1973 -0.860 0.132 -0.493 69 70 65
-46.3965 41.6891 81.5196 -0.860 0.182 -0.477 71 80 75
-46.1724 41.5001 81.1376 -0.805 -0.032 -0.592 98 107 102
-46.0498 41.4319 81.0018 -0.674 -0.204 -0.710 124 133 128
-45.9221 41.3764 80.8924 -0.471 -0.010 -0.882 135 144 139
-45.7949 41.3201 80.7815 -0.463 -0.017 -0.886 148 159 153
-45.6627 41.2757 80.6953 -0.532 -0.041 -0.846 148 159 153
-45.5365 41.2180 80.5814 -0.683 -0.215 -0.698 141 154 145
-45.0697 41.9191 82.0586 -0.433 0.289 -0.854 135 148 139
-44.9405 41.8621 81.9464 -0.395 0.394 -0.830 131 144 135
-44.8055 41.8182 81.8614 -0.395 0.394 -0.830 124 135 127
-44.6847 41.7439 81.7127 -0.355 0.276 -0.893 125 136 128
-44.5556 41.6879 81.6025 -0.392 0.257 -0.883 125 136 130
-44.4254 41.6349 81.4985 -0.385 0.224 -0.896 122 135 128
-43.8325 41.2568 80.7409 -0.819 0.142 -0.556 129 140 136
-43.6625 41.2873 80.8121 -0.482 0.049 -0.875 130 141 137
-43.5281 41.2454 80.7313 -0.418 0.099 -0.903 133 144 140
-43.3843 41.2224 80.6902 -0.429 0.083 -0.899 138 149 145
-29.0389 34.7541 67.9250 -0.195 -0.258 -0.946 161 164 157
-27.5969 34.6032 67.6784 -0.350 -0.301 -0.887 71 79 62
-27.0690 34.4969 67.4822 -0.483 -0.212 -0.850 78 86 68
-26.8169 34.4335 67.3623 -0.473 -0.205 -0.857 93 103 81
-26.6960 34.3975 67.2930 -0.472 -0.203 -0.858 109 119 97
-26.4682 34.0401 66.5615 -0.614 -0.040 -0.789 83 93 71
-22.4271 34.2053 67.0917 0.186 0.435 -0.881 158 159 151
-22.6099 33.4356 65.4851 -0.663 0.016 -0.749 84 81 66
-19.6344 32.7756 64.2526 -0.082 -0.114 -0.990 100 88 72
-19.1658 32.9736 64.6855 -0.556 -0.423 -0.715 103 91 77
-18.3848 32.5722 63.8882 -0.578 -0.270 -0.770 89 76 67
-18.2613 32.5394 63.8259 -0.468 -0.203 -0.860 76 63 54
-18.1155 32.5211 63.7945 -0.399 -0.254 -0.881 76 65 53
-17.8442 32.4711 63.7033 -0.331 -0.216 -0.919 69 64 46
-17.7113 32.4443 63.6539 -0.348 -0.296 -0.890 68 64 44
-16.8795 32.3046 63.4024 -0.012 -0.409 -0.912 67 65 38
-13.6855 32.0697 63.0625 -0.284 0.063 -0.957 72 61 39
-13.3985 32.0249 62.9828 -0.214 -0.016 -0.977 73 62 40
-13.2495 32.0055 62.9495 -0.203 -0.022 -0.979 79 68 46
-13.1538 31.9559 62.8510 -0.053 -0.062 -0.997 82 74 53
-12.8416 31.9250 62.8013 -0.205 -0.167 -0.964 82 74 53
-9.0732 31.5347 62.1654 -0.615 -0.296 -0.731 126 121 102
-9.0175 31.4654 62.0240 -0.482 -0.213 -0.850 121 114 98
-8.8878 31.4341 61.9651 -0.468 -0.143 -0.872 111 100 88
-2.7106 31.0838 61.5240 -0.303 0.249 -0.920 90 82 63
1.6332 30.9753 61.4999 0.047 -0.580 -0.813 91 94 65
2.0691 30.7123 60.9740 -0.521 -0.175 -0.835 72 75 36
2.2839 30.7125 60.9843 -0.161 -0.128 -0.979 70 74 43
10.1711 30.7306 61.3873 -0.232 -0.377 -0.897 53 51 30
10.9152 30.6600 61.2752 -0.062 -0.480 -0.875 107 105 83
11.6718 30.5081 60.9948 0.117 -0.205 -0.972 130 130 102
11.7475 30.4509 60.8796 -0.307 -0.501 -0.809 130 130 102
14.3048 30.7565 61.6325 -0.011 -0.104 -0.994 114 117 90
14.4946 30.7376 61.6021 -0.564 -0.617 -0.549 97 100 71
14.8170 30.6801 61.4975 -0.334 -0.692 -0.639 85 88 59
15.1237 30.6170 61.3809 -0.330 -0.688 -0.646 128 129 98
15.2873 30.5890 61.3303 -0.322 -0.698 -0.639 136 135 105
15.5212 30.5847 61.3322 0.022 -0.578 -0.815 137 133 104
15.7868 30.5909 61.3574 -0.131 -0.120 -0.984 135 131 102
16.0462 30.5948 61.3774 -0.165 -0.093 -0.982 134 130 101
15.8168 30.4346 61.0343 0.035 -0.112 -0.993 131 130 100
16.1915 30.4771 61.1397 0.212 -0.084 -0.974 118 117 87
17.9922 30.6582 61.5993 -0.158 -0.027 -0.987 121 124 98
-62.4427 41.2333 79.5143 0.316 -0.125 -0.941 77 74 57
-62.3185 41.2566 79.5680 0.273 -0.435 -0.858 74 71 52
-55.5067 48.1273 94.0764 -0.938 -0.300 -0.176 87 93 73
-54.6175 46.8174 91.4076 -0.265 -0.729 -0.631 58 84 46
-54.4816 46.7066 91.1844 -0.341 -0.710 -0.616 52 79 42
-54.3167 46.7598 91.3018 -0.807 -0.287 -0.517 108 134 103
-54.1764 46.6755 91.1336 -0.805 -0.292 -0.517 158 181 160
-53.4862 46.2256 90.2341 -0.747 0.115 -0.654 142 161 153
-53.3490 46.1378 90.0586 -0.746 0.117 -0.656 141 158 152
-52.0202 45.1730 88.1228 -0.766 0.284 -0.576 53 60 53
-51.7388 45.0658 87.9136 -0.324 0.229 -0.918 75 80 72
-51.6055 44.9837 87.7498 -0.272 0.151 -0.951 91 94 85
-51.4595 44.9524 87.6916 -0.263 0.090 -0.961 93 96 87
-49.3176 43.8398 85.4862 -0.613 0.067 -0.787 59 61 56
-49.0501 43.2513 84.2813 -0.346 -0.721 -0.600 65 66 60
-45.8720 42.3280 82.5133 -0.651 -0.086 -0.755 120 129 124
-45.7490 42.2543 82.3663 -0.641 -0.094 -0.762 140 149 144
-45.6118 42.2141 82.2892 -0.467 -0.288 -0.836 142 151 146
-45.4724 42.1792 82.2234 -0.467 -0.288 -0.836 143 152 147
-45.6429 41.4395 80.6862 -0.466 -0.026 -0.884 137 147 142
-45.1793 42.1421 82.1596 -0.395 0.211 -0.894 129 140 132
-45.0407 42.1053 82.0897 -0.395 0.211 -0.894 124 135 127
-44.9740 41.9094 81.6877 -0.390 -0.656 -0.646 120 131 123
-44.8329 41.8798 81.6326 -0.390 -0.656 -0.646 123 134 126
-44.6891 41.8560 81.5899 -0.384 -0.663 -0.643 122 133 125
-44.5478 41.8268 81.5357 -0.384 -0.663 -0.643 122 133 127
-43.3527 41.1009 80.0879 -0.339 -0.660 -0.670 143 154 150
-38.1754 38.1822 74.2828 -0.326 -0.254 -0.910 136 147 141
-38.0385 38.1582 74.2392 -0.273 -0.191 -0.943 137 148 142
-37.7749 38.0957 74.1218 -0.495 -0.228 -0.839 143 154 148
-37.6445 38.0626 74.0592 -0.228 -0.269 -0.936 143 154 148
-27.5895 34.7351 67.6255 -0.471 -0.307 -0.827 62 74 57
-26.9193 34.6114 67.3993 -0.270 -0.319 -0.909 73 91 64
-26.7793 34.5916 67.3647 -0.270 -0.319 -0.909 81 100 73
-22.6578 33.6517 65.6042 -0.636 0.071 -0.769 84 81 64
-20.2379 32.9588 64.2789 -0.055 -0.080 -0.995 87 73 60
-18.3619 32.7151 63.8583 -0.536 -0.312 -0.785 85 72 63
-18.2321 32.6863 63.8046 -0.598 -0.239 -0.765 82 67 60
-18.0778 32.6734 63.7847 -0.428 -0.280 -0.859 84 69 62
-17.9113 32.6682 63.7815 -0.421 -0.430 -0.799 82 70 60
-17.8074 32.6228 63.6920 -0.294 -0.277 -0.915 76 70 52
-17.6803 32.5923 63.6346 -0.321 -0.284 -0.903 72 71 48
-17.5418 32.5690 63.5927 -0.321 -0.284 -0.903 72 70 46
-17.4076 32.5429 63.5447 -0.574 -0.279 -0.770 72 70 47
-17.2886 32.5073 63.4763 -0.553 -0.301 -0.777 73 73 49
-17.0283 32.4501 63.3696 -0.260 0.011 -0.966 73 73 47
-11.2273 31.7233 62.1244 -0.428 -0.512 -0.745 116 99 83
-9.7143 31.7294 62.2041 -0.102 -0.061 -0.993 119 112 94
-8.9502 31.6328 62.0383 -0.326 -0.594 -0.736 123 117 99
-8.1138 31.5708 61.9473 -0.104 -0.654 -0.749 105 88 78
-8.0503 31.4092 61.6159 -0.209 -0.607 -0.767 97 79 68
2.2815 31.0289 61.2882 -0.201 -0.481 -0.853 66 72 28
2.0065 30.8262 60.8569 -0.483 -0.202 -0.852 63 68 28
10.1828 30.8816 61.3343 -0.223 -0.374 -0.900 57 55 34
10.7177 30.8206 61.2320 -0.076 -0.477 -0.876 109 107 84
10.9564 30.8220 61.2456 -0.008 -0.478 -0.878 103 101 79
11.7281 30.5910 60.8022 -0.378 -0.495 -0.782 131 130 102
14.2361 30.8827 61.5167 0.022 -0.375 -0.927 113 116 89
14.4461 30.8711 61.5019 -0.564 -0.617 -0.549 97 100 71
14.5831 30.8340 61.4313 -0.515 -0.736 -0.440 87 90 61
14.7730 30.8152 61.4010 -0.513 -0.744 -0.428 92 95 66
14.8985 30.7742 61.3218 -0.513 -0.744 -0.428 106 109 80
15.4759 30.7199 61.2351 0.022 -0.578 -0.815 138 134 105
16.0341 30.7418 61.3051 -0.159 -0.098 -0.982 127 123 94
15.8530 30.5972 60.9981 0.036 -0.101 -0.994 124 123 93
16.3093 30.6675 61.1637 0.230 -0.079 -0.970 117 118 87
-55.9300 48.5699 94.5842 -0.734 -0.675 0.072 103 107 93
-55.2472 47.8316 93.0929 -0.916 -0.346 -0.201 99 106 88
-54.6123 46.9338 91.2712 -0.265 -0.729 -0.631 56 80 47
-54.4737 46.8386 91.0811 -0.346 -0.702 -0.622 52 76 45
-54.3276 46.7878 90.9827 -0.335 -0.701 -0.630 144 167 140
-54.1754 46.7707 90.9541 -0.347 -0.705 -0.619 178 197 179
-53.8828 46.6736 90.7665 -0.864 -0.027 -0.503 156 172 165
-53.7402 46.6064 90.6342 -0.802 0.050 -0.595 143 161 151
-53.4672 46.4156 90.2528 -0.765 0.114 -0.634 143 159 150
-53.0531 46.1670 89.7586 -0.722 0.178 -0.669 103 114 106
-52.9161 46.0828 89.5910 -0.646 0.115 -0.755 92 102 95
-52.7755 46.0166 89.4606 -0.646 0.115 -0.755 105 115 108
-52.6399 45.9291 89.2863 -0.603 0.118 -0.789 101 112 103
-52.5020 45.8536 89.1367 -0.646 0.105 -0.756 69 79 71
-51.8344 45.4067 88.2448 -0.460 0.496 -0.736 85 92 85
-51.7114 45.2806 87.9903 -0.300 0.236 -0.924 83 88 81
-51.5787 45.1951 87.8199 -0.264 0.157 -0.952 94 97 88
-51.4231 45.2002 87.8370 -0.318 0.069 -0.945 99 102 93
-51.3194 45.0054 87.4403 -0.459 -0.016 -0.888 97 100 91
-50.0442 44.0815 85.5920 -0.313 0.181 -0.932 60 62 59
-49.6986 44.2098 85.8709 -0.496 0.238 -0.835 60 62 59
-49.0173 43.4638 84.3638 -0.721 -0.163 -0.673 61 63 58
-46.8191 42.3819 82.2295 -0.670 -0.246 -0.700 108 115 108
-45.8565 42.4848 82.4821 -0.651 -0.086 -0.755 142 151 146
-45.7386 42.3987 82.3099 -0.467 -0.275 -0.840 132 141 136
-45.6283 41.5913 80.6519 -0.530 -0.103 -0.842 126 135 130
-45.1957 42.2263 81.9779 -0.548 -0.734 -0.402 120 131 123
-45.0603 42.1828 81.8941 -0.728 -0.603 -0.327 121 132 124
-44.9332 42.1212 81.7727 -0.732 -0.602 -0.318 120 131 123
-44.8199 42.0298 81.5893 -0.703 -0.639 -0.313 124 135 127
-44.2985 41.8196 81.1786 -0.504 -0.797 -0.333 130 141 135
-44.1941 41.7132 80.9640 -0.583 -0.370 -0.723 130 141 137
-44.0378 41.7166 80.9776 -0.921 -0.097 -0.377 130 141 137
-43.9305 41.6180 80.7792 -0.928 -0.083 -0.364 143 154 150
-43.6992 41.4581 80.4597 -0.857 -0.026 -0.514 144 155 151
-43.0348 41.2404 80.0396 -0.445 0.287 -0.848 150 161 157
-42.6270 41.1294 79.8284 -0.079 0.347 -0.934 150 161 157
-37.7630 38.2358 74.0767 -0.495 -0.228 -0.839 149 160 154
-37.6333 38.2017 74.0121 -0.235 -0.255 -0.938 149 160 154
-27.0501 34.7647 67.3843 -0.270 -0.319 -0.909 101 113 94
-26.9102 34.7450 67.3497 -0.270 -0.319 -0.909 98 117 91
-26.6293 34.7062 67.2818 -0.228 -0.448 -0.864 94 114 86
-26.0412 34.5120 66.9069 -0.420 -0.052 -0.906 86 103 78
-22.0945 33.8215 65.6527 -0.113 -0.515 -0.850 91 88 71
-18.2546 32.7997 63.7118 -0.607 -0.234 -0.760 90 76 67
-17.0670 32.8877 63.9434 -0.458 -0.175 -0.871 77 77 53
-16.8024 32.8315 63.8390 -0.348 -0.509 -0.787 79 79 55
-16.6511 32.8153 63.8121 -0.347 -0.501 -0.793 80 80 55
-16.3741 32.7667 63.7238 -0.400 -0.424 -0.812 74 73 43
-15.9245 32.4961 63.1857 -0.145 -0.568 -0.810 83 82 51
-13.0282 32.2890 62.8822 -0.161 -0.158 -0.974 93 85 64
-9.7566 31.9393 62.3012 -0.093 -0.139 -0.986 117 106 90
-9.7090 31.8647 62.1496 -0.365 0.035 -0.930 126 119 101
-8.1963 31.4685 61.3980 -0.472 -0.471 -0.745 99 79 69
-2.1592 31.4229 61.5605 -0.024 -0.035 -0.999 91 86 66
-1.0338 31.2822 61.3186 -0.251 -0.106 -0.962 92 85 64
1.4268 31.2586 61.3744 -0.063 -0.454 -0.889 77 80 61
2.1207 31.0133 60.8989 -0.150 -0.115 -0.982 63 66 36
8.2783 30.8329 60.7890 -0.195 -0.004 -0.981 60 56 44
10.5844 31.0043 61.2398 0.069 -0.465 -0.883 85 83 60
10.7007 30.9612 61.1561 -0.083 -0.529 -0.845 96 94 71
11.5527 30.8444 60.9517 -0.300 -0.322 -0.898 136 135 107
11.7174 30.8188 60.9059 -0.300 -0.322 -0.898 131 130 102
11.8143 30.7689 60.8072 -0.500 -0.159 -0.851 129 129 101
12.4887 30.9251 61.1576 0.341 -0.336 -0.878 134 134 108
14.2688 31.0442 61.4784 0.020 -0.384 -0.923 112 115 88
14.4271 31.0146 61.4242 -0.542 -0.621 -0.567 98 101 72
14.8222 30.8981 61.2011 -0.512 -0.745 -0.428 118 118 90
17.1166 30.9229 61.3497 0.198 -0.526 -0.827 122 122 96
18.5188 31.0549 61.6810 0.203 -0.490 -0.848 113 117 82
-55.2306 48.0186 93.0962 -0.791 -0.521 -0.321 97 102 85
-55.0933 47.8901 92.8382 -0.861 -0.218 -0.459 75 84 64
-54.9592 47.7462 92.5486 -0.863 0.080 -0.498 70 84 60
-54.6064 47.0543 91.1440 -0.314 -0.702 -0.639 60 80 53
-54.4102 47.2881 91.6314 -0.617 0.202 -0.761 55 75 48
-53.7274 46.7662 90.5889 -0.854 -0.093 -0.511 147 160 150
-53.3082 46.5296 90.1207 -0.778 0.002 -0.628 89 100 91
-52.7562 46.2045 89.4764 -0.761 0.029 -0.648 81 89 81
-52.6195 46.1215 89.3119 -0.761 0.029 -0.648 65 75 66
-52.4915 46.0014 89.0707 -0.809 0.026 -0.588 51 61 53
-51.9496 45.6726 88.4186 -0.634 0.456 -0.625 74 81 74
-51.8201 45.5698 88.2129 -0.639 0.442 -0.629 82 89 82
-51.6917 45.4646 88.0025 -0.608 0.448 -0.655 89 96 88
-51.5591 45.3782 87.8307 -0.562 0.476 -0.677 94 100 90
