ply
format ascii 1.0
element vertex 876
property float x
property float y
property float z
property float nx
property float ny
property float nz
property uchar diffuse_red
property uchar diffuse_green
property uchar diffuse_blue
end_header
36.4128 23.7537 68.5336 0.234 -0.130 -0.964 98 109 75
41.2459 23.3521 71.7287 0.364 -0.472 -0.803 124 113 107
41.5890 23.2547 71.6087 0.324 -0.208 -0.923 117 106 100
47.4427 22.9901 76.5948 0.786 -0.323 -0.527 124 121 108
47.5518 22.9927 76.7258 0.545 -0.586 -0.600 122 122 106
47.6606 22.9959 76.8594 0.481 -0.635 -0.605 122 123 107
50.5167 22.8723 79.3197 0.593 -0.037 -0.804 131 139 126
50.6218 22.8840 79.4922 0.252 0.127 -0.959 132 140 127
51.2886 23.1934 81.7694 0.991 0.130 0.031 150 157 149
51.2433 23.8207 84.8774 0.979 0.198 -0.046 145 160 155
54.2943 23.0657 84.3704 0.289 -0.241 -0.926 90 102 98
57.7211 22.9982 87.7292 -0.366 -0.351 -0.862 179 199 204
57.8678 22.9625 87.7083 -0.016 -0.488 -0.873 188 211 218
57.9913 22.9711 87.8849 -0.047 -0.459 -0.887 174 196 207
58.6600 23.1866 89.6908 0.449 -0.453 -0.770 33 55 69
59.0631 23.1651 90.0178 0.513 -0.395 -0.762 77 99 113
59.9855 23.1692 91.0338 0.542 -0.047 -0.839 27 44 61
61.2971 23.2480 92.8463 -0.237 -0.226 -0.945 67 82 75
61.4420 23.2203 92.8632 -0.252 -0.220 -0.943 75 90 85
61.5791 23.2159 92.9893 -0.121 -0.175 -0.977 77 92 87
-8.8363 32.5481 63.0705 -0.162 -0.781 -0.603 58 60 55
-8.2855 32.3806 62.8270 0.236 -0.454 -0.859 67 69 64
-1.6963 30.7679 61.8603 0.215 -0.150 -0.965 50 55 49
-0.8072 30.5792 61.8740 -0.137 -0.189 -0.972 29 39 30
1.6901 30.0319 61.8262 0.357 -0.282 -0.891 100 106 94
7.2725 28.8186 61.7707 -0.130 -0.260 -0.957 115 90 91
7.5739 28.7348 61.6762 -0.223 -0.035 -0.974 152 69 68
7.3533 28.8669 62.0983 -0.118 -0.509 -0.852 190 28 25
7.5587 28.8227 62.0987 0.386 -0.480 -0.788 227 17 11
8.5412 28.5370 61.7290 -0.048 0.325 -0.945 144 59 61
11.6377 27.9319 62.0365 -0.117 0.018 -0.993 134 145 139
11.7949 27.9064 62.0781 0.003 -0.115 -0.993 131 144 135
12.8875 27.6032 61.7394 0.317 -0.466 -0.826 56 65 50
12.7813 27.7338 62.2767 -0.286 -0.182 -0.941 100 103 90
12.9924 27.6845 62.2577 -0.259 -0.190 -0.947 95 101 86
13.2409 27.6188 62.1970 0.255 -0.086 -0.963 101 104 94
13.4592 27.5661 62.1687 -0.073 -0.219 -0.973 113 114 106
13.6874 27.5090 62.1287 -0.178 -0.153 -0.972 113 113 105
13.8200 27.4936 62.1944 0.042 -0.118 -0.992 113 114 106
13.9850 27.4640 62.2238 -0.016 -0.198 -0.980 156 157 149
14.1475 27.4354 62.2559 -0.377 -0.634 -0.676 156 157 149
14.4144 27.3608 62.1702 -0.493 -0.420 -0.762 110 110 100
14.6588 27.2958 62.1089 -0.344 -0.592 -0.729 115 112 103
14.7640 27.2923 62.2042 -0.294 -0.684 -0.668 119 115 104
15.6939 27.0949 62.2187 0.449 -0.176 -0.876 130 126 115
15.8269 27.0789 62.2814 0.600 -0.159 -0.784 127 123 111
15.9204 27.1242 62.6079 -0.434 0.032 -0.900 120 116 104
16.1171 27.0796 62.5969 -0.307 0.138 -0.942 118 114 102
16.4509 26.9732 62.4244 -0.282 0.053 -0.958 128 124 112
19.4566 26.3961 62.7743 0.215 -0.351 -0.911 125 116 107
21.4586 26.0456 63.1768 0.303 -0.219 -0.927 106 102 91
21.6052 26.0218 63.2157 0.108 -0.298 -0.948 114 112 100
21.7272 26.0099 63.2871 0.389 -0.284 -0.876 98 96 84
22.8240 25.9032 63.9331 0.256 0.359 -0.898 132 122 113
29.2919 24.7949 65.3525 0.321 -0.239 -0.917 145 133 121
32.5657 24.3469 66.6347 0.421 -0.379 -0.824 114 104 95
41.0658 23.5633 71.8574 0.390 -0.325 -0.861 119 109 100
42.8368 23.3498 72.6946 0.597 -0.066 -0.800 105 92 86
42.9280 23.3620 72.8538 0.341 -0.122 -0.932 97 84 78
43.0435 23.3555 72.9453 0.314 0.021 -0.949 108 93 88
45.8292 23.2080 75.2021 0.616 -0.067 -0.785 112 103 98
46.0731 23.1873 75.3610 0.636 0.011 -0.772 111 102 97
47.6440 23.1781 77.0026 0.823 0.073 -0.563 115 116 100
48.2039 23.0726 77.0778 0.219 0.032 -0.975 130 131 115
48.3636 23.0265 77.0195 0.086 -0.292 -0.952 129 130 114
49.8737 22.9924 78.4717 0.180 -0.851 -0.493 120 127 111
51.9597 23.2861 82.1779 -0.504 0.219 -0.835 147 159 155
52.0935 23.2692 82.2373 -0.564 -0.093 -0.820 150 161 157
54.7169 24.1294 89.3472 0.692 -0.721 -0.040 16 25 22
58.9773 23.2867 89.7203 0.542 -0.445 -0.713 47 69 83
59.4869 23.3231 90.4489 0.872 -0.109 -0.477 32 49 65
60.1790 23.2501 90.8287 0.672 0.352 -0.651 36 51 65
60.2926 23.2986 91.1923 0.359 0.181 -0.915 40 51 60
60.4203 23.3128 91.4006 0.336 0.082 -0.938 41 51 60
60.5415 23.3453 91.6929 0.571 -0.127 -0.811 40 50 59
60.6891 23.3091 91.6707 0.723 -0.022 -0.691 48 58 67
60.8208 23.3152 91.8428 0.773 -0.187 -0.606 48 58 67
61.1886 23.4178 92.7496 0.179 -0.802 -0.571 60 75 71
61.3299 23.4009 92.8175 0.179 -0.802 -0.571 67 82 75
61.4736 23.3768 92.8517 0.190 -0.794 -0.577 74 91 85
61.6056 23.3885 93.0517 0.221 -0.798 -0.560 76 92 89
64.3941 20.1047 79.6648 0.803 -0.521 -0.289 93 105 101
65.1791 21.0193 85.0706 0.745 -0.078 -0.663 93 111 112
-9.8262 32.7809 62.2907 0.062 -0.316 -0.947 68 78 70
-0.7484 30.7228 61.8206 -0.137 -0.186 -0.973 33 40 33
-0.2259 30.5968 61.7562 0.561 -0.384 -0.734 61 68 61
-0.1274 30.5978 61.8661 0.577 -0.546 -0.607 70 78 68
0.9886 30.3556 61.8621 -0.268 -0.354 -0.896 48 59 42
1.7082 30.1893 61.8088 0.351 -0.262 -0.899 94 100 88
7.5595 28.9004 61.6920 -0.196 -0.006 -0.981 193 23 28
11.5669 28.0773 61.9068 0.197 0.230 -0.953 129 127 120
11.7269 28.0505 61.9454 0.032 0.148 -0.988 152 158 146
11.8630 28.0339 62.0094 -0.041 -0.127 -0.991 133 142 130
12.5933 27.8869 62.0632 0.834 -0.419 -0.359 16 25 10
12.6756 27.8938 62.1850 0.843 -0.392 -0.368 47 53 39
12.8825 27.8462 62.1709 -0.199 -0.226 -0.954 77 82 68
13.0685 27.8076 62.1791 -0.183 -0.233 -0.955 50 56 42
13.2632 27.7652 62.1775 0.207 -0.096 -0.974 69 72 63
13.4852 27.7106 62.1451 -0.072 -0.241 -0.968 111 112 104
13.6809 27.6675 62.1412 -0.072 -0.241 -0.968 130 130 122
13.9633 27.5861 62.0404 -0.184 -0.155 -0.971 119 120 112
14.5252 27.4668 62.0514 -0.488 -0.416 -0.767 134 134 124
15.7115 27.2413 62.2049 0.570 -0.156 -0.807 135 131 120
15.8458 27.2247 62.2663 0.600 -0.159 -0.784 143 139 127
15.9957 27.2010 62.3095 0.267 -0.189 -0.945 145 141 129
16.1497 27.1754 62.3478 0.268 -0.192 -0.944 148 144 132
16.0656 27.2576 62.6642 -0.306 0.136 -0.942 139 135 123
16.3767 27.1609 62.5186 -0.280 0.133 -0.951 137 133 121
19.8963 26.4788 62.9092 0.702 -0.095 -0.706 126 117 108
21.5964 26.1778 63.2389 -0.049 -0.383 -0.922 117 115 103
21.7578 26.1468 63.2582 0.147 -0.218 -0.965 104 102 90
23.2839 25.9247 63.7916 0.509 0.359 -0.783 126 116 107
23.8989 25.8622 64.1400 0.236 0.312 -0.920 101 99 84
25.0056 25.5505 63.7821 0.402 -0.424 -0.811 72 68 56
27.5101 25.1635 64.5468 0.336 -0.312 -0.889 126 111 104
45.6266 23.3552 74.9778 0.636 0.016 -0.772 113 102 98
45.7567 23.3376 75.0296 0.671 0.019 -0.741 116 107 102
46.1155 23.3127 75.2904 0.648 0.073 -0.758 115 106 101
46.2257 23.3131 75.4099 0.723 -0.017 -0.691 106 97 92
47.6502 23.3392 77.0624 0.825 0.079 -0.560 110 111 95
47.9131 23.3034 77.1664 0.614 -0.319 -0.722 116 117 101
48.2156 23.2283 77.1189 0.223 0.033 -0.974 116 117 101
53.5905 23.2318 82.8840 0.118 0.135 -0.984 81 98 92
54.7100 23.3801 84.8147 0.778 -0.387 -0.495 32 41 38
54.7729 23.4712 85.3322 0.266 -0.205 -0.942 26 35 32
57.2292 23.3747 87.4821 -0.000 -0.228 -0.974 120 139 135
57.5052 23.3373 87.5922 0.463 0.078 -0.883 124 140 137
58.0688 23.2386 87.7069 0.133 -0.321 -0.938 204 227 235
58.8849 23.4229 89.4910 0.688 -0.382 -0.617 70 92 106
59.0056 23.4451 89.7298 0.556 -0.427 -0.713 51 73 87
59.5162 23.4807 90.4521 0.891 -0.066 -0.448 29 46 64
59.7574 23.5373 90.9900 0.860 -0.077 -0.505 36 53 71
60.3285 23.4409 91.1240 0.705 -0.058 -0.707 34 46 55
60.4563 23.4553 91.3317 0.613 -0.073 -0.787 35 45 54
60.5836 23.4719 91.5501 0.636 -0.125 -0.761 35 45 54
60.7251 23.4514 91.5998 0.608 -0.078 -0.790 50 59 68
60.8540 23.4653 91.8067 0.756 -0.177 -0.630 48 58 67
61.0961 23.5419 92.4441 0.619 -0.592 -0.516 54 66 66
61.2304 23.5447 92.6018 0.619 -0.592 -0.516 60 75 71
61.3649 23.5476 92.7598 0.619 -0.592 -0.516 67 82 75
61.4935 23.5693 93.0048 0.607 -0.646 -0.462 74 91 85
64.4899 21.0441 83.7208 0.675 -0.730 0.109 94 105 99
65.2075 21.1633 85.0774 0.727 -0.089 -0.681 97 109 107
-10.7367 33.2185 62.6033 -0.148 -0.142 -0.979 68 74 70
-10.4347 33.1448 62.5634 -0.129 -0.175 -0.976 76 84 80
-10.0961 33.0572 62.4944 0.082 -0.301 -0.950 77 87 79
-0.9045 30.9112 61.7582 -0.210 -0.098 -0.973 48 53 47
-0.6335 30.8442 61.7183 -0.238 -0.092 -0.967 41 47 43
-0.1799 30.7448 61.7139 0.561 -0.384 -0.734 57 63 59
0.1714 30.6856 61.7978 0.571 -0.376 -0.730 66 73 61
1.0991 30.4769 61.7619 -0.222 -0.248 -0.943 39 52 34
1.3448 30.4189 61.7393 0.159 -0.258 -0.953 60 71 54
1.5685 30.3696 61.7357 0.048 -0.298 -0.953 64 72 57
1.7414 30.3406 61.7777 0.351 -0.262 -0.899 36 42 30
7.6734 29.0125 61.5810 0.231 -0.058 -0.971 211 10 12
9.7831 28.6210 61.9077 -0.182 0.358 -0.916 96 116 87
9.9936 28.5732 61.8972 -0.163 0.554 -0.816 108 124 95
10.3103 28.4797 61.7759 -0.209 0.565 -0.798 113 123 96
11.3527 28.2421 61.7211 0.398 0.255 -0.881 118 102 94
11.6171 28.2125 61.8573 0.016 0.093 -0.996 133 122 110
12.0128 28.1257 61.8532 -0.187 0.184 -0.965 127 118 107
12.6471 28.0199 62.0094 0.837 -0.413 -0.360 40 46 32
12.7024 28.0387 62.1605 0.863 -0.387 -0.324 49 55 41
12.9250 27.9840 62.1293 -0.199 -0.226 -0.954 47 54 40
13.1217 27.9406 62.1258 -0.209 -0.176 -0.962 45 51 37
13.3240 27.8946 62.1156 -0.032 0.091 -0.995 27 30 21
13.5642 27.8317 62.0631 -0.103 0.056 -0.993 65 66 58
13.7425 27.7961 62.0783 0.016 0.137 -0.991 117 117 109
14.1465 27.7035 62.0545 -0.000 0.272 -0.962 128 129 121
14.3534 27.6549 62.0364 -0.206 0.086 -0.975 101 102 94
14.4820 27.6411 62.1057 0.311 0.168 -0.936 80 80 70
16.0103 27.3488 62.2994 0.255 -0.186 -0.949 112 108 96
16.1589 27.3256 62.3439 0.255 -0.186 -0.949 133 129 117
16.2930 27.3090 62.4054 -0.047 0.009 -0.999 135 131 119
19.8023 26.6297 62.8109 0.348 -0.011 -0.937 135 126 117
19.8921 26.6333 62.9243 0.684 -0.114 -0.720 135 126 117
21.3628 26.3485 63.0934 0.345 -0.187 -0.920 130 126 115
24.0345 25.7984 63.2407 0.324 -0.433 -0.841 127 116 107
24.3196 25.7527 63.3200 0.350 -0.583 -0.733 129 124 110
27.0297 25.3606 64.2829 0.248 -0.362 -0.899 88 75 66
28.1613 25.2281 64.8380 0.348 -0.310 -0.885 110 95 88
28.3014 25.2056 64.8769 0.360 -0.348 -0.865 115 101 92
28.5422 25.1285 64.7551 0.405 -0.137 -0.904 120 106 95
28.9677 25.1112 65.1232 0.605 -0.198 -0.772 141 127 116
31.2474 24.8342 66.1921 0.599 -0.103 -0.794 130 120 108
39.9873 23.9694 71.2565 0.504 -0.112 -0.856 114 119 89
40.0074 24.0314 71.5817 0.391 -0.169 -0.905 116 107 90
45.0736 23.7120 75.4090 0.918 0.235 -0.319 98 87 83
45.6542 23.4936 74.9566 0.446 -0.809 -0.382 108 97 93
45.8911 23.4791 75.1376 0.678 0.071 -0.732 119 110 105
47.1808 23.9623 78.8795 0.047 -0.980 -0.194 89 90 74
47.4329 23.9425 79.0510 0.603 -0.797 -0.035 108 109 93
48.2438 23.3680 77.0973 0.284 0.046 -0.958 109 110 94
48.4089 23.3161 77.0187 0.317 0.094 -0.944 111 112 96
48.5034 23.3347 77.2106 0.611 0.345 -0.712 130 131 117
50.9886 23.6629 81.4651 0.987 0.078 -0.137 116 123 115
51.0051 23.7841 82.0770 0.991 -0.136 -0.010 121 128 120
51.1992 23.6964 81.8539 0.889 -0.222 -0.401 121 128 120
51.3182 23.6975 81.9858 0.378 -0.684 -0.624 121 128 120
51.4358 23.7006 82.1262 -0.030 -0.325 -0.945 121 128 121
53.7503 23.3643 82.9413 0.481 0.330 -0.812 84 101 95
54.2897 23.4639 84.0038 0.793 -0.133 -0.595 96 111 106
54.7780 23.6569 85.4698 0.333 -0.289 -0.897 30 39 36
56.0524 23.8456 87.7517 0.683 0.519 -0.514 110 122 122
56.5580 23.4183 86.1952 0.680 0.389 -0.621 124 136 134
57.4935 23.5667 87.9189 -0.370 -0.276 -0.887 131 147 146
57.9648 23.4008 87.6068 -0.343 -0.556 -0.757 121 144 151
58.1014 23.3841 87.6704 -0.004 -0.452 -0.892 114 136 147
58.9193 23.5674 89.4401 0.688 -0.382 -0.617 109 130 147
59.0387 23.5929 89.6921 0.702 -0.082 -0.708 57 78 95
59.1619 23.6111 89.9125 0.710 -0.167 -0.684 22 43 60
59.5422 23.6464 90.4904 0.907 -0.001 -0.422 41 58 78
59.6738 23.6485 90.6406 0.886 -0.055 -0.460 55 72 92
59.9184 23.7002 91.1544 0.781 -0.156 -0.605 49 67 86
60.0681 23.6594 91.1138 0.596 -0.231 -0.769 40 57 75
60.2131 23.6296 91.1221 0.311 0.137 -0.941 38 52 70
60.3478 23.6263 91.2492 -0.050 0.040 -0.998 52 63 73
60.4909 23.6011 91.2784 -0.032 0.070 -0.997 44 54 63
60.6154 23.6255 91.5304 0.523 -0.389 -0.758 36 46 55
60.7537 23.6137 91.6197 0.759 -0.281 -0.587 34 44 53
61.2678 23.6839 92.5114 0.721 -0.479 -0.501 56 71 67
61.3962 23.7055 92.7535 0.828 -0.339 -0.447 64 79 72
64.5565 20.9929 82.8189 0.660 -0.743 0.111 90 94 83
65.1123 21.3042 84.9370 0.637 -0.555 -0.535 90 94 89
65.2348 21.3152 85.1210 -0.090 -0.741 -0.665 101 106 98
-1.7837 31.3051 61.9277 -0.288 -0.240 -0.927 34 36 31
-1.5257 31.2435 61.9015 -0.320 -0.174 -0.931 85 87 83
-0.6214 31.0060 61.7055 -0.229 -0.096 -0.969 39 46 39
-0.3667 30.9450 61.6793 -0.159 -0.118 -0.980 34 40 36
0.0262 30.8692 61.7272 0.547 -0.679 -0.489 70 75 69
1.4061 30.5592 61.6829 0.037 -0.301 -0.953 69 80 64
7.4893 29.1664 61.3596 0.481 -0.380 -0.791 227 21 17
7.4164 29.2387 61.6336 -0.163 -0.420 -0.893 222 18 18
7.6383 29.1869 61.6173 -0.163 -0.420 -0.893 181 32 25
7.8279 29.1488 61.6327 -0.248 -0.393 -0.886 124 51 41
8.1152 29.0692 61.5503 -0.250 -0.321 -0.913 106 92 90
8.8652 28.9608 61.8183 0.089 -0.398 -0.913 90 105 82
9.0794 28.9116 61.8063 0.128 -0.356 -0.926 104 116 89
9.4955 28.8182 61.7933 -0.020 -0.214 -0.977 84 95 61
9.6349 28.8008 61.8565 -0.156 -0.093 -0.983 102 112 81
9.8024 28.7713 61.8907 0.194 -0.310 -0.931 91 103 73
10.0212 28.7197 61.8716 0.651 -0.260 -0.713 80 94 64
10.1543 28.7049 61.9409 0.330 -0.326 -0.886 88 100 70
10.4122 28.6362 61.8802 0.367 -0.449 -0.815 88 94 70
10.4943 28.6434 62.0023 -0.165 -0.083 -0.983 95 99 75
10.6908 28.6011 62.0048 -0.198 -0.157 -0.967 99 108 80
11.0976 28.5532 62.2032 0.243 0.117 -0.963 104 101 78
11.5887 28.3820 61.8915 -0.005 0.080 -0.997 104 96 76
11.7956 28.3346 61.8801 -0.093 0.133 -0.987 129 114 98
12.0179 28.2803 61.8518 -0.093 0.133 -0.987 128 111 97
12.2518 28.2208 61.8105 -0.093 0.131 -0.987 114 111 96
12.6214 28.1878 62.0419 -0.001 -0.156 -0.988 68 72 58
12.7473 28.1756 62.1163 -0.028 -0.079 -0.996 47 53 38
16.0736 27.4744 62.2327 0.003 -0.336 -0.942 118 114 102
16.1658 27.4769 62.3429 0.257 -0.185 -0.948 134 130 118
16.4816 27.4219 62.4100 0.159 0.382 -0.910 142 138 126
17.3258 27.3035 62.7293 0.826 -0.145 -0.544 144 142 127
19.9318 26.7671 62.8839 0.701 -0.154 -0.696 136 127 118
21.4154 26.4748 63.0356 0.415 -0.392 -0.821 81 77 66
21.8483 26.4063 63.1613 0.183 -0.480 -0.858 53 51 39
26.2400 25.6174 63.9807 0.532 -0.292 -0.795 87 80 70
28.1868 25.3648 64.8164 0.290 -0.348 -0.892 108 93 86
28.5566 25.2708 64.7512 0.276 -0.324 -0.905 131 117 106
28.9907 25.2491 65.1058 0.605 -0.198 -0.772 184 170 159
29.5737 25.2004 65.4871 0.254 -0.247 -0.935 140 128 116
29.7107 25.1793 65.5298 0.254 -0.247 -0.935 158 146 134
29.8582 25.1523 65.5548 0.252 -0.264 -0.931 158 146 134
31.5726 24.9128 66.2075 0.215 -0.345 -0.914 148 138 128
34.4016 24.4180 66.8007 0.431 -0.310 -0.848 123 114 105
34.5088 24.4137 66.8935 0.414 -0.324 -0.851 123 114 105
34.6481 24.3897 66.9241 0.446 -0.301 -0.843 123 115 105
34.5640 24.5671 67.6977 0.270 -0.086 -0.959 126 119 103
34.6443 24.6441 68.1571 0.101 -0.046 -0.994 110 103 87
38.6961 24.0764 69.6916 0.324 -0.344 -0.881 101 114 72
40.5193 24.0466 71.4789 0.271 -0.191 -0.943 104 90 79
42.4384 23.8011 72.3195 0.591 -0.047 -0.805 112 99 93
45.7122 23.6050 74.8359 0.373 -0.340 -0.863 115 104 100
45.8654 23.5665 74.8112 0.332 -0.383 -0.862 110 101 96
47.2913 24.0259 78.5557 0.068 -0.981 -0.183 81 82 66
47.9254 23.7402 77.8387 0.179 0.075 -0.981 110 111 95
48.0566 23.7234 77.8962 0.202 0.050 -0.978 109 110 94
48.2864 23.6072 77.5752 0.665 0.048 -0.745 110 111 95
50.8589 23.7151 80.8255 0.761 0.512 -0.398 110 118 107
50.9425 23.7560 81.1132 0.894 0.310 -0.323 114 122 111
50.9762 23.8568 81.6389 0.993 -0.115 -0.003 122 129 121
51.3705 23.8152 81.8547 0.374 -0.678 -0.633 121 128 120
53.7654 23.5292 83.0025 0.488 0.319 -0.812 113 130 124
54.8238 23.7816 85.3510 0.364 -0.274 -0.890 29 40 36
56.7348 23.5308 86.1573 0.327 0.522 -0.788 124 136 134
57.0711 23.6085 86.8914 0.338 -0.709 -0.619 122 138 137
57.3280 23.6044 87.1437 0.113 -0.768 -0.631 121 139 139
58.0024 23.5363 87.5275 -0.405 -0.267 -0.874 121 144 152
58.1307 23.5361 87.6624 0.150 -0.312 -0.938 113 135 146
58.9409 23.7403 89.5138 0.701 -0.084 -0.708 163 184 200
59.1966 23.7555 89.8586 0.666 0.121 -0.736 48 70 84
59.8336 23.8125 90.8107 0.741 -0.179 -0.647 52 69 89
59.9488 23.8572 91.1501 0.782 -0.150 -0.605 61 79 98
60.1001 23.8120 91.0907 0.597 -0.279 -0.752 59 76 94
60.2461 23.7796 91.0882 0.372 0.118 -0.921 59 73 90
60.3775 23.7851 91.2541 -0.050 0.040 -0.998 58 69 80
60.5237 23.7515 91.2454 -0.050 0.040 -0.998 45 55 64
60.6480 23.7772 91.5021 0.489 -0.401 -0.775 32 42 51
61.4300 23.8554 92.7110 0.832 -0.334 -0.443 70 85 78
65.1485 21.4006 84.7196 0.109 -0.671 -0.733 96 97 85
-0.2291 31.0564 61.5569 0.449 -0.599 -0.663 37 47 39
-0.1076 31.0484 61.6465 0.449 -0.599 -0.663 56 66 58
0.0720 31.0171 61.6850 0.545 -0.698 -0.464 68 77 68
0.4930 30.9294 61.7068 -0.126 -0.258 -0.958 86 97 79
1.6526 30.6654 61.6576 0.007 -0.542 -0.841 54 62 47
7.4060 29.4032 61.6453 -0.245 -0.286 -0.926 180 40 30
7.6710 29.3330 61.5867 -0.190 -0.392 -0.900 137 62 55
7.8734 29.2892 61.5892 -0.209 -0.511 -0.834 106 80 74
8.0743 29.2460 61.5929 -0.220 -0.524 -0.823 116 119 108
8.1984 29.2354 61.6729 0.019 -0.709 -0.704 105 106 100
8.2532 29.2544 61.8223 -0.333 -0.133 -0.933 91 87 88
9.5192 28.9668 61.7718 0.023 -0.175 -0.984 72 87 52
9.6371 28.9587 61.8571 -0.096 -0.005 -0.995 92 91 68
9.7511 28.9523 61.9465 -0.066 0.022 -0.998 89 84 65
10.3353 28.8279 61.9636 0.344 -0.319 -0.883 64 72 48
10.4378 28.8265 62.0647 -0.256 -0.068 -0.964 84 92 67
10.9143 28.7050 61.9821 -0.244 -0.170 -0.955 87 103 69
11.0873 28.6726 62.0086 0.123 -0.053 -0.991 92 100 68
11.3206 28.6137 61.9708 0.863 0.079 -0.498 92 99 69
11.7359 28.4747 61.7390 0.207 -0.422 -0.883 84 90 62
11.8370 28.5170 62.0496 -0.238 0.053 -0.970 140 136 114
12.5030 28.3098 61.7539 0.063 0.138 -0.988 113 116 102
12.7093 28.3056 61.9511 0.908 0.164 -0.385 44 48 34
13.7777 28.0922 62.0498 0.059 0.133 -0.989 92 93 85
14.1240 28.0248 62.0907 0.455 -0.275 -0.847 76 79 70
14.4111 27.9840 62.1969 0.374 0.167 -0.912 107 107 97
15.6968 27.6669 62.0255 0.304 -0.229 -0.925 144 140 129
15.8208 27.6550 62.0987 0.312 -0.253 -0.916 161 157 146
16.1202 27.6075 62.1854 0.003 -0.336 -0.942 126 122 110
16.2711 27.5830 62.2271 0.030 -0.395 -0.918 140 136 124
16.4164 27.5612 62.2752 0.030 -0.441 -0.897 126 122 110
16.5393 27.5497 62.3494 0.471 -0.114 -0.875 143 139 127
16.6775 27.5311 62.4057 0.464 -0.110 -0.879 126 122 110
16.8198 27.5106 62.4571 0.525 -0.111 -0.844 132 128 116
16.9361 27.5022 62.5392 0.302 0.081 -0.950 157 153 141
20.9114 26.6822 62.7816 0.355 -0.376 -0.856 95 91 80
21.9014 26.5320 63.1024 0.183 -0.480 -0.858 119 117 105
22.3283 26.4659 63.2341 0.146 -0.345 -0.927 124 122 110
26.0135 25.7838 63.8351 0.152 -0.438 -0.886 152 148 137
26.5436 25.7109 64.0433 0.460 -0.299 -0.836 140 127 118
26.6217 25.7216 64.1771 0.242 -0.269 -0.932 144 130 121
27.0884 25.6299 64.2276 0.371 -0.361 -0.856 114 101 92
28.2209 25.4969 64.7814 0.242 -0.457 -0.856 98 83 76
28.5668 25.4154 64.7540 0.354 -0.415 -0.838 134 120 109
29.7030 25.3347 65.5638 0.551 -0.292 -0.782 157 145 133
30.2836 25.2884 65.9531 0.226 0.444 -0.867 131 121 109
34.5358 24.5477 66.8701 0.354 -0.209 -0.912 142 133 124
34.4871 24.7040 67.5719 0.222 -0.161 -0.962 123 116 101
34.6591 24.7880 68.1582 0.083 -0.122 -0.989 147 140 124
35.1201 24.5610 67.5507 0.253 -0.249 -0.935 156 149 133
35.8915 24.3920 67.5501 0.312 0.000 -0.950 72 84 46
36.1304 24.3686 67.6893 0.667 -0.312 -0.677 79 94 55
36.8621 24.3562 68.4016 0.450 -0.164 -0.878 105 116 82
37.8603 24.2368 68.8798 0.398 -0.215 -0.892 108 103 83
37.9846 24.2222 68.9404 0.400 -0.206 -0.893 70 65 45
38.0705 24.2339 69.0873 0.551 -0.303 -0.778 87 82 60
38.1784 24.2306 69.1854 0.550 -0.287 -0.784 110 105 83
45.7423 23.7409 74.8064 0.370 -0.345 -0.862 106 95 91
45.8922 23.7052 74.7925 0.305 -0.349 -0.886 97 88 83
47.7333 24.1030 78.6519 0.587 -0.801 -0.114 109 110 94
51.5378 23.9387 81.8743 0.537 -0.839 0.083 121 128 121
51.5970 24.0141 82.3002 0.559 -0.825 0.083 124 134 129
51.9055 23.9306 82.2232 0.710 -0.689 0.145 138 153 148
52.0437 24.0622 83.0036 0.442 -0.891 -0.102 149 160 156
53.7680 23.7120 83.1352 0.520 0.358 -0.775 132 149 143
53.8770 23.7304 83.3388 0.742 0.347 -0.573 131 148 142
54.1963 23.8001 84.0116 0.764 0.347 -0.543 97 114 108
54.3141 23.8081 84.1743 0.458 0.227 -0.860 94 109 104
55.0093 23.6914 84.3455 0.389 -0.305 -0.869 29 40 36
57.1222 23.7197 86.7112 0.327 -0.726 -0.604 122 138 137
57.8917 23.7117 87.4849 -0.411 -0.296 -0.862 128 148 153
58.0377 23.6764 87.4684 -0.405 -0.267 -0.874 121 144 150
58.1513 23.7058 87.7302 0.123 -0.032 -0.992 114 137 145
58.9676 23.9023 89.5385 0.715 -0.207 -0.668 144 163 177
59.0930 23.9156 89.7350 0.686 -0.197 -0.700 139 159 172
59.2107 23.9473 90.0121 0.704 -0.199 -0.682 116 135 149
59.3476 23.9359 90.1012 0.814 -0.107 -0.571 52 74 88
59.5986 23.9682 90.5221 0.757 -0.122 -0.642 43 60 78
59.7286 23.9749 90.6912 0.741 -0.137 -0.657 57 74 92
59.8653 23.9655 90.7904 0.531 -0.503 -0.682 64 81 99
60.4094 23.9381 91.2323 0.170 -0.200 -0.965 55 68 78
60.5524 23.9131 91.2627 0.170 -0.200 -0.965 38 51 59
60.6807 23.9285 91.4724 0.500 -0.553 -0.667 24 34 43
-10.6159 33.7023 62.4926 -0.156 -0.156 -0.975 56 62 58
-1.9499 31.6668 61.8691 -0.271 -0.269 -0.924 39 46 37
-0.9924 31.4066 61.6316 -0.344 -0.253 -0.904 56 67 51
-0.0309 31.1838 61.5772 0.365 -0.596 -0.715 55 68 58
0.1682 31.1445 61.5985 0.547 -0.694 -0.469 68 81 70
7.7691 29.4512 61.4913 -0.192 -0.404 -0.895 128 99 98
8.1779 29.3614 61.4916 -0.220 -0.524 -0.823 158 152 139
8.3310 29.3383 61.5423 0.014 -0.702 -0.712 108 117 93
8.5012 29.3079 61.5757 0.014 -0.702 -0.712 91 89 82
8.7621 29.2812 61.7221 0.155 -0.832 -0.532 86 76 72
10.4230 28.9481 61.8755 0.156 -0.691 -0.705 58 75 49
10.4963 28.9596 62.0070 0.190 -0.705 -0.683 82 95 71
10.9036 28.8679 61.9969 -0.270 -0.505 -0.820 83 92 71
11.1383 28.8083 61.9585 -0.238 -0.470 -0.850 84 88 67
11.3129 28.7750 61.9829 0.863 0.079 -0.498 78 86 61
11.7450 28.6277 61.7331 0.274 -0.337 -0.901 75 85 60
11.9189 28.5944 61.7567 0.327 -0.615 -0.718 110 113 90
12.2572 28.5319 61.8131 -0.146 -0.206 -0.968 108 112 92
12.4568 28.4869 61.8081 0.034 0.057 -0.998 110 111 98
12.6425 28.4481 61.8175 -0.047 0.051 -0.998 97 100 88
12.6822 28.4744 61.9851 0.052 -0.369 -0.928 82 87 73
12.8707 28.4343 61.9913 0.052 -0.448 -0.893 83 86 72
13.0355 28.4047 62.0230 -0.011 -0.403 -0.915 77 79 65
13.1933 28.3782 62.0620 -0.038 -0.291 -0.956 67 72 58
13.3942 28.3322 62.0534 0.022 -0.406 -0.913 96 99 87
13.5692 28.2978 62.0730 0.022 -0.406 -0.913 91 93 82
13.7439 28.2635 62.0925 0.022 -0.406 -0.913 89 90 81
14.3356 28.1294 62.0732 -0.298 -0.286 -0.911 98 101 89
14.4232 28.1344 62.1891 -0.093 -0.318 -0.944 108 109 98
15.5649 27.8371 61.9678 0.600 -0.112 -0.792 116 112 101
16.5659 27.6919 62.3254 0.465 -0.470 -0.750 135 131 119
16.6758 27.6865 62.4150 0.356 -0.223 -0.908 122 118 106
16.8175 27.6663 62.4673 0.513 -0.110 -0.851 129 125 113
16.9190 27.6648 62.5671 0.240 -0.162 -0.957 147 144 131
18.9641 27.1151 62.0886 0.395 -0.334 -0.856 138 129 119
20.9500 26.8154 62.7423 0.394 -0.274 -0.878 117 113 102
23.1762 26.4378 63.2766 0.527 -0.145 -0.837 140 130 121
26.9867 25.7821 64.1464 0.333 -0.263 -0.905 150 137 128
27.0923 25.7783 64.2389 0.404 -0.192 -0.894 133 120 111
28.6000 25.5476 64.7203 0.340 -0.415 -0.844 117 103 92
31.8558 25.0484 65.7555 0.622 -0.241 -0.745 134 124 114
31.9632 25.0439 65.8466 0.622 -0.241 -0.745 141 131 121
32.1617 25.0446 66.0586 0.680 -0.175 -0.712 122 112 102
32.3106 25.0155 66.0758 0.267 -0.103 -0.958 124 114 104
32.4665 24.9821 66.0802 0.244 -0.334 -0.911 132 122 112
34.5565 24.6856 66.8588 0.360 -0.205 -0.910 142 133 124
35.8846 24.5479 67.5961 0.379 -0.104 -0.920 68 80 41
37.0216 24.4708 68.4219 0.303 -0.287 -0.909 85 95 64
37.1431 24.4581 68.4887 0.483 -0.410 -0.773 88 98 68
37.7550 24.3916 68.8140 0.342 -0.253 -0.905 88 87 62
38.8363 24.4336 70.1507 0.296 0.226 -0.928 101 126 71
45.7521 23.8953 74.8434 0.436 -0.340 -0.833 87 76 71
45.8862 23.8740 74.8822 0.293 -0.363 -0.884 88 79 73
46.7382 23.9095 75.9472 0.396 0.246 -0.885 85 76 67
47.7598 24.1316 78.0816 0.297 -0.926 -0.235 111 112 96
47.7975 24.2100 78.4960 0.585 -0.797 -0.147 108 109 93
48.4630 23.8826 77.6305 0.427 -0.037 -0.903 129 130 116
50.8920 23.8926 80.2300 0.622 -0.346 -0.703 134 141 128
54.2217 23.9532 84.0176 0.765 0.329 -0.553 117 134 128
54.7306 23.9315 84.4484 0.736 0.147 -0.661 42 52 48
54.7667 24.0664 85.1309 0.852 0.369 -0.372 31 42 38
55.0251 24.0535 85.3410 0.623 0.267 -0.735 28 40 36
55.9772 24.8188 89.9982 0.491 0.365 -0.791 49 62 57
56.6642 24.5309 89.3444 0.633 -0.156 -0.758 126 140 139
57.1725 24.0697 87.6745 0.667 0.458 -0.587 116 134 134
57.3261 24.0223 87.6094 0.708 0.487 -0.511 122 140 139
57.9136 23.8786 87.5398 0.005 0.180 -0.984 127 148 150
58.1766 23.8665 87.7579 0.160 0.464 -0.871 112 134 140
58.3238 23.8283 87.7302 0.116 0.432 -0.894 105 127 132
59.1236 24.0693 89.7219 0.686 -0.197 -0.700 143 163 171
59.2415 24.1013 89.9988 0.704 -0.199 -0.682 143 163 171
59.3790 24.0886 90.0825 0.817 -0.111 -0.566 121 142 152
59.6288 24.1245 90.5165 0.749 -0.044 -0.661 64 82 95
59.7634 24.1202 90.6372 0.732 -0.114 -0.671 73 91 106
59.9072 24.0932 90.6595 0.533 -0.486 -0.692 78 96 111
60.0225 24.1386 90.9974 0.741 -0.192 -0.643 86 105 119
60.1630 24.1205 91.0585 0.272 -0.600 -0.752 98 116 129
60.3054 24.0972 91.0967 0.292 -0.341 -0.893 113 129 142
60.4418 24.0898 91.2050 0.264 -0.357 -0.896 126 139 150
60.5832 24.0692 91.2549 0.264 -0.357 -0.896 70 83 92
60.7180 24.0669 91.3855 0.500 -0.553 -0.667 11 24 33
-2.0169 31.8208 61.7281 0.006 -0.182 -0.983 76 87 72
-1.8671 31.8020 61.7955 -0.267 -0.263 -0.927 45 56 41
-1.2458 31.6347 61.6526 -0.338 -0.251 -0.907 38 51 37
0.5777 31.2271 61.6284 -0.059 -0.080 -0.995 82 96 65
1.5436 30.9985 61.5556 -0.075 -0.317 -0.945 57 66 60
7.8328 29.5837 61.4299 -0.237 -0.563 -0.792 123 119 117
8.4258 29.4570 61.4495 0.019 -0.709 -0.705 64 65 60
8.6093 29.4207 61.4694 0.082 -0.705 -0.705 66 66 61
10.4093 29.0690 61.6858 0.039 -0.738 -0.674 92 97 79
10.6222 29.0190 61.6714 0.092 -0.720 -0.687 89 98 77
11.2797 28.9037 61.8128 0.091 -0.755 -0.649 72 72 61
11.7331 28.7903 61.7497 0.296 -0.280 -0.913 69 70 58
11.9732 28.7274 61.7028 0.319 -0.604 -0.730 55 55 43
12.1153 28.7081 61.7600 0.279 -0.280 -0.919 39 41 27
12.2657 28.6851 61.8082 -0.127 -0.210 -0.969 62 63 50
12.4763 28.6351 61.7915 -0.127 -0.210 -0.969 101 101 89
12.6807 28.5877 61.7807 -0.190 -0.144 -0.971 114 115 102
12.9183 28.5697 61.9442 0.011 -0.404 -0.915 104 105 91
13.0958 28.5343 61.9619 0.011 -0.404 -0.915 88 89 75
13.2374 28.5150 62.0186 -0.038 -0.291 -0.956 73 74 60
13.4260 28.4744 62.0235 -0.038 -0.291 -0.956 102 104 90
13.6142 28.4339 62.0284 -0.038 -0.291 -0.956 96 96 83
14.2256 28.3356 62.2021 0.125 0.125 -0.984 119 120 106
14.4009 28.3006 62.2199 0.125 0.125 -0.984 126 125 112
15.4104 28.0178 61.9356 0.562 -0.088 -0.822 138 134 122
15.5276 28.0091 62.0168 0.562 -0.088 -0.822 126 122 110
16.7029 27.7824 62.1718 0.252 -0.538 -0.805 78 74 62
16.6705 27.8437 62.4286 0.397 -0.365 -0.842 83 79 67
16.8016 27.8285 62.4935 0.525 -0.158 -0.836 106 102 90
18.0222 27.5305 62.3580 -0.070 -0.122 -0.990 102 104 84
26.9128 25.9194 64.0230 0.316 -0.194 -0.929 129 116 108
28.0534 25.7816 64.5633 0.330 -0.381 -0.864 133 120 112
29.7893 25.5882 65.4627 0.626 -0.334 -0.705 131 122 105
30.1375 25.6184 65.9698 0.831 -0.079 -0.551 132 123 107
32.2908 25.1782 66.1363 0.212 -0.457 -0.864 136 124 112
36.0312 24.6704 67.6423 0.445 0.020 -0.895 81 94 50
37.1881 24.5806 68.4270 0.463 -0.419 -0.781 72 74 54
37.7885 24.5219 68.7767 0.250 -0.237 -0.939 107 114 77
38.2719 24.4730 69.0507 0.472 -0.046 -0.880 136 143 105
44.5873 24.1151 73.9607 0.349 -0.583 -0.734 103 89 81
45.7567 24.0548 74.8978 0.220 -0.008 -0.976 99 87 79
46.6079 24.0928 75.9684 0.594 -0.164 -0.788 89 84 73
46.9899 24.0498 76.1642 0.126 -0.409 -0.904 92 89 80
47.8944 24.2830 78.2156 0.631 -0.769 -0.102 99 101 87
47.9119 24.3836 78.7107 0.826 -0.548 -0.131 83 85 71
49.3317 24.1110 78.9037 0.543 -0.840 0.016 126 129 117
49.5412 24.0088 78.6384 0.490 -0.783 -0.383 126 129 117
50.1566 24.1031 79.7294 -0.048 -0.140 -0.989 137 140 129
50.3772 24.1200 80.0401 0.310 -0.112 -0.944 136 140 129
50.5258 24.0843 80.0264 0.444 -0.390 -0.807 136 140 129
50.6550 24.0710 80.0985 0.449 -0.387 -0.805 137 140 129
50.7767 24.0666 80.2050 0.477 -0.373 -0.796 136 140 129
50.9155 24.0421 80.2340 0.578 -0.375 -0.725 137 140 131
53.7721 24.0817 83.4094 0.523 0.445 -0.727 146 161 158
54.2469 24.1066 84.0244 0.763 0.316 -0.564 127 142 137
54.9827 24.7231 87.7153 0.590 0.103 -0.801 35 47 43
57.3245 23.9903 86.6924 0.696 -0.316 -0.645 110 128 128
57.3929 24.1034 87.2997 0.399 -0.556 -0.729 129 147 148
57.5150 24.1153 87.4837 0.547 -0.240 -0.802 127 145 145
57.6672 24.0687 87.4223 0.625 -0.454 -0.636 127 145 145
57.7969 24.0660 87.5453 0.665 -0.340 -0.665 127 145 145
57.9630 23.9905 87.3613 -0.056 -0.527 -0.848 125 144 143
58.9052 24.1920 89.3016 0.983 -0.061 -0.172 127 146 144
59.0995 24.0481 88.8226 0.636 -0.525 -0.565 134 153 151
59.1712 24.1840 89.5419 0.787 -0.256 -0.561 137 156 153
59.2786 24.2406 89.9223 0.819 -0.151 -0.554 143 162 160
59.4061 24.2516 90.1077 0.819 -0.151 -0.554 151 170 170
59.6745 24.2428 90.3471 0.792 -0.445 -0.418 109 129 135
59.8159 24.2212 90.3925 0.526 -0.435 -0.730 105 125 134
59.9593 24.1940 90.4137 0.469 -0.468 -0.749 115 135 144
60.0501 24.3026 91.0233 0.406 -0.618 -0.673 112 132 140
60.2013 24.2567 90.9638 0.272 -0.600 -0.752 108 128 136
60.3458 24.2275 90.9767 0.616 -0.250 -0.747 110 128 138
60.4817 24.2214 91.0898 0.609 -0.255 -0.751 137 151 163
60.6182 24.2138 91.1967 0.339 -0.384 -0.859 80 96 108
61.1533 24.2196 91.7840 0.804 0.037 -0.593 46 61 66
64.0902 24.6375 96.8362 -0.232 -0.352 -0.907 96 88 67
64.2401 24.5963 96.7974 -0.231 -0.337 -0.913 102 95 76
65.6301 20.7719 80.1290 0.371 0.650 -0.664 98 95 76
-9.6453 34.0116 63.2838 -0.473 0.013 -0.881 55 57 54
-7.6679 33.4469 62.6898 0.878 -0.098 -0.468 65 67 64
-2.7439 32.1158 61.5631 0.363 -0.130 -0.923 44 57 39
-2.4868 32.0954 61.7350 0.374 -0.062 -0.925 54 67 50
-2.3563 32.0844 61.8193 0.658 -0.015 -0.753 56 69 52
-1.9731 31.9716 61.6880 0.015 -0.190 -0.982 49 62 45
-1.5341 31.8774 61.7027 -0.337 -0.235 -0.912 26 39 22
-0.7459 31.6412 61.4136 -0.090 -0.270 -0.959 54 71 41
0.2852 31.4293 61.4918 0.408 -0.677 -0.612 62 79 70
0.5453 31.3646 61.4587 0.158 -0.691 -0.705 66 83 61
1.5502 31.1610 61.5484 0.028 -0.077 -0.997 42 51 47
1.8361 31.0849 61.4888 0.051 -0.275 -0.960 17 23 18
2.0436 31.0411 61.4991 0.057 -0.305 -0.951 56 62 53
8.1606 29.6450 61.3095 0.014 -0.646 -0.764 22 24 21
8.5317 29.5705 61.3457 0.028 -0.711 -0.703 69 71 68
10.1889 29.2808 61.7104 -0.158 -0.273 -0.949 72 76 59
10.4203 29.2225 61.6775 -0.146 -0.283 -0.948 85 89 72
10.6324 29.1726 61.6640 -0.147 -0.267 -0.952 86 94 73
10.6963 29.1884 61.8048 -0.117 -0.464 -0.878 87 91 74
10.8977 29.1432 61.8019 -0.117 -0.464 -0.878 79 81 67
11.3384 29.0355 61.7546 0.156 -0.747 -0.646 97 97 87
11.9636 28.8889 61.7170 0.335 -0.242 -0.910 89 89 79
12.1616 28.8445 61.7146 0.196 -0.216 -0.956 82 82 70
12.9804 28.6985 61.8813 0.158 -0.156 -0.975 98 99 85
13.1449 28.6688 61.9130 0.151 -0.146 -0.978 94 95 81
13.6834 28.5588 61.9571 -0.057 -0.318 -0.946 96 97 83
13.9022 28.5040 61.9276 0.000 -0.430 -0.903 99 100 86
14.1285 28.4456 61.8889 0.267 -0.410 -0.872 110 111 97
14.2644 28.4286 61.9504 0.563 -0.297 -0.771 112 113 99
14.3724 28.4244 62.0433 0.574 -0.179 -0.799 119 120 106
14.4575 28.4308 62.1620 0.569 -0.194 -0.799 127 125 112
14.6270 28.3984 62.1859 0.777 -0.397 -0.489 134 132 119
14.8414 28.3450 62.1585 0.379 -0.157 -0.912 140 136 124
14.9845 28.3246 62.2116 -0.111 0.324 -0.940 146 142 130
16.7272 27.9719 62.3692 0.393 -0.364 -0.844 167 163 151
16.8493 27.9608 62.4445 0.493 -0.295 -0.818 165 161 149
17.6660 27.7604 62.3530 0.679 0.031 -0.733 99 100 82
21.8891 26.9452 62.9206 0.083 -0.317 -0.945 143 137 125
23.4546 26.6992 63.3955 0.640 -0.063 -0.766 117 107 95
28.0450 25.9371 64.5949 0.286 -0.060 -0.956 170 157 149
29.8062 25.7299 65.4557 0.538 -0.002 -0.843 146 137 120
29.9396 25.7107 65.5045 0.545 0.001 -0.838 132 123 106
37.4445 24.6288 68.2366 0.297 -0.113 -0.948 56 57 39
37.5803 24.6060 68.2710 0.343 -0.092 -0.935 56 58 37
37.7333 24.6421 68.6001 0.498 -0.320 -0.806 94 101 64
37.8218 24.6522 68.7399 0.266 -0.233 -0.935 98 106 67
38.1891 24.6123 68.9346 0.400 -0.229 -0.887 147 155 114
41.4757 24.4340 71.5201 0.491 -0.105 -0.865 102 92 90
41.6886 24.4345 71.7440 0.437 -0.024 -0.899 96 86 84
41.8980 24.6098 72.7862 0.047 -0.949 -0.312 138 125 123
44.2141 24.3156 73.8157 0.311 -0.493 -0.813 119 105 96
44.5931 24.2721 74.0059 0.361 -0.481 -0.799 121 107 98
44.7057 24.2697 74.1119 0.338 -0.493 -0.802 106 92 83
44.8454 24.2434 74.1340 0.379 -0.511 -0.771 85 71 62
46.7692 24.2122 75.9912 0.336 -0.678 -0.654 80 76 67
46.8948 24.1995 76.0624 0.276 -0.713 -0.645 85 82 73
47.9994 24.4659 78.4645 0.906 -0.415 -0.080 87 89 75
49.5875 24.2599 79.1504 0.603 -0.796 0.047 121 124 113
49.6244 24.3494 79.6098 0.606 -0.794 0.041 127 130 119
49.8882 24.3170 79.7321 0.813 -0.550 -0.192 128 131 120
50.3582 24.3190 80.2311 0.123 0.046 -0.991 132 135 124
50.5058 24.2848 80.2238 0.214 -0.192 -0.958 134 137 126
50.6327 24.2747 80.3085 0.208 -0.179 -0.962 137 140 129
50.7459 24.2809 80.4556 0.258 -0.086 -0.962 138 141 130
50.9056 24.2317 80.3910 0.233 -0.106 -0.967 138 141 132
51.8642 24.0741 80.6488 -0.065 -0.554 -0.830 124 131 124
53.7768 24.2638 83.5323 0.532 0.443 -0.722 144 159 156
54.1553 24.2504 83.8633 0.463 -0.188 -0.866 140 155 152
54.3126 24.1997 83.7892 0.356 -0.305 -0.883 133 148 143
54.4393 24.1947 83.8976 0.411 -0.666 -0.623 126 141 138
54.5446 24.2223 84.1369 0.621 -0.365 -0.694 108 124 121
54.9249 24.4057 85.3948 0.936 -0.012 -0.351 41 57 54
55.0273 24.8533 87.6050 0.582 0.067 -0.810 35 47 43
56.8126 24.4372 87.5090 0.346 -0.897 -0.273 73 93 84
57.0901 24.1588 86.4895 0.813 0.333 -0.477 101 120 116
57.2016 24.1884 86.7451 0.831 0.234 -0.505 121 140 138
57.3597 24.1299 86.6348 0.681 -0.286 -0.674 127 145 145
57.4346 24.2317 87.1911 0.434 -0.591 -0.680 134 152 152
57.5445 24.2675 87.4739 0.558 -0.267 -0.785 127 145 145
57.6693 24.2750 87.6392 0.571 -0.276 -0.773 126 144 144
57.8150 24.2412 87.6319 0.825 -0.195 -0.530 127 145 145
58.1074 24.4393 88.8674 0.527 -0.067 -0.847 113 132 130
58.3897 24.3946 88.9515 0.526 -0.026 -0.850 108 126 126
58.4188 24.6161 90.0224 -0.116 0.246 -0.962 108 127 125
59.0776 24.3209 89.3214 -0.037 -0.367 -0.929 128 147 143
59.1838 24.3796 89.7078 0.688 -0.199 -0.698 137 156 152
59.3087 24.3961 89.9157 0.737 -0.206 -0.644 144 163 159
59.4406 24.3970 90.0570 0.755 -0.218 -0.619 151 170 168
59.7210 24.3586 90.1689 0.798 -0.423 -0.430 147 168 173
59.8554 24.3538 90.2862 0.773 -0.426 -0.471 145 165 172
60.2396 24.3927 90.8691 0.272 -0.600 -0.752 132 152 159
60.3758 24.3855 90.9772 0.607 -0.229 -0.761 133 152 159
60.5134 24.3749 91.0707 0.611 -0.236 -0.755 131 148 157
60.6526 24.3599 91.1450 0.339 -0.384 -0.859 63 80 90
61.1811 24.3861 91.8190 0.791 0.034 -0.611 44 62 67
64.1249 24.7912 96.7884 -0.186 -0.298 -0.936 95 89 67
-2.6550 32.2905 61.6794 0.334 -0.187 -0.924 34 47 30
-2.4798 32.2616 61.7260 0.395 -0.261 -0.881 50 62 48
-0.0359 31.5598 60.9904 0.476 -0.495 -0.727 60 80 46
0.0853 31.5519 61.0791 0.418 -0.493 -0.763 37 57 30
0.9679 31.4829 61.6728 -0.246 -0.022 -0.969 40 54 39
1.2853 31.3938 61.5869 -0.261 -0.043 -0.964 34 45 40
2.0400 31.2075 61.5013 0.065 -0.156 -0.986 52 55 46
8.1950 29.7897 61.2771 -0.082 -0.269 -0.959 61 63 60
9.9852 29.4857 61.7170 -0.234 -0.283 -0.930 46 50 32
10.3066 29.3873 61.5918 -0.286 -0.221 -0.932 58 62 45
10.5827 29.3088 61.5122 -0.128 -0.540 -0.832 101 105 88
10.7636 29.2725 61.5306 -0.130 -0.528 -0.840 105 112 94
10.8310 29.2868 61.6674 -0.166 -0.616 -0.770 107 111 94
11.0397 29.2380 61.6565 -0.169 -0.614 -0.771 99 101 87
11.2126 29.2051 61.6826 0.020 -0.608 -0.794 100 100 88
11.3597 29.1838 61.7357 0.930 -0.289 -0.227 117 117 107
11.9932 29.0329 61.6896 0.335 -0.242 -0.910 109 109 99
13.7154 28.7006 61.9270 0.160 -0.148 -0.976 96 97 83
13.8555 28.6818 61.9846 0.036 0.054 -0.998 99 100 86
14.1106 28.6099 61.9143 0.010 -0.279 -0.960 110 111 97
14.2599 28.5867 61.9610 0.012 -0.282 -0.959 112 113 99
14.3819 28.5761 62.0382 0.385 -0.301 -0.872 119 120 106
14.5220 28.5572 62.0953 0.392 -0.318 -0.863 128 126 113
14.6624 28.5381 62.1518 0.573 -0.191 -0.797 116 114 101
15.1027 28.4254 62.0833 -0.024 -0.171 -0.985 137 133 121
16.5839 28.1479 62.3260 0.935 -0.107 -0.337 112 108 96
16.6711 28.1535 62.4427 0.844 0.033 -0.535 112 108 96
16.8526 28.1143 62.4482 0.324 -0.222 -0.920 98 94 82
17.0340 28.0751 62.4534 -0.235 -0.196 -0.952 99 97 82
17.2393 28.0243 62.4296 -0.280 -0.158 -0.947 96 97 79
23.2437 26.8582 63.2226 0.615 -0.219 -0.757 131 121 109
23.6408 26.8573 63.6301 0.010 -0.934 -0.356 112 102 90
26.5406 26.2085 63.6139 0.263 -0.288 -0.921 113 104 89
30.2301 25.7516 65.3110 0.322 0.035 -0.946 132 123 106
32.0690 25.4325 65.7314 0.626 -0.399 -0.670 161 149 137
32.3881 25.4216 66.0112 0.253 -0.288 -0.924 159 147 135
34.3059 25.1701 66.8282 0.308 -0.304 -0.902 143 139 128
34.4326 25.1539 66.8842 0.167 -0.262 -0.951 152 148 137
37.4841 24.7542 68.1862 0.303 -0.099 -0.948 89 90 72
37.6099 24.7383 68.2423 0.302 -0.106 -0.947 95 97 76
37.7632 24.7746 68.5709 0.435 -0.467 -0.770 94 101 64
37.8518 24.7848 68.7103 0.520 -0.258 -0.814 87 95 54
38.1937 24.7628 68.9620 0.232 -0.320 -0.919 122 130 89
38.3269 24.7419 69.0029 0.232 -0.320 -0.919 147 155 114
38.4600 24.7210 69.0438 0.232 -0.320 -0.919 125 133 92
43.1861 24.4253 72.5673 0.579 -0.464 -0.671 140 125 116
45.6824 24.3491 74.8010 0.482 -0.240 -0.843 106 92 83
48.0928 24.6626 78.7618 0.858 -0.501 -0.115 88 90 76
50.6706 24.4076 80.2470 0.303 0.770 -0.561 138 141 130
53.6592 24.2696 82.7035 0.948 0.171 -0.269 138 153 148
53.8068 24.4097 83.5097 0.489 0.495 -0.718 145 160 157
53.9332 24.4049 83.6183 0.519 0.098 -0.849 157 171 171
54.0555 24.4062 83.7514 0.417 -0.570 -0.708 154 169 166
54.1891 24.3911 83.8192 0.360 -0.604 -0.711 146 161 158
54.3257 24.3713 83.8688 0.348 -0.557 -0.754 139 154 151
54.4395 24.3862 84.0561 0.739 -0.385 -0.553 131 146 143
56.2569 24.4912 86.4306 0.351 -0.844 -0.406 35 52 44
56.3853 24.4892 86.5543 0.413 -0.833 -0.368 33 53 44
56.6474 24.4763 86.7660 0.443 -0.847 -0.294 51 71 60
56.7697 24.4864 86.9400 0.241 -0.894 -0.377 47 67 56
56.8908 24.4992 87.1254 0.421 -0.861 -0.285 41 61 52
57.0061 24.5237 87.3592 0.279 -0.913 -0.298 62 81 77
57.1356 24.5220 87.4855 0.279 -0.913 -0.298 106 125 123
57.5100 24.2936 86.8090 0.822 -0.398 -0.407 121 139 139
57.6035 24.3614 87.2224 0.503 -0.209 -0.839 126 144 144
57.7286 24.3679 87.3824 0.507 -0.206 -0.837 128 146 146
57.8686 24.3448 87.4199 0.501 -0.156 -0.851 127 145 145
58.4307 24.5250 88.8424 0.579 -0.151 -0.801 108 127 125
58.7094 24.7833 90.3356 0.949 -0.288 -0.125 108 127 123
60.2778 24.5285 90.7746 0.272 -0.600 -0.752 139 159 166
60.4062 24.5427 90.9738 0.595 -0.214 -0.775 144 163 170
60.5425 24.5358 91.0832 0.577 -0.193 -0.793 124 141 149
60.6797 24.5268 91.1836 0.475 -0.204 -0.856 44 63 70
61.2116 24.5448 91.8193 0.772 0.042 -0.634 44 62 68
64.1348 25.0820 97.3545 0.245 0.117 -0.962 96 89 70
64.9666 23.4164 90.4544 0.595 -0.799 0.088 99 96 77
-12.4453 35.1235 63.8777 -0.579 -0.008 -0.815 98 107 103
-4.2933 32.8697 61.8795 0.010 -0.223 -0.975 75 82 72
-2.6895 32.4737 61.7055 -0.040 -0.500 -0.865 42 55 38
-2.4012 32.3987 61.6564 -0.082 -0.521 -0.849 30 43 26
-2.1628 32.3438 61.6488 -0.028 -0.540 -0.841 47 60 43
-0.0192 31.7187 60.9736 0.392 -0.498 -0.774 62 82 48
0.1156 31.7052 61.0505 0.392 -0.498 -0.774 46 66 40
0.7981 31.6770 61.6249 -0.152 -0.045 -0.987 60 76 49
8.1823 29.9549 61.2915 -0.086 -0.001 -0.996 95 97 94
9.2377 29.7104 61.2512 0.046 -0.329 -0.943 91 92 86
9.3869 29.6885 61.3041 0.121 -0.323 -0.939 105 106 100
10.0892 29.5983 61.6127 -0.177 -0.180 -0.967 88 92 74
10.3552 29.5241 61.5445 -0.286 -0.221 -0.932 83 87 70
10.5740 29.4709 61.5243 -0.373 -0.186 -0.909 91 95 78
10.9860 29.3755 61.5087 -0.229 -0.474 -0.850 74 78 61
11.1381 29.3519 61.5568 -0.006 -0.587 -0.810 82 84 70
11.3002 29.3237 61.5941 0.020 -0.608 -0.794 101 101 89
11.4017 29.3229 61.6951 0.925 -0.300 -0.232 114 114 104
13.7192 28.8555 61.9280 0.540 -0.403 -0.739 103 104 90
13.8748 28.8294 61.9685 -0.025 0.225 -0.974 107 108 94
14.1716 28.7379 61.8518 -0.030 0.006 -1.000 112 113 99
14.3438 28.7039 61.8728 0.003 -0.014 -1.000 107 108 94
16.4517 28.3187 62.2693 0.787 0.100 -0.609 116 112 100
16.6059 28.2925 62.3074 0.889 -0.023 -0.457 91 87 76
16.8344 28.2782 62.4772 0.357 -0.385 -0.851 96 92 80
17.0825 28.2068 62.4034 -0.250 -0.410 -0.877 83 81 66
18.3008 27.9050 62.2669 0.330 -0.454 -0.828 125 123 108
22.1028 27.2923 63.3613 0.491 0.298 -0.818 122 114 101
22.2208 27.2827 63.4389 -0.220 0.014 -0.975 137 129 116
23.1849 27.0407 63.3159 0.621 -0.500 -0.604 130 120 108
23.3143 27.0248 63.3763 0.608 -0.482 -0.631 130 120 108
36.9715 24.9769 68.0153 0.456 -0.029 -0.890 57 60 41
37.4927 24.9010 68.2030 0.289 -0.323 -0.901 90 91 73
37.6222 24.8825 68.2511 0.289 -0.323 -0.901 85 86 68
37.7343 24.8762 68.3376 0.615 -0.266 -0.743 96 99 76
37.7902 24.9092 68.5480 0.433 -0.459 -0.776 93 100 62
37.8807 24.9182 68.6832 0.509 -0.272 -0.817 78 86 45
37.9781 24.9226 68.8039 0.581 -0.352 -0.734 68 76 35
38.1041 24.9067 68.8610 0.498 -0.250 -0.830 121 129 88
39.1292 24.9980 70.3413 -0.132 -0.374 -0.918 89 121 56
40.8393 24.7471 70.9481 0.238 -0.409 -0.881 77 68 59
42.8384 24.6045 72.3537 0.201 -0.400 -0.894 105 96 87
42.9721 24.5832 72.3932 0.201 -0.400 -0.894 110 99 90
43.4783 24.5214 72.6304 0.648 -0.261 -0.716 116 106 94
47.6928 24.5312 77.0284 0.173 -0.980 -0.101 98 100 87
50.1667 24.6213 80.0002 0.938 -0.034 -0.345 121 124 113
50.4267 24.5940 80.1423 0.575 0.394 -0.717 122 125 114
50.5424 24.5973 80.2772 0.573 0.399 -0.715 127 130 119
51.0552 24.5521 80.5978 0.311 0.777 -0.547 139 145 135
51.3381 24.3497 79.9542 0.663 -0.098 -0.742 134 141 133
53.6418 24.4825 82.9474 0.636 -0.283 -0.718 136 151 146
53.7266 24.5371 83.2877 0.860 0.168 -0.482 133 148 145
53.8244 24.5741 83.5594 0.643 0.059 -0.764 145 160 157
53.9532 24.5658 83.6543 0.381 -0.579 -0.721 158 172 172
54.5387 24.6177 84.4987 0.760 -0.556 -0.336 120 136 133
55.3146 25.4360 89.0824 0.492 -0.119 -0.862 36 48 44
56.2911 24.8635 87.4447 -0.038 -0.922 -0.384 33 53 44
57.0500 24.6488 87.2362 0.342 -0.901 -0.268 61 80 76
57.1746 24.6564 87.4001 0.337 -0.901 -0.271 77 96 94
57.3784 24.5098 86.9332 0.405 -0.439 -0.802 92 110 110
57.7431 24.5506 87.4981 0.716 0.241 -0.655 130 148 148
57.8833 24.5273 87.5351 0.723 0.278 -0.632 124 142 142
58.0143 24.7951 88.9084 0.684 0.483 -0.546 121 140 138
58.2590 24.8327 89.3352 0.739 0.374 -0.560 109 128 126
58.8592 24.9716 90.5970 -0.311 0.069 -0.948 114 133 129
59.9340 24.6191 90.0777 0.822 -0.358 -0.443 179 199 208
60.0412 24.6861 90.4979 0.507 -0.500 -0.702 169 189 196
60.3102 24.6799 90.7472 0.266 -0.553 -0.790 146 166 173
60.4378 24.6965 90.9556 0.595 -0.214 -0.775 137 156 163
60.5786 24.6771 91.0114 0.295 -0.522 -0.800 114 131 139
60.7167 24.6655 91.1005 -0.132 -0.316 -0.940 47 64 72
60.8626 24.6310 91.0916 -0.132 -0.316 -0.940 14 31 43
60.9958 24.6337 91.2419 0.310 -0.399 -0.863 25 41 56
61.1180 24.6705 91.5383 0.672 -0.230 -0.704 43 60 71
61.1470 24.9985 93.0843 0.798 0.253 -0.547 53 70 76
61.6511 24.6945 92.1998 0.675 -0.050 -0.736 64 77 69
61.7908 24.6813 92.2831 0.763 -0.214 -0.610 81 97 89
67.1290 21.2837 82.0917 0.773 0.531 -0.348 90 98 85
-12.5141 35.3319 63.9246 -0.579 -0.008 -0.815 62 71 67
-6.9744 33.8231 62.7048 -0.375 -0.188 -0.908 40 45 41
-4.2588 33.0693 62.0422 0.049 -0.358 -0.932 72 81 69
0.4149 31.8319 61.1764 0.426 -0.367 -0.827 26 44 33
1.9070 31.5506 61.4213 -0.026 -0.150 -0.988 50 56 51
7.9560 30.1703 61.3147 -0.153 0.073 -0.986 51 53 50
9.2409 29.8679 61.2502 0.172 -0.160 -0.972 107 108 102
10.0815 29.7608 61.6237 -0.226 -0.241 -0.944 97 101 84
10.3819 29.6708 61.5200 -0.312 -0.224 -0.923 92 96 79
10.6234 29.6071 61.4762 -0.373 -0.186 -0.909 90 94 79
11.2801 29.4456 61.4113 -0.045 -0.315 -0.948 48 50 37
13.5136 29.0614 61.9473 0.099 0.008 -0.995 110 111 97
13.8326 28.9594 61.8078 0.681 -0.181 -0.709 116 117 103
13.9989 28.9283 61.8362 0.041 0.204 -0.978 124 125 111
14.1885 28.8862 61.8384 -0.060 0.291 -0.955 133 134 120
15.5409 28.5770 61.8115 0.486 -0.111 -0.867 135 131 119
16.8165 28.3943 62.2860 0.779 0.361 -0.513 96 92 80
16.9932 28.3570 62.2968 0.400 0.110 -0.910 80 76 64
17.1837 28.3130 62.2909 -0.096 0.141 -0.985 48 46 31
17.3920 28.2602 62.2631 -0.096 0.141 -0.985 55 56 38
22.1244 27.4344 63.3444 0.285 -0.689 -0.666 126 118 105
22.4489 27.3694 63.3804 -0.284 -0.529 -0.800 136 128 115
28.2760 26.3165 64.5467 0.368 -0.054 -0.928 123 110 102
30.6348 25.9930 65.4897 0.399 -0.416 -0.817 119 109 97
33.0128 25.5872 66.0749 0.656 -0.061 -0.752 150 144 130
36.8911 25.1143 67.8963 0.441 -0.045 -0.896 48 51 33
37.1400 25.0845 68.0155 0.428 -0.027 -0.903 58 59 41
37.2441 25.0836 68.1186 0.421 -0.037 -0.906 42 43 25
37.7376 25.0270 68.3666 0.629 -0.289 -0.721 81 84 61
37.7996 25.0561 68.5638 0.548 -0.336 -0.766 68 75 36
37.9028 25.0564 68.6713 0.522 -0.300 -0.799 90 98 57
38.9409 24.9074 69.0560 0.187 -0.184 -0.965 97 127 63
38.9138 25.1575 70.1746 -0.063 -0.255 -0.965 83 115 50
39.1112 25.0897 70.0670 0.392 -0.373 -0.841 83 115 50
39.1659 25.1275 70.2962 -0.091 -0.442 -0.892 83 115 50
40.2234 24.8888 70.2897 0.471 -0.475 -0.743 113 121 82
41.5125 24.7941 71.1812 0.323 -0.344 -0.881 108 99 94
41.5153 24.8770 71.5643 0.284 -0.230 -0.931 114 104 102
41.6472 24.8572 71.6095 0.284 -0.230 -0.931 96 86 84
42.8832 24.7268 72.2829 0.207 -0.392 -0.896 114 112 100
43.3652 24.6855 72.5892 0.652 -0.094 -0.752 124 115 102
50.1192 24.7159 79.6754 0.911 -0.266 -0.315 118 121 110
50.2022 24.7573 79.9504 0.927 0.002 -0.374 120 123 112
51.3140 24.5582 80.1814 0.333 -0.230 -0.914 135 142 134
51.4646 24.5181 80.1524 0.132 -0.078 -0.988 127 134 126
51.6043 24.4913 80.1732 0.132 -0.078 -0.988 115 125 116
53.6917 24.5986 82.8120 0.548 -0.773 -0.321 137 152 147
54.5776 24.7514 84.4236 0.804 -0.563 -0.193 118 134 131
56.1788 24.3676 84.3112 0.251 -0.129 -0.959 38 49 45
56.3602 24.9450 87.1447 -0.234 -0.652 -0.721 33 53 44
57.1219 24.7196 86.8950 0.361 -0.641 -0.677 72 91 87
57.2599 24.7003 86.9486 0.433 -0.602 -0.671 74 93 91
57.4069 24.6633 86.9301 0.705 -0.237 -0.669 74 92 92
57.5377 24.6580 87.0401 0.901 0.044 -0.431 74 92 92
57.6494 24.6916 87.3092 0.684 -0.043 -0.728 103 121 121
57.7736 24.7011 87.4803 0.036 0.339 -0.940 140 158 158
58.0557 24.6507 87.5396 0.488 0.202 -0.849 125 144 142
58.1914 24.6365 87.6142 0.637 0.010 -0.771 120 139 137
58.2726 24.7399 88.1716 0.081 -0.576 -0.813 112 131 129
58.3830 24.7827 88.4816 0.855 -0.451 -0.254 108 127 125
58.8741 25.1655 90.7414 -0.334 -0.029 -0.942 115 134 130
59.9437 24.4864 88.7283 0.562 -0.373 -0.738 149 170 176
60.1333 24.6782 89.8027 0.581 -0.189 -0.792 176 196 205
60.2055 24.8409 90.6226 0.386 -0.615 -0.688 177 197 204
60.3474 24.8179 90.6631 0.266 -0.553 -0.790 170 190 197
60.4761 24.8315 90.8583 0.229 -0.586 -0.777 161 179 189
60.6155 24.8160 90.9305 0.210 -0.593 -0.777 113 128 139
60.7571 24.7938 90.9743 -0.096 -0.460 -0.883 49 63 76
60.8971 24.7763 91.0379 -0.132 -0.316 -0.940 40 56 69
61.0297 24.7810 91.1957 0.273 -0.403 -0.873 47 63 78
61.1532 24.8144 91.4760 0.696 -0.291 -0.657 43 60 71
61.4450 25.1846 93.4736 0.263 0.288 -0.921 55 71 60
61.6877 24.8343 92.1168 0.741 -0.040 -0.670 59 75 64
61.8242 24.8315 92.2447 0.766 -0.188 -0.615 82 98 87
-8.2991 34.2718 62.5885 -0.131 0.018 -0.991 62 62 60
-4.4497 33.2328 61.8069 0.245 -0.456 -0.856 70 76 69
-4.0884 33.1712 61.8968 0.142 -0.480 -0.866 93 102 90
1.4838 31.8080 61.4052 -0.187 -0.495 -0.849 32 43 33
8.0763 30.2773 61.1973 -0.044 0.115 -0.992 53 55 52
