ply
format ascii 1.0
element vertex 857
property float x
property float y
property float z
property float nx
property float ny
property float nz
property uchar diffuse_red
property uchar diffuse_green
property uchar diffuse_blue
end_header
-3.1755 -3.2210 81.5905 -0.079 -0.992 -0.094 106 146 158
0.1484 -3.3688 81.0564 -0.034 -0.938 -0.344 101 140 166
0.3135 -3.3643 81.1040 -0.012 -0.930 -0.367 81 120 145
0.5146 -3.3678 81.1060 -0.012 -0.930 -0.367 67 105 131
0.6694 -3.3610 81.1663 -0.016 -0.929 -0.370 63 106 133
0.9011 -3.3714 81.1289 0.050 -0.848 -0.528 68 111 139
1.0815 -3.3704 81.1563 0.564 -0.084 -0.821 84 127 154
4.0387 -3.3771 81.4640 0.463 -0.578 -0.672 32 67 98
4.1454 -3.3596 81.5862 0.626 -0.632 -0.457 39 74 101
4.2523 -3.3421 81.7085 0.626 -0.632 -0.457 72 108 131
4.4390 -3.3433 81.7227 0.386 -0.737 -0.555 144 179 198
4.6026 -3.3392 81.7682 0.122 -0.791 -0.600 130 163 177
4.7058 -3.3207 81.8962 -0.089 -0.701 -0.708 135 168 179
5.1131 -3.3315 81.8765 0.660 0.068 -0.748 74 104 114
5.2859 -3.3296 81.9087 0.595 0.143 -0.791 66 96 106
5.3003 -3.2897 82.1606 0.942 -0.106 -0.318 84 113 126
7.3674 -3.3562 81.9880 0.173 -0.648 -0.741 183 226 244
8.4325 -3.4009 81.8336 0.629 0.200 -0.751 190 232 249
8.5771 -3.3928 81.9014 0.831 -0.204 -0.517 193 235 252
8.5704 -3.3462 82.1926 0.503 -0.479 -0.719 193 234 252
9.0164 -3.1409 83.5328 -0.046 -0.989 -0.142 191 234 250
10.3303 -3.2999 82.6911 -0.132 -0.618 -0.775 193 235 252
11.1368 -3.1390 83.7953 0.350 -0.917 -0.194 188 229 249
12.9645 -3.1108 84.1882 -0.117 -0.854 -0.507 177 218 241
13.1899 -3.1252 84.1243 -0.169 -0.800 -0.576 191 232 251
13.4029 -3.1363 84.0801 -0.196 -0.775 -0.600 178 219 241
13.6018 -3.1435 84.0585 -0.100 -0.794 -0.600 180 218 240
13.8077 -3.1527 84.0247 -0.087 -0.797 -0.597 179 215 238
14.0216 -3.1645 83.9765 0.074 -0.752 -0.655 170 206 229
14.1949 -3.1646 83.9963 0.074 -0.752 -0.655 168 204 227
14.3772 -3.1673 84.0005 0.081 -0.749 -0.658 174 210 234
14.8838 -3.1642 84.0797 0.047 -0.109 -0.993 174 215 237
15.1049 -3.1787 84.0152 0.070 -0.088 -0.994 184 225 247
15.2818 -3.1802 84.0264 0.057 -0.099 -0.993 189 231 252
19.8050 -2.8278 86.7711 0.300 -0.651 -0.697 189 231 247
20.5711 -2.9725 85.9538 0.252 -0.968 -0.016 187 224 242
20.7218 -2.9090 86.3702 -0.338 -0.669 -0.662 159 191 206
21.8523 -2.8333 86.9782 0.745 -0.068 -0.664 119 154 173
21.9654 -2.8137 87.1147 0.706 -0.033 -0.708 106 143 161
22.2301 -2.8482 86.9293 -0.402 -0.238 -0.884 113 149 171
23.2858 -2.9889 86.1717 -0.438 -0.581 -0.686 152 183 211
23.5288 -3.0174 86.0221 -0.394 -0.561 -0.728 172 204 229
24.2177 -2.9675 86.4160 0.201 -0.973 -0.115 115 146 174
25.6214 -2.8111 87.5626 0.271 -0.295 -0.916 155 184 198
25.8222 -2.6943 88.3191 0.034 0.172 -0.985 149 178 192
26.3342 -2.8333 87.5077 -0.409 -0.598 -0.689 152 181 195
26.4616 -2.8187 87.6147 0.472 -0.481 -0.739 154 184 200
26.6198 -2.8164 87.6473 0.724 -0.544 -0.425 173 206 220
26.8264 -2.7672 87.9807 0.420 -0.322 -0.849 193 227 240
26.9796 -2.7628 88.0263 0.271 -0.037 -0.962 185 219 232
27.1505 -2.7657 88.0280 0.468 -0.074 -0.880 160 193 207
27.3012 -2.7604 88.0792 0.303 -0.145 -0.942 149 182 196
27.4620 -2.7593 88.1052 0.178 -0.120 -0.977 136 172 186
27.6277 -2.7603 88.1185 0.269 -0.100 -0.958 137 174 189
27.7823 -2.7567 88.1594 0.375 -0.212 -0.902 189 229 244
27.9051 -2.7397 88.2806 0.403 -0.270 -0.874 190 232 248
28.4736 -2.8434 87.6971 0.144 -0.656 -0.740 202 244 255
28.7695 -2.7617 88.2446 0.422 -0.348 -0.837 147 189 206
28.9313 -2.7616 88.2643 0.405 -0.348 -0.845 147 188 210
29.0755 -2.7538 88.3301 0.405 -0.348 -0.845 149 186 213
29.3344 -2.7252 88.5400 0.308 -0.437 -0.845 117 154 180
29.4755 -2.7160 88.6146 0.420 -0.455 -0.785 150 187 211
32.2813 -2.5970 89.6923 0.371 -0.929 0.010 197 230 249
32.2282 -2.4104 90.8559 0.154 -0.977 -0.150 211 238 249
32.6330 -2.2865 91.6807 0.167 -0.934 -0.315 191 199 214
32.7166 -2.2458 91.9461 0.455 -0.709 -0.539 169 179 195
32.9843 -2.2154 92.1680 0.604 -0.693 -0.393 146 161 181
33.1121 -2.1969 92.2993 0.601 -0.696 -0.393 129 144 164
33.3013 -2.2106 92.2354 0.390 -0.867 -0.308 109 120 143
33.4276 -2.1912 92.3720 0.396 -0.861 -0.320 94 100 126
33.5700 -2.1803 92.4573 0.392 -0.863 -0.319 98 102 131
33.7263 -2.1768 92.4981 0.360 -0.873 -0.330 93 99 125
33.8784 -2.1710 92.5523 0.376 -0.878 -0.295 73 83 104
33.9954 -2.1462 92.7216 0.266 -0.863 -0.430 67 83 97
34.1432 -2.1380 92.7905 0.405 -0.863 -0.303 82 101 112
34.2538 -2.1093 92.9833 0.546 -0.782 -0.302 95 122 127
36.9534 -1.5698 96.6858 -0.583 -0.298 -0.756 194 226 214
37.1759 -1.6062 96.4834 -0.507 -0.498 -0.704 194 224 214
37.3786 -1.6306 96.3546 -0.507 -0.498 -0.704 195 222 213
38.5865 -1.4466 97.6510 -0.214 0.375 -0.902 183 213 220
40.9555 -1.9856 94.5512 0.573 -0.613 -0.544 97 96 113
41.0905 -1.9685 94.6741 0.573 -0.613 -0.544 103 103 116
41.1911 -1.9253 94.9571 0.466 -0.751 -0.468 83 88 100
41.3264 -1.9078 95.0824 0.272 -0.770 -0.577 78 85 99
41.4249 -1.8620 95.3815 0.817 -0.393 -0.421 109 117 133
42.2571 -2.0202 94.4877 0.587 -0.497 -0.639 107 124 132
42.4057 -2.0141 94.5436 0.571 -0.538 -0.621 112 131 138
49.2195 -1.3139 99.7396 0.393 -0.206 -0.896 121 141 150
-14.4468 -2.7864 81.8977 -0.442 -0.835 -0.328 104 153 161
-11.3991 -2.9014 81.5523 0.134 -0.978 0.159 130 176 200
-3.4550 -3.1237 81.1338 -0.164 -0.967 -0.195 147 187 199
0.1290 -3.2495 80.7867 -0.125 -0.009 -0.992 135 171 199
0.3478 -3.2570 80.7667 -0.075 -0.022 -0.997 91 127 153
0.8002 -3.2345 80.9610 0.724 0.117 -0.680 93 131 162
0.9358 -3.2236 81.0452 0.754 0.008 -0.657 105 144 175
1.0850 -3.2157 81.1120 0.680 0.080 -0.729 119 158 189
1.2652 -3.1733 81.3975 0.570 0.213 -0.793 129 167 196
1.5396 -3.1519 81.5636 0.039 0.598 -0.801 137 174 202
1.9033 -3.1508 81.6143 0.045 0.596 -0.802 137 177 202
4.3179 -3.3311 80.7871 -0.032 0.048 -0.998 34 68 95
4.4776 -3.3264 80.8358 0.118 -0.745 -0.656 29 63 89
4.6462 -3.3238 80.8724 0.102 -0.696 -0.710 57 92 116
4.8192 -3.3223 80.9029 0.110 -0.746 -0.657 117 149 172
4.5103 -3.2059 81.5880 0.372 -0.728 -0.576 145 177 195
4.6906 -3.2058 81.6104 0.122 -0.791 -0.600 136 167 183
5.2404 -3.1643 81.9344 0.651 0.058 -0.757 87 116 129
5.3035 -3.1358 82.1189 0.942 -0.106 -0.318 110 139 153
5.4705 -3.1325 82.1597 0.655 -0.462 -0.598 124 154 170
7.8056 -3.3572 81.0473 0.549 -0.458 -0.699 183 224 238
9.3760 -3.3105 81.5272 0.102 -0.172 -0.980 192 231 248
9.5293 -3.3049 81.5804 0.188 -0.210 -0.960 192 232 249
9.8639 -3.3012 81.6442 0.210 -0.210 -0.955 192 233 249
10.0497 -3.3042 81.6480 0.177 -0.220 -0.959 192 233 248
10.2490 -3.3108 81.6309 -0.044 -0.182 -0.982 193 233 247
10.4785 -3.3256 81.5673 -0.191 -0.035 -0.981 193 232 246
11.1177 -2.9796 83.7923 0.172 -0.967 -0.186 189 228 248
12.9149 -2.9925 83.9295 -0.113 -0.793 -0.599 189 229 251
13.0962 -2.9946 83.9384 -0.111 -0.789 -0.604 178 218 243
13.2858 -2.9992 83.9333 -0.153 -0.751 -0.642 184 224 249
13.4612 -2.9997 83.9513 0.133 -0.548 -0.826 183 223 248
13.6352 -2.9999 83.9713 0.142 -0.556 -0.819 189 226 251
13.8097 -3.0002 83.9901 0.119 -0.542 -0.832 185 222 247
14.0270 -3.0131 83.9365 0.183 -0.508 -0.841 185 221 247
14.2892 -3.0393 83.8057 0.161 -0.513 -0.843 176 212 238
14.4264 -3.0290 83.8860 0.287 -0.042 -0.957 176 213 238
14.8523 -3.0023 84.1036 0.446 0.069 -0.893 182 220 242
15.0193 -3.0008 84.1329 0.318 0.040 -0.947 187 225 246
15.1339 -2.9837 84.2530 0.050 -0.213 -0.976 189 228 246
21.4394 -2.9468 85.2454 0.729 -0.422 -0.539 167 199 214
21.6789 -2.6776 86.9456 0.984 -0.176 0.014 153 188 207
21.8294 -2.6712 87.0032 0.854 -0.352 -0.382 124 159 179
21.9595 -2.6575 87.1042 0.709 -0.052 -0.704 111 146 166
22.1952 -2.6820 86.9807 -0.401 -0.471 -0.785 114 149 172
23.0017 -2.7935 86.3861 -0.636 -0.340 -0.693 100 131 160
23.2881 -2.8379 86.1451 -0.636 -0.340 -0.693 168 199 227
24.7014 -2.8749 86.0864 0.023 -0.821 -0.571 151 182 204
26.3647 -2.6930 87.4171 -0.213 -0.538 -0.815 154 183 197
26.4262 -2.6514 87.6825 0.165 -0.077 -0.983 156 186 202
26.5994 -2.6552 87.6797 0.693 -0.331 -0.641 164 196 213
26.7358 -2.6441 87.7656 0.716 -0.531 -0.453 160 193 210
26.8267 -2.6140 87.9633 0.420 -0.298 -0.857 178 211 227
26.9747 -2.6074 88.0218 0.271 -0.059 -0.961 145 178 194
27.1494 -2.6120 88.0145 0.468 -0.074 -0.880 135 168 185
27.3020 -2.6075 88.0613 0.295 -0.146 -0.944 153 186 203
27.4610 -2.6057 88.0918 0.169 -0.138 -0.976 165 200 218
27.6291 -2.6077 88.0993 0.204 -0.156 -0.967 165 201 219
28.5011 -2.7032 87.6122 0.439 -0.462 -0.771 196 238 253
28.9003 -2.6662 87.8902 0.561 0.104 -0.821 147 188 205
29.4037 -2.6031 88.3427 0.333 -0.417 -0.846 105 143 164
29.6496 -2.5684 88.5881 0.845 -0.292 -0.448 194 233 248
29.7603 -2.5452 88.7451 0.450 -0.696 -0.560 123 161 181
29.9709 -2.5677 88.6312 -0.223 -0.681 -0.697 153 190 216
30.1320 -2.5677 88.6508 -0.201 -0.662 -0.722 151 188 218
33.2022 -2.0864 92.0104 0.499 -0.821 -0.277 178 194 209
33.3688 -2.0885 92.0173 0.358 -0.894 -0.268 174 185 201
33.5000 -2.0718 92.1369 0.358 -0.894 -0.268 162 169 186
33.6433 -2.0614 92.2186 0.176 -0.947 -0.267 126 131 150
33.7930 -2.0545 92.2797 0.147 -0.950 -0.275 98 105 124
33.9594 -2.0567 92.2861 0.179 -0.942 -0.284 100 111 129
34.0587 -2.0222 92.5122 0.266 -0.863 -0.430 87 106 121
34.2157 -2.0193 92.5496 0.405 -0.863 -0.303 97 122 134
34.3265 -1.9906 92.7407 0.535 -0.786 -0.310 132 160 170
34.5490 -1.9331 93.1248 0.764 -0.593 -0.254 128 160 169
34.6594 -1.9034 93.3224 0.683 -0.699 -0.214 115 148 156
33.5932 -1.2030 97.5412 0.370 0.460 -0.807 122 153 159
33.7362 -1.1872 97.6568 0.200 0.462 -0.864 142 171 176
38.2502 -1.6100 95.5787 -0.465 -0.579 -0.670 190 218 221
38.3847 -1.2550 97.7988 -0.249 0.367 -0.896 188 216 218
38.5288 -1.2400 97.9092 -0.267 0.316 -0.910 184 213 216
41.0181 -1.8718 94.2883 0.073 -0.820 -0.568 101 102 116
42.6365 -2.0402 93.4389 -0.425 -0.862 -0.278 112 131 138
-11.6792 -3.0247 79.7092 0.025 -0.993 0.116 119 165 187
-5.1291 -2.8943 81.3219 -0.158 -0.521 -0.839 168 219 247
-4.5897 -2.9669 80.9428 -0.141 -0.854 -0.500 169 219 244
-2.4634 -3.0965 80.4094 0.648 -0.286 -0.706 118 160 174
-2.3268 -3.0857 80.4931 0.667 -0.246 -0.703 82 124 138
-2.1055 -3.0930 80.4755 0.160 -0.631 -0.759 106 146 158
0.7711 -3.0725 80.9580 0.724 0.117 -0.680 155 190 218
1.0505 -3.0524 81.1162 0.682 0.088 -0.726 140 176 202
4.0707 -3.1619 80.8171 -0.163 -0.093 -0.982 169 202 219
4.2829 -3.1696 80.7961 -0.032 0.048 -0.998 174 206 224
4.5343 -3.1867 80.7219 0.102 -0.696 -0.710 166 199 216
4.7114 -3.1862 80.7469 0.102 -0.696 -0.710 153 185 204
4.8883 -3.1857 80.7719 0.102 -0.696 -0.710 144 175 195
5.1017 -3.1941 80.7471 0.095 -0.786 -0.610 141 172 192
4.7742 -3.0717 81.4589 0.089 -0.844 -0.528 141 170 188
6.9178 -3.2038 80.9122 0.043 -0.944 -0.326 182 214 229
7.0952 -3.2040 80.9329 0.053 -0.947 -0.316 186 219 230
7.2476 -3.1980 80.9887 0.092 -0.947 -0.309 194 228 239
8.2471 -3.1838 81.1997 0.094 -0.730 -0.677 200 238 245
8.4029 -3.1788 81.2499 0.249 -0.613 -0.750 198 236 245
11.2759 -2.9178 83.2099 0.210 -0.821 -0.531 198 235 246
11.4317 -2.9125 83.2615 0.256 -0.812 -0.525 194 231 245
11.6384 -2.9215 83.2323 0.293 -0.814 -0.502 190 227 242
11.7965 -2.9169 83.2797 0.263 -0.821 -0.507 181 219 234
12.4839 -2.9637 83.0775 0.372 0.279 -0.885 174 211 228
13.4915 -2.8552 83.8692 0.217 -0.605 -0.766 169 207 229
14.0070 -2.8542 83.9390 0.145 -0.638 -0.756 170 206 228
14.1741 -2.8526 83.9697 0.145 -0.638 -0.756 174 211 232
14.2760 -2.8316 84.1111 0.354 -0.639 -0.683 174 210 231
15.2531 -2.8148 84.3357 0.069 -0.318 -0.946 201 238 254
16.7441 -3.0630 82.9950 -0.149 -0.798 -0.585 190 231 247
16.3673 -2.8417 84.3085 -0.023 -0.545 -0.838 195 238 255
21.1772 -2.8775 84.6843 0.514 -0.593 -0.620 187 223 241
21.2815 -2.8562 84.8281 0.507 -0.574 -0.643 176 209 224
21.8874 -2.5381 86.8578 0.850 -0.345 -0.398 122 156 178
21.9805 -2.5109 87.0365 0.736 -0.286 -0.614 115 150 172
23.2932 -2.6261 86.4913 0.533 -0.673 -0.514 156 188 213
23.5789 -2.6090 86.6317 -0.111 -0.503 -0.857 118 149 177
24.0569 -2.6022 86.7329 0.366 -0.879 -0.305 115 147 172
24.7708 -2.7504 85.9102 0.023 -0.821 -0.571 164 195 215
24.8859 -2.7319 86.0385 0.372 -0.794 -0.481 194 222 243
25.0224 -2.7216 86.1189 0.363 -0.791 -0.492 91 119 140
25.1579 -2.7108 86.2017 0.363 -0.791 -0.492 62 90 112
26.5275 -2.5400 87.4209 0.591 -0.277 -0.757 159 189 205
26.6365 -2.5176 87.5726 0.741 -0.292 -0.605 168 200 219
26.7651 -2.5031 87.6773 0.705 -0.535 -0.465 162 195 214
26.8385 -2.4655 87.9176 0.420 -0.298 -0.857 172 205 224
26.9710 -2.4524 88.0143 0.279 -0.056 -0.959 163 196 215
27.1035 -2.4393 88.1116 0.618 0.107 -0.779 144 177 196
27.2919 -2.4498 88.0702 0.306 -0.162 -0.938 161 194 213
27.6151 -2.4484 88.1190 0.182 -0.130 -0.975 168 204 223
27.7789 -2.4487 88.1372 0.268 -0.207 -0.941 190 230 245
27.9940 -2.4713 88.0249 -0.225 0.051 -0.973 188 230 246
28.7254 -2.5077 87.8917 0.875 -0.436 -0.209 186 226 237
29.6546 -2.4173 88.5624 0.857 -0.198 -0.476 187 224 236
29.8051 -2.4123 88.6120 0.120 -0.411 -0.904 125 162 180
30.0033 -2.4294 88.5314 0.116 -0.436 -0.892 153 189 214
30.1546 -2.4249 88.5778 0.099 -0.424 -0.900 152 187 216
32.3077 -2.1387 90.6035 0.720 -0.562 -0.406 212 240 255
33.6829 -2.0127 91.5480 0.177 -0.972 -0.157 186 195 204
33.8116 -1.9950 91.6733 0.142 -0.983 -0.120 146 153 161
34.1954 -1.9395 92.0615 0.115 -0.968 -0.225 115 136 150
35.0057 -1.6607 93.8754 0.497 0.421 -0.759 118 149 162
35.1673 -1.6596 93.9020 0.560 0.341 -0.755 113 141 152
36.7575 -1.6373 94.2361 -0.075 0.327 -0.942 202 221 215
38.1769 -1.0588 97.9674 -0.318 0.250 -0.915 193 221 221
41.6170 -1.6878 94.5277 0.421 -0.904 -0.069 93 107 116
-6.0629 -2.8199 80.6423 0.620 -0.487 -0.616 168 217 250
-3.7999 -2.8952 80.4709 -0.048 -0.464 -0.884 160 205 227
-3.5694 -2.9041 80.4460 -0.388 -0.561 -0.731 150 194 213
-2.8407 -2.9795 80.0791 -0.095 -0.380 -0.920 140 182 195
-2.4401 -2.9853 80.0947 0.670 -0.290 -0.684 136 175 187
-2.3638 -2.9615 80.2494 0.672 -0.265 -0.691 96 135 147
-2.2521 -2.9452 80.3624 0.668 -0.256 -0.699 87 126 140
0.0331 -3.0816 79.8221 0.396 0.111 -0.912 115 147 182
0.2608 -3.0915 79.7903 0.509 -0.034 -0.860 126 159 191
0.8389 -3.0572 80.0725 0.491 -0.222 -0.843 140 171 195
1.1287 -3.0401 80.2131 0.687 -0.151 -0.711 138 170 192
1.2438 -3.0248 80.3211 0.687 -0.151 -0.711 135 168 186
1.3625 -3.0102 80.4249 0.639 -0.176 -0.749 137 170 188
1.4347 -2.9849 80.5880 0.089 0.283 -0.955 138 172 188
2.5948 -2.9582 80.8972 -0.149 0.130 -0.980 137 170 189
4.0230 -2.9969 80.8428 -0.173 -0.085 -0.981 133 167 175
4.2169 -3.0003 80.8466 -0.033 0.056 -0.998 134 168 178
4.8206 -3.0596 80.5620 -0.003 -0.777 -0.629 140 172 186
5.0178 -3.0642 80.5592 0.001 -0.791 -0.612 144 173 189
6.9204 -3.0967 80.6025 0.043 -0.944 -0.326 148 177 189
7.0958 -3.0966 80.6255 0.043 -0.944 -0.326 153 184 195
7.2749 -3.0974 80.6430 0.053 -0.947 -0.316 154 187 194
7.4308 -3.0924 80.6931 0.095 -0.947 -0.307 157 190 196
7.5956 -3.0897 80.7304 0.402 -0.517 -0.755 156 191 196
7.7346 -3.0805 80.8044 0.533 -0.505 -0.679 155 192 196
7.8619 -3.0682 80.8952 0.533 -0.505 -0.679 152 190 192
8.0014 -3.0590 80.9689 0.421 -0.521 -0.742 151 188 190
9.6814 -2.9958 81.5664 0.202 -0.203 -0.958 157 193 204
9.8539 -2.9953 81.5908 0.206 -0.211 -0.956 152 187 198
10.0516 -3.0018 81.5768 0.190 -0.227 -0.955 149 184 194
10.2393 -3.0055 81.5776 -0.036 -0.225 -0.974 151 185 195
10.4359 -3.0118 81.5642 -0.191 -0.035 -0.981 153 187 196
10.6073 -3.0113 81.5889 -0.136 -0.028 -0.990 159 193 202
10.7815 -3.0117 81.6089 0.101 -0.043 -0.994 165 199 206
10.9658 -3.0148 81.6131 0.124 -0.944 -0.305 170 204 210
11.1544 -3.0192 81.6103 0.096 -0.950 -0.296 167 202 209
11.3217 -3.0178 81.6398 0.024 -0.980 -0.197 164 198 203
11.3486 -2.7847 83.0619 0.293 -0.545 -0.786 180 214 220
11.5124 -2.7818 83.1006 0.341 -0.619 -0.707 187 221 232
11.7203 -2.7913 83.0690 0.293 -0.814 -0.502 195 229 241
11.8656 -2.7832 83.1367 0.233 -0.830 -0.507 196 230 243
11.9995 -2.7719 83.2225 0.060 -0.724 -0.687 197 231 244
12.1571 -2.7673 83.2705 0.006 -0.749 -0.663 202 236 248
12.3412 -2.7703 83.2756 0.006 -0.749 -0.663 207 241 253
14.3345 -2.6959 83.9807 0.381 -0.671 -0.636 182 217 234
14.4827 -2.6887 84.0434 0.455 -0.668 -0.588 172 208 224
14.6332 -2.6821 84.1020 0.500 -0.608 -0.617 166 202 216
14.7920 -2.6781 84.1465 0.430 -0.633 -0.644 187 223 237
14.9814 -2.6835 84.1380 0.323 -0.054 -0.945 189 224 238
15.1162 -2.6722 84.2235 0.041 -0.318 -0.947 189 223 236
16.2767 -2.6606 84.4410 0.352 0.420 -0.836 193 235 249
16.3994 -2.6456 84.5484 0.551 0.418 -0.723 194 236 251
17.1973 -2.8441 83.4412 0.625 -0.768 -0.141 196 238 254
16.6316 -2.6110 84.7880 0.333 0.308 -0.892 195 237 255
17.9361 -2.8660 83.4018 -0.247 -0.459 -0.854 194 236 254
18.1436 -2.8790 83.3487 -0.247 -0.459 -0.854 195 236 254
20.1716 -2.4915 85.9635 0.223 -0.785 -0.578 189 227 246
21.2070 -2.7372 84.5997 -0.420 -0.362 -0.832 188 223 240
21.7206 -2.3844 86.8114 0.859 0.263 -0.439 127 157 181
21.8097 -2.3556 86.9981 0.895 -0.050 -0.443 117 148 173
21.9636 -2.3504 87.0491 0.052 0.311 -0.949 106 138 164
23.2009 -2.5629 85.9128 0.231 -0.877 -0.421 120 150 178
23.3457 -2.5554 85.9766 0.231 -0.877 -0.421 197 227 252
23.7878 -2.5984 85.7713 0.239 -0.467 -0.851 110 140 164
24.0564 -2.5758 85.9426 0.474 -0.748 -0.465 119 149 177
24.1533 -2.5501 86.1116 0.491 -0.767 -0.413 121 151 177
24.1483 -2.4847 86.5085 0.370 -0.880 -0.299 116 146 171
24.8532 -2.6315 85.7046 0.097 -0.830 -0.549 176 204 225
26.6456 -2.3683 87.5335 0.718 -0.312 -0.623 164 196 215
26.9895 -2.3066 87.9523 0.448 -0.033 -0.893 163 194 214
28.5232 -2.4085 87.5267 0.599 -0.629 -0.495 189 228 244
29.4252 -2.3068 88.2600 0.169 -0.003 -0.986 108 144 165
29.5624 -2.2957 88.3444 0.243 0.049 -0.969 170 207 226
29.6778 -2.2746 88.4879 0.854 -0.233 -0.466 174 209 225
29.8372 -2.2738 88.5130 0.507 -0.415 -0.755 122 157 176
30.0283 -2.2878 88.4517 -0.061 0.111 -0.992 153 187 211
30.1744 -2.2809 88.5122 0.099 -0.424 -0.900 152 186 214
30.4249 -2.3234 88.2856 -0.146 0.121 -0.982 150 184 211
30.7557 -2.3286 88.2957 0.266 0.455 -0.850 111 146 170
31.1323 -2.2791 88.6448 0.049 -0.153 -0.987 169 204 223
32.4715 -2.1497 89.6013 -0.002 -0.051 -0.999 201 235 251
32.4853 -1.9911 90.5684 0.799 -0.419 -0.431 191 214 222
32.5266 -1.9285 90.9546 0.332 -0.840 -0.429 175 193 198
32.6161 -1.8906 91.1968 0.113 -0.902 -0.416 184 195 200
32.8055 -1.9050 91.1327 0.124 -0.896 -0.427 192 201 207
32.9132 -1.8763 91.3210 0.249 -0.903 -0.350 177 187 197
34.4322 -1.7327 92.3877 0.561 -0.776 -0.289 176 204 219
35.6252 -1.4797 94.0780 0.222 0.474 -0.852 114 140 142
35.7593 -1.4621 94.2020 0.139 0.459 -0.877 136 159 158
40.8874 -1.6898 93.4662 0.108 0.385 -0.917 82 94 106
41.4903 -1.2992 95.9192 0.463 0.560 -0.687 97 115 125
41.6166 -1.2726 96.0975 0.476 0.429 -0.767 104 123 130
54.7430 -1.8226 94.4132 0.859 -0.497 0.121 85 90 97
-3.9802 -2.7393 80.3945 0.778 -0.319 -0.541 151 197 220
-3.7669 -2.7446 80.3901 -0.048 -0.464 -0.884 151 194 214
-3.5420 -2.7525 80.3717 -0.366 -0.542 -0.757 152 194 212
-2.8212 -2.8273 80.0143 -0.095 -0.380 -0.920 152 189 203
-0.9703 -2.7428 80.7626 0.066 0.660 -0.749 143 174 197
0.2422 -2.9331 79.7730 0.509 -0.034 -0.860 140 171 194
0.4461 -2.8965 80.0201 0.094 -0.067 -0.993 139 169 190
0.6097 -2.8504 80.3190 0.207 -0.444 -0.872 139 169 187
0.7423 -2.8389 80.4057 0.437 -0.273 -0.857 138 168 185
0.9002 -2.8331 80.4609 0.415 -0.275 -0.867 140 171 186
1.5840 -2.8224 80.6140 0.287 -0.243 -0.927 142 173 181
3.5661 -2.8196 80.8872 -0.126 -0.296 -0.947 143 175 186
7.1163 -2.9947 80.2918 0.061 -0.943 -0.329 111 141 151
8.6279 -2.8882 81.1288 0.339 -0.582 -0.739 134 165 174
8.7589 -2.8767 81.2150 0.456 -0.489 -0.744 135 165 175
8.9028 -2.8686 81.2824 0.656 -0.362 -0.662 138 168 178
9.0674 -2.8660 81.3195 0.431 -0.455 -0.780 137 168 178
10.0526 -2.8504 81.5411 0.190 -0.227 -0.955 134 167 176
10.5861 -2.8542 81.5873 -0.136 -0.028 -0.990 127 160 167
12.0629 -2.9303 81.3200 -0.011 -0.976 -0.217 116 149 157
12.2415 -2.9325 81.3297 0.053 -0.977 -0.207 118 150 159
11.3614 -2.6350 83.0085 0.275 -0.508 -0.816 124 157 167
11.5413 -2.6366 83.0218 0.344 -0.609 -0.715 135 167 178
11.8005 -2.6610 82.9086 0.294 -0.806 -0.513 145 177 188
11.7848 -2.6069 83.2326 0.172 0.303 -0.937 150 182 193
14.3808 -2.5566 83.8712 0.271 -0.768 -0.581 204 238 244
14.5179 -2.5461 83.9526 0.424 -0.717 -0.553 193 228 236
14.6649 -2.5385 84.0172 0.489 -0.626 -0.607 187 221 230
14.8367 -2.5386 84.0392 0.430 -0.633 -0.644 189 222 232
14.9710 -2.5271 84.1256 0.323 -0.054 -0.945 195 227 237
15.1336 -2.5244 84.1631 0.048 -0.336 -0.940 197 230 239
16.1950 -2.4817 84.5576 0.350 0.406 -0.844 206 244 254
16.3498 -2.4766 84.6083 0.551 0.418 -0.723 205 243 254
16.4436 -2.4521 84.7683 0.713 0.299 -0.634 202 239 251
16.5993 -2.4472 84.8177 0.426 0.387 -0.818 203 239 253
17.9671 -2.7256 83.3174 -0.247 -0.459 -0.854 199 234 250
18.1744 -2.7388 83.2645 -0.247 -0.459 -0.854 198 233 247
19.9715 -2.7303 83.5482 -0.063 -0.030 -0.998 196 233 247
21.1184 -2.6134 84.4008 -0.001 -0.251 -0.968 190 227 245
21.3035 -2.6207 84.3812 -0.056 -0.167 -0.984 187 221 237
21.6849 -2.2171 86.8626 0.845 0.277 -0.457 121 149 175
21.7986 -2.1970 86.9981 0.297 0.444 -0.845 88 118 147
23.2813 -2.4414 85.7175 0.312 -0.799 -0.515 122 149 177
23.3978 -2.4232 85.8420 0.269 -0.854 -0.446 205 232 252
24.0658 -2.4278 85.9009 -0.145 -0.630 -0.763 122 149 176
24.2495 -2.4356 85.8775 -0.147 -0.670 -0.727 126 153 180
24.2544 -2.3736 86.2516 0.327 -0.884 -0.335 119 147 170
26.2572 -2.2576 87.2097 0.552 -0.115 -0.826 159 188 202
25.8961 -2.0379 88.4871 -0.403 -0.184 -0.896 164 193 207
26.6458 -2.2152 87.5157 0.719 -0.318 -0.618 160 191 209
26.7647 -2.1964 87.6444 0.719 -0.318 -0.618 175 206 224
26.7992 -2.1414 87.9800 0.112 -0.142 -0.984 167 198 216
29.2947 -2.1676 88.1452 -0.009 -0.639 -0.769 101 135 160
29.4388 -2.1598 88.2110 0.110 -0.036 -0.993 104 138 163
29.5707 -2.1462 88.3097 0.224 0.044 -0.974 149 183 206
29.7289 -2.1449 88.3382 0.726 -0.321 -0.608 140 172 193
29.8701 -2.1357 88.4121 0.673 -0.340 -0.657 109 141 162
30.0424 -2.1411 88.4017 -0.064 0.126 -0.990 133 165 189
30.4032 -2.1601 88.3341 -0.128 0.129 -0.983 149 184 206
32.5899 -1.8051 90.7557 0.794 -0.195 -0.576 183 197 201
32.7077 -1.7820 90.9102 0.794 -0.195 -0.576 187 194 198
32.9626 -1.8320 90.6423 -0.140 0.325 -0.935 190 194 201
32.9486 -1.7381 91.2062 0.794 -0.218 -0.568 183 190 201
33.2178 -1.7088 91.4174 0.315 -0.785 -0.533 183 200 217
34.7553 -1.6672 91.8674 0.787 -0.616 -0.023 198 233 248
35.2884 -1.4102 93.4844 0.383 -0.785 -0.487 191 229 248
35.0278 -0.5343 98.7287 0.165 0.184 -0.969 112 132 132
41.4885 -1.1336 95.9536 0.540 0.494 -0.681 104 122 132
41.6175 -1.1087 96.1202 0.304 0.328 -0.894 108 126 136
57.7706 -0.2861 103.1670 0.697 -0.638 -0.328 101 107 97
61.2491 -0.4479 102.6422 0.807 -0.591 0.002 83 96 87
-8.2555 -2.5644 79.8896 0.449 -0.233 -0.863 170 216 240
-6.1966 -2.5936 79.9869 -0.247 -0.630 -0.736 162 210 235
-5.8440 -2.6277 79.8304 -0.331 -0.568 -0.753 165 212 241
-4.0310 -2.6922 79.6849 0.104 0.026 -0.994 171 219 243
-3.8396 -2.6931 79.7049 0.104 0.026 -0.994 180 227 248
-4.0408 -2.6092 80.1791 0.830 -0.331 -0.450 180 226 248
-3.9616 -2.5855 80.3304 0.778 -0.319 -0.541 177 220 243
-3.7339 -2.5941 80.3093 -0.048 -0.464 -0.884 168 208 228
-3.4673 -2.6113 80.2421 -0.371 -0.528 -0.764 161 199 218
-2.8016 -2.6751 79.9494 -0.095 -0.380 -0.920 156 191 203
0.0157 -2.7687 79.7629 0.386 0.063 -0.920 132 164 178
0.1871 -2.7662 79.8007 0.494 -0.044 -0.868 136 165 182
2.0169 -2.8119 79.7696 -0.032 -0.201 -0.979 142 171 179
4.9389 -2.6946 80.8558 0.585 -0.547 -0.599 142 172 182
5.9339 -2.7213 80.8278 -0.058 -0.296 -0.953 142 172 180
6.0848 -2.7146 80.8874 -0.058 -0.295 -0.954 140 170 179
6.2087 -2.7011 80.9845 0.254 -0.375 -0.891 139 169 176
7.3760 -2.4503 82.6350 0.461 -0.721 -0.517 147 175 186
9.2001 -2.7029 81.3686 0.164 -0.202 -0.966 149 177 188
9.3461 -2.6954 81.4332 0.138 -0.189 -0.972 150 178 189
9.5153 -2.6941 81.4632 0.200 -0.219 -0.955 146 175 185
9.6814 -2.6920 81.4976 0.200 -0.219 -0.955 145 175 184
9.8487 -2.6903 81.5299 0.211 -0.204 -0.956 144 174 182
10.0483 -2.6974 81.5135 0.176 -0.206 -0.963 145 175 183
10.2405 -2.7027 81.5076 -0.036 -0.225 -0.974 150 180 188
10.3778 -2.6928 81.5846 -0.181 -0.017 -0.983 145 175 183
10.5694 -2.6980 81.5790 -0.116 -0.110 -0.987 138 168 176
11.8798 -2.5308 82.7497 0.294 -0.806 -0.513 145 178 188
12.0696 -2.4351 83.3459 0.075 0.233 -0.970 153 185 194
14.4659 -2.4295 83.6958 0.259 -0.773 -0.579 140 172 176
14.5765 -2.4108 83.8220 0.424 -0.717 -0.553 141 173 178
14.7099 -2.3991 83.9096 0.489 -0.626 -0.607 139 171 177
15.7253 -2.3418 84.3852 0.122 0.531 -0.839 125 156 164
15.8948 -2.3414 84.4101 0.122 0.531 -0.839 138 172 179
16.0257 -2.3287 84.5034 0.385 0.418 -0.823 150 184 191
16.1446 -2.3121 84.6183 0.350 0.406 -0.844 158 193 200
16.2750 -2.2991 84.7131 0.571 0.341 -0.747 162 197 205
16.4070 -2.2866 84.8051 0.713 0.299 -0.634 169 203 211
16.5525 -2.2784 84.8732 0.426 0.387 -0.818 180 212 220
17.8002 -2.5751 83.2676 -0.257 -0.449 -0.856 182 214 222
17.9961 -2.5846 83.2365 -0.246 -0.472 -0.847 212 242 248
18.1925 -2.5945 83.2036 -0.238 -0.470 -0.850 214 244 249
18.3529 -2.5926 83.2362 0.045 -0.809 -0.586 212 242 248
18.5534 -2.6040 83.1944 0.527 0.183 -0.830 209 239 245
18.6894 -2.5941 83.2718 0.538 0.186 -0.822 207 236 242
19.9600 -2.5765 83.5442 -0.063 -0.030 -0.998 197 234 244
21.1227 -2.4643 84.3676 0.336 0.017 -0.942 194 230 245
21.2607 -2.2147 85.8752 0.127 0.465 -0.876 169 196 214
23.3574 -2.3187 85.5315 0.452 -0.546 -0.705 128 156 182
23.4934 -2.3080 85.6134 0.447 -0.557 -0.700 198 226 249
23.6305 -2.2977 85.6929 0.447 -0.557 -0.700 107 135 157
23.8062 -2.3023 85.6884 0.234 -0.512 -0.827 80 108 131
23.9255 -2.2851 85.8071 -0.141 -0.632 -0.762 85 113 138
24.1104 -2.2935 85.7816 -0.145 -0.630 -0.763 99 126 153
24.4449 -2.2966 85.8069 0.356 -0.319 -0.878 98 126 150
24.5561 -2.2761 85.9440 0.872 -0.251 -0.420 121 149 169
29.4818 -2.0266 88.0838 0.156 -0.556 -0.816 105 136 163
29.6243 -2.0179 88.1540 0.178 -0.586 -0.791 174 205 232
29.7805 -2.0158 88.1872 0.653 -0.422 -0.629 161 193 216
29.9516 -2.0209 88.1797 0.642 -0.428 -0.636 97 129 152
30.2912 -2.0300 88.1699 -0.082 -0.619 -0.781 136 168 192
30.4586 -2.0336 88.1707 -0.163 -0.589 -0.791 140 172 194
30.6178 -2.0334 88.1932 0.369 -0.589 -0.719 136 168 189
31.0047 -1.9882 88.5137 0.854 -0.404 -0.329 166 199 218
32.6699 -2.4284 86.1069 -0.516 -0.652 -0.556 198 237 254
32.6488 -1.9336 89.0568 0.939 -0.339 0.054 195 231 244
32.6345 -1.6723 90.6141 0.799 -0.260 -0.543 223 233 239
32.7525 -1.6492 90.7674 0.787 -0.245 -0.566 233 235 242
32.9621 -1.6754 90.6389 -0.141 0.305 -0.942 225 226 232
33.1226 -1.6752 90.6609 -0.150 0.289 -0.945 204 209 218
33.4279 -1.6666 90.7527 -0.153 0.093 -0.984 189 206 217
33.6171 -1.6825 90.6826 0.022 -0.876 -0.483 167 181 193
35.5368 -1.4001 92.6213 0.467 -0.881 -0.078 192 234 250
36.3730 -1.1147 94.4350 0.531 0.203 -0.823 66 85 96
36.5158 -1.1019 94.5302 0.531 0.203 -0.823 87 104 115
36.6499 -1.0833 94.6587 0.529 0.191 -0.827 122 136 146
36.7987 -1.0742 94.7326 0.522 0.195 -0.830 157 172 179
40.0016 -1.6389 91.7867 0.981 -0.185 -0.057 193 223 213
41.4299 -0.9211 96.2580 0.522 0.563 -0.641 105 123 133
41.5681 -0.9031 96.3836 0.295 0.567 -0.770 109 127 137
57.6694 -0.3218 101.9792 0.864 0.085 -0.496 105 111 101
57.8193 -0.3134 102.0490 0.657 0.216 -0.722 103 109 99
57.9622 -0.2604 102.3842 0.479 0.226 -0.848 95 101 91
58.1090 -0.2282 102.5957 0.707 0.020 -0.707 97 103 93
-8.2086 -2.6873 78.1818 0.453 0.668 -0.591 158 204 230
-8.3759 -2.4590 79.5081 0.114 0.233 -0.966 150 196 220
-7.7457 -2.4703 79.5266 0.002 0.064 -0.998 161 208 228
-7.6995 -2.4402 79.7104 0.031 0.120 -0.992 163 210 228
-7.7715 -2.3855 80.0240 -0.106 -0.512 -0.852 164 211 227
-6.6608 -2.4576 79.7477 0.232 0.294 -0.927 155 201 219
-6.4082 -2.4707 79.7043 0.241 -0.657 -0.715 152 197 218
-6.2380 -2.4665 79.7520 0.116 -0.728 -0.676 156 202 224
-6.1401 -2.4470 79.8803 -0.227 -0.647 -0.728 160 207 229
-5.8080 -2.4772 79.7466 -0.343 -0.508 -0.790 168 213 235
-5.5656 -2.4885 79.7126 -0.267 -0.605 -0.750 177 220 240
-5.3638 -2.4913 79.7235 -0.177 -0.684 -0.708 182 222 241
-4.9863 -2.5317 79.5355 0.215 -0.158 -0.964 185 225 244
-4.7921 -2.5330 79.5540 0.450 -0.080 -0.889 189 228 245
-4.5614 -2.5422 79.5304 0.182 0.039 -0.982 191 231 246
-4.3742 -2.5422 79.5561 0.165 0.034 -0.986 191 230 243
-4.2306 -2.5327 79.6314 0.083 0.029 -0.996 184 222 235
-4.0923 -2.5220 79.7129 0.019 -0.209 -0.978 175 213 228
-3.8655 -2.5307 79.6925 0.072 0.018 -0.997 158 195 211
-3.7009 -2.4437 80.2285 -0.048 -0.464 -0.884 140 174 194
-3.3917 -2.4706 80.1116 -0.361 -0.549 -0.754 139 173 192
-2.7820 -2.5229 79.8845 -0.095 -0.380 -0.920 141 174 186
-1.6180 -2.3234 81.2199 0.042 0.648 -0.761 139 169 180
-0.9237 -2.4402 80.6238 0.013 0.615 -0.788 139 169 180
4.3378 -2.6574 80.0488 0.792 0.399 -0.463 137 169 182
4.4103 -2.4528 81.2675 -0.037 -0.728 -0.685 140 170 179
4.5809 -2.4507 81.3034 -0.038 -0.723 -0.690 140 170 178
5.2139 -2.5655 80.7103 0.410 0.093 -0.907 140 170 178
5.3998 -2.5676 80.7228 0.707 -0.391 -0.589 140 170 178
6.1929 -2.4521 81.5119 0.500 -0.514 -0.698 130 161 164
6.4467 -2.4720 81.4287 0.429 -0.612 -0.664 130 161 165
6.6621 -2.4820 81.3987 0.574 -0.566 -0.592 131 161 169
6.7598 -2.4612 81.5345 0.520 -0.562 -0.643 136 166 177
6.8883 -2.4485 81.6272 0.520 -0.562 -0.643 140 169 182
7.0111 -2.4342 81.7281 0.571 -0.585 -0.575 142 171 186
7.1700 -2.4294 81.7778 0.585 -0.561 -0.586 143 172 189
7.3086 -2.4193 81.8564 0.591 -0.551 -0.589 143 172 189
10.5071 -2.6730 80.7883 0.159 -0.697 -0.700 141 171 180
10.7371 -2.6414 81.0056 -0.326 -0.327 -0.887 143 173 182
11.5697 -2.3883 82.6138 0.140 -0.561 -0.816 146 176 186
11.7454 -2.3891 82.6327 0.160 -0.562 -0.812 146 176 184
11.9933 -2.4110 82.5366 0.260 -0.811 -0.524 146 177 182
12.4144 -2.3829 82.7593 0.055 -0.816 -0.576 149 178 185
12.3401 -2.2588 83.4830 0.166 0.249 -0.954 149 178 187
12.6146 -2.2372 83.6471 0.436 0.233 -0.869 149 177 188
14.1718 -2.2914 83.5370 0.043 -0.730 -0.682 150 176 182
14.3678 -2.2990 83.5182 0.039 -0.725 -0.687 146 174 182
14.5078 -2.2894 83.5938 0.259 -0.786 -0.562 147 173 180
15.7002 -2.5551 82.1842 0.509 -0.581 -0.635 146 173 178
15.2552 -2.2019 84.2116 0.129 0.135 -0.982 146 175 179
15.4266 -2.2020 84.2341 0.129 0.135 -0.982 148 178 184
17.8115 -2.4282 83.2191 -0.256 -0.431 -0.865 126 156 166
18.0185 -2.4416 83.1678 -0.238 -0.470 -0.850 130 158 168
18.2244 -2.4548 83.1173 -0.238 -0.470 -0.850 133 162 170
18.4285 -2.4676 83.0693 0.045 -0.809 -0.586 136 165 171
18.5219 -2.4433 83.2253 0.560 0.147 -0.815 140 171 176
18.6508 -2.4309 83.3162 0.560 0.147 -0.815 147 177 183
18.8087 -2.4282 83.3532 0.493 0.130 -0.860 157 188 192
18.9523 -2.4207 83.4169 0.493 0.112 -0.863 163 194 199
19.1025 -2.4155 83.4681 0.335 -0.018 -0.942 176 208 216
19.2441 -2.4073 83.5355 -0.042 -0.002 -0.999 186 219 228
19.9312 -2.4165 83.5736 0.158 -0.291 -0.944 212 246 253
20.0923 -2.4153 83.6027 0.161 -0.301 -0.940 210 244 251
21.1110 -2.3093 84.3662 0.336 0.017 -0.942 191 222 234
21.2897 -2.3144 84.3599 -0.022 -0.097 -0.995 182 212 223
21.4467 -2.3117 84.3970 0.241 0.130 -0.962 172 202 213
21.5923 -2.3049 84.4567 0.353 0.160 -0.922 197 225 235
21.2065 -2.0414 85.9619 0.134 0.449 -0.883 182 211 221
21.3793 -1.9816 86.3387 0.823 0.456 -0.340 105 133 145
22.9706 -2.2072 85.2201 0.382 0.098 -0.919 178 208 221
23.1159 -2.2001 85.2813 0.382 0.098 -0.919 160 188 203
23.2494 -2.1885 85.3678 0.464 -0.351 -0.813 157 184 201
23.4058 -2.1858 85.4053 0.382 -0.348 -0.856 156 183 204
23.5448 -2.1762 85.4803 0.386 -0.336 -0.859 170 196 218
23.6821 -2.1660 85.5593 0.390 -0.332 -0.859 119 147 169
23.8406 -2.1641 85.5918 0.276 -0.445 -0.852 110 138 162
24.0248 -2.1723 85.5680 0.030 -0.032 -0.999 106 133 159
24.1879 -2.1724 85.5898 0.164 -0.155 -0.974 101 128 155
24.3531 -2.1733 85.6065 0.214 0.051 -0.976 99 124 153
24.4353 -2.1412 85.8076 0.386 -0.335 -0.859 105 131 158
24.5769 -2.1326 85.8771 0.733 -0.004 -0.681 127 154 173
24.8704 -2.1196 85.9935 0.501 -0.107 -0.859 152 179 194
25.2289 -2.0666 86.3550 -0.082 -0.726 -0.682 92 119 138
25.4076 -2.0732 86.3405 -0.082 -0.726 -0.682 98 125 144
25.8841 -2.0686 86.4315 0.172 -0.769 -0.615 165 194 208
26.0011 -2.0496 86.5597 -0.006 -0.770 -0.638 164 193 207
25.9738 -1.9004 87.4375 -0.007 -0.992 -0.129 162 191 205
28.3502 -2.0182 87.0618 -0.427 -0.449 -0.785 197 234 252
29.7645 -1.9312 87.7663 0.134 -0.934 -0.332 169 201 225
30.0321 -1.9062 87.9502 0.478 -0.858 -0.188 109 141 164
30.0398 -1.8327 88.3854 0.217 -0.492 -0.843 117 149 172
30.9787 -1.9011 88.1081 0.499 -0.843 -0.202 172 204 225
31.0771 -1.8708 88.3001 0.482 -0.846 -0.227 140 172 193
32.6475 -2.2682 86.1632 -0.235 -0.584 -0.777 198 237 253
32.7818 -1.5083 90.6719 0.765 -0.429 -0.480 237 241 246
33.2891 -1.5220 90.6591 -0.540 -0.146 -0.829 234 249 254
33.7607 -1.6063 90.2245 0.121 -0.919 -0.376 171 187 195
35.5572 -1.2534 92.5523 0.322 -0.815 -0.482 191 234 250
36.9569 -0.9084 94.7793 0.584 -0.107 -0.805 77 91 102
37.1029 -0.8973 94.8645 0.487 -0.699 -0.523 110 126 134
37.2596 -0.8934 94.9089 0.285 -0.796 -0.533 157 173 180
38.8151 -0.7304 96.0821 -0.588 -0.791 -0.171 197 223 209
41.6963 -0.7107 96.5862 0.358 0.552 -0.753 109 127 137
57.6842 -0.1513 102.0465 0.733 -0.677 -0.068 92 97 90
58.4226 -0.0117 102.9706 0.404 -0.796 -0.450 109 115 105
58.5691 0.0352 103.2678 0.396 -0.807 -0.438 97 103 91
59.1741 0.0853 103.6451 0.132 -0.911 -0.391 87 93 80
59.3241 0.1180 103.8589 0.379 -0.915 -0.139 99 105 93
60.5409 0.5670 106.6758 0.249 -0.966 -0.067 127 137 129
60.8534 0.6404 107.1515 0.327 -0.939 -0.109 112 121 116
61.8061 0.8965 108.7933 0.663 -0.739 -0.121 104 122 110
61.9695 0.9677 109.2361 0.665 -0.738 -0.115 98 115 105
-8.6552 -2.6319 77.4817 0.776 0.174 -0.606 163 209 235
-8.5357 -2.6178 77.5804 0.823 0.115 -0.557 123 169 195
-7.7312 -2.3542 79.2336 0.231 0.452 -0.862 157 204 222
-7.8019 -2.2996 79.5433 0.381 0.423 -0.823 156 202 219
-8.1331 -2.1903 80.1377 0.024 -0.767 -0.641 157 203 218
-7.7244 -2.2357 79.9282 -0.106 -0.512 -0.852 158 205 217
-7.2525 -2.2947 79.6478 -0.197 0.092 -0.976 157 203 215
-7.0225 -2.3030 79.6308 -0.117 0.010 -0.993 156 200 212
-6.3461 -2.3255 79.5918 0.241 -0.657 -0.715 163 208 220
-6.1549 -2.3259 79.6160 0.143 -0.722 -0.677 170 215 229
-6.0420 -2.3095 79.7273 -0.227 -0.647 -0.728 181 226 240
-5.7479 -2.3320 79.6360 -0.335 -0.513 -0.790 184 227 242
-5.4763 -2.3498 79.5690 -0.267 -0.605 -0.750 175 217 229
-5.2630 -2.3552 79.5668 -0.177 -0.684 -0.708 163 203 214
-4.9986 -2.3717 79.5065 0.215 -0.158 -0.964 151 189 199
-4.8095 -2.3720 79.5308 0.450 -0.080 -0.889 144 179 190
-4.5918 -2.3786 79.5222 0.175 0.046 -0.983 138 173 184
-4.4112 -2.3771 79.5557 0.165 0.034 -0.986 130 164 174
-4.2679 -2.3675 79.6315 0.081 0.026 -0.996 130 164 174
-4.1109 -2.3609 79.6917 0.023 -0.207 -0.978 130 164 176
-3.9026 -2.3656 79.6928 0.072 0.018 -0.997 140 173 188
-3.3461 -2.3234 80.0162 -0.431 -0.340 -0.836 137 170 187
-2.3517 -2.3378 80.0685 0.490 -0.269 -0.829 145 175 185
-1.9191 -2.3939 79.7996 0.577 -0.567 -0.588 144 174 184
-1.7404 -2.3926 79.8319 0.538 -0.632 -0.557 141 171 181
-1.7827 -2.3409 80.1288 0.492 -0.610 -0.621 138 168 178
2.8580 -2.3592 80.6585 0.301 -0.845 -0.442 135 168 175
4.4695 -2.5376 79.8362 -0.051 0.421 -0.906 137 170 180
5.9836 -2.4280 80.6854 0.441 0.480 -0.758 139 168 174
5.8753 -2.3540 81.1036 0.462 -0.528 -0.712 136 165 171
6.2250 -2.3528 81.1586 -0.035 -0.520 -0.853 132 162 165
6.4225 -2.3583 81.1538 -0.035 -0.520 -0.853 132 161 166
8.4406 -2.3337 81.5747 0.296 -0.752 -0.589 147 177 187
12.1513 -2.6028 80.5091 -0.108 -0.859 -0.501 144 172 184
11.7518 -2.2380 82.5896 0.310 -0.869 -0.386 147 178 182
11.7618 -2.1901 82.8712 -0.220 -0.506 -0.834 147 178 184
13.3107 -2.2417 82.7821 0.220 -0.871 -0.440 148 178 184
13.4575 -2.2343 82.8455 0.198 -0.843 -0.500 147 177 183
14.9296 -2.4780 81.6211 -0.124 -0.927 -0.353 149 176 183
15.4687 -2.4897 81.6267 0.029 -0.883 -0.469 146 175 183
15.7245 -2.4653 81.8047 0.065 -0.864 -0.499 148 173 178
15.9374 -2.4272 82.0573 0.451 -0.655 -0.607 144 173 182
15.2147 -2.1442 83.6142 0.254 -0.799 -0.544 144 174 183
15.3344 -2.1281 83.7248 0.113 -0.699 -0.706 144 173 181
18.0439 -2.2996 83.0935 -0.231 -0.481 -0.846 144 173 179
18.2488 -2.3127 83.0449 -0.231 -0.481 -0.846 142 172 175
18.5186 -2.3479 82.8759 0.051 -0.837 -0.544 143 172 175
18.9325 -2.2634 83.4270 0.488 0.105 -0.867 141 170 174
19.0918 -2.2613 83.4614 0.335 -0.018 -0.942 137 167 175
19.2298 -2.2518 83.5358 -0.042 -0.002 -0.999 131 162 171
19.3991 -2.2532 83.5510 -0.038 -0.018 -0.999 124 155 166
19.5797 -2.2586 83.5442 -0.038 -0.018 -0.999 116 148 157
19.7747 -2.2691 83.5093 0.135 -0.329 -0.935 114 146 155
19.9404 -2.2695 83.5299 0.158 -0.291 -0.944 123 155 162
20.1024 -2.2686 83.5575 0.161 -0.301 -0.940 137 169 176
20.2642 -2.2677 83.5849 0.161 -0.301 -0.940 148 178 188
20.3117 -2.2261 83.8350 0.583 0.307 -0.752 164 194 204
20.4366 -2.2119 83.9350 0.674 0.299 -0.675 171 201 212
20.5650 -2.1989 84.0288 0.701 0.290 -0.651 181 211 222
20.6883 -2.1840 84.1328 0.593 0.308 -0.744 187 217 228
20.8149 -2.1703 84.2307 0.376 0.023 -0.926 190 220 230
20.9446 -2.1576 84.3227 0.437 -0.215 -0.874 189 219 229
21.0994 -2.1540 84.3649 0.336 0.017 -0.942 187 217 227
21.2849 -2.1618 84.3451 -0.022 -0.097 -0.995 180 210 219
21.4339 -2.1562 84.3984 0.309 0.107 -0.945 149 179 190
21.5708 -2.1461 84.4760 0.353 0.160 -0.922 126 154 165
21.4318 -1.7206 86.9470 0.751 0.513 -0.415 150 179 187
22.9429 -2.0450 85.2564 0.379 0.101 -0.920 198 228 238
23.0886 -2.0380 85.3172 0.379 0.101 -0.920 195 225 235
23.2487 -2.0366 85.3473 0.362 -0.193 -0.912 207 235 247
23.4058 -2.0341 85.3835 0.304 -0.138 -0.943 213 243 252
23.5520 -2.0274 85.4430 0.329 -0.158 -0.931 213 243 253
23.6948 -2.0193 85.5100 0.324 -0.213 -0.922 197 226 235
23.8606 -2.0203 85.5267 0.215 -0.155 -0.964 181 210 223
24.0332 -2.0241 85.5282 0.205 0.061 -0.977 166 195 210
24.1819 -2.0184 85.5820 0.071 -0.039 -0.997 156 184 201
24.3245 -2.0103 85.6490 0.226 0.056 -0.972 135 164 181
24.4489 -1.9948 85.7566 0.386 -0.335 -0.859 129 157 174
24.5868 -1.9847 85.8347 0.726 0.009 -0.688 140 168 183
24.7502 -1.9850 85.8555 0.730 0.033 -0.683 184 212 226
24.8789 -1.9711 85.9543 0.513 -0.101 -0.852 132 160 174
24.9820 -1.9467 86.1115 0.100 -0.420 -0.902 76 104 118
25.1312 -1.9411 86.1645 -0.018 -0.435 -0.900 74 101 118
25.2807 -1.9357 86.2169 0.075 -0.388 -0.919 81 108 125
25.4742 -1.9486 86.1679 0.128 -0.142 -0.982 90 117 134
25.6142 -1.9393 86.2415 0.175 -0.610 -0.773 91 118 135
25.7769 -1.9395 86.2627 0.175 -0.587 -0.791 135 164 178
25.9185 -1.9309 86.3326 0.073 -0.675 -0.734 170 199 213
26.0496 -1.9178 86.4273 0.052 -0.693 -0.719 166 195 209
26.1660 -1.8983 86.5571 0.082 -0.756 -0.649 151 180 194
26.3599 -1.9120 86.5037 0.280 -0.752 -0.597 160 189 203
26.5277 -1.9146 86.5117 0.350 -0.785 -0.511 164 193 207
26.9318 -1.8796 86.7720 -0.340 -0.729 -0.594 159 190 207
27.1006 -1.8116 87.1930 0.108 -0.951 -0.289 169 200 218
28.9431 -1.8438 87.2577 0.510 -0.767 -0.390 131 167 184
29.0676 -1.8272 87.3720 0.453 -0.814 -0.364 142 177 195
30.0540 -1.6858 88.3351 0.316 -0.835 -0.451 120 152 177
32.8645 -1.6564 88.8932 0.774 -0.623 0.110 204 229 239
32.8619 -1.5694 89.4022 0.774 -0.623 0.110 172 189 196
32.8395 -1.3831 90.4894 0.739 -0.512 -0.438 175 180 186
32.9315 -1.3452 90.7235 -0.138 0.303 -0.943 184 190 196
33.3014 -1.3722 90.6163 -0.541 -0.154 -0.827 226 243 249
36.5358 -1.5061 90.2773 0.086 -0.992 0.096 192 228 244
37.4608 -0.7566 94.7907 0.291 -0.817 -0.498 70 86 97
37.5834 -0.7294 94.9666 0.515 -0.756 -0.404 107 125 134
39.9278 -1.1535 92.8063 -0.407 -0.279 -0.870 193 224 215
40.5893 -1.0612 93.4378 0.735 -0.377 -0.564 90 97 109
40.7556 -1.0687 93.4164 -0.041 -0.078 -0.996 96 94 116
41.2741 -0.4599 97.0508 0.961 0.042 -0.274 99 115 129
41.3909 -0.4224 97.2864 -0.563 -0.353 -0.747 102 119 129
41.5838 -0.3108 97.9660 0.872 -0.378 -0.311 103 121 131
57.7079 -0.0318 101.8138 0.797 -0.599 -0.077 95 100 93
57.8548 -0.0053 101.9886 0.817 -0.562 -0.127 111 116 109
58.1380 0.1283 102.8097 -0.302 -0.861 -0.408 119 125 115
58.2849 0.1689 103.0676 -0.116 -0.795 -0.595 117 123 113
58.4375 0.1685 103.0860 -0.140 -0.787 -0.601 117 123 113
58.5909 0.1606 103.0607 -0.140 -0.787 -0.601 94 100 90
58.7427 0.1644 103.1040 0.588 -0.735 -0.337 92 98 86
59.1957 0.2024 103.3887 0.365 -0.732 -0.575 92 98 84
59.3483 0.1962 103.3734 0.381 -0.742 -0.551 98 104 92
59.4958 0.2655 103.7988 0.674 -0.706 -0.219 107 114 103
59.6462 0.3029 104.0385 0.699 -0.698 -0.155 111 122 113
59.7967 0.3517 104.3446 0.733 -0.669 -0.123 125 136 128
60.0993 0.4708 105.0836 0.694 -0.705 -0.150 105 116 108
61.0271 0.7285 106.7193 0.284 -0.954 -0.093 73 83 75
61.1844 0.7841 107.0662 0.319 -0.943 -0.090 89 101 91
61.6591 0.9112 107.8753 0.658 -0.733 -0.171 113 127 114
61.8193 0.9620 108.1947 0.650 -0.744 -0.154 101 117 103
61.9817 1.0315 108.6237 0.719 -0.680 -0.144 104 119 107
62.1463 1.1129 109.1229 0.707 -0.678 -0.201 116 130 119
62.3109 1.1815 109.5469 0.802 -0.508 -0.315 116 133 123
62.4750 1.2345 109.8794 0.802 -0.508 -0.315 119 138 128
62.6365 1.2589 110.0447 0.777 -0.574 -0.258 116 135 124
-11.5111 -2.3243 77.9149 0.545 -0.558 -0.626 131 177 192
-10.9361 -2.4000 77.5566 -0.096 -0.746 -0.659 130 173 190
-10.5528 -2.3999 77.6103 -0.196 -0.703 -0.684 127 172 193
-9.8772 -2.4204 77.5862 0.120 -0.845 -0.521 155 202 228
-8.0196 -2.0541 79.9697 -0.017 -0.844 -0.535 173 217 227
-7.6773 -2.0860 79.8325 -0.106 -0.512 -0.852 179 222 232
-7.2830 -2.1292 79.6370 -0.149 0.011 -0.989 187 231 239
-7.0593 -2.1363 79.6271 -0.130 -0.022 -0.991 187 230 239
-6.9221 -2.1250 79.7121 0.113 0.032 -0.993 175 217 227
-6.7949 -2.1115 79.8082 0.220 0.294 -0.930 161 203 212
-6.2841 -2.1805 79.4795 0.241 -0.657 -0.715 148 190 202
-6.0823 -2.1833 79.4917 0.085 -0.751 -0.655 136 178 189
-5.9518 -2.1707 79.5831 -0.247 -0.604 -0.757 130 171 185
-5.6769 -2.1894 79.5132 -0.335 -0.513 -0.790 128 169 181
-5.3969 -2.2093 79.4367 -0.270 -0.609 -0.746 127 167 179
-5.1601 -2.2200 79.4079 -0.168 -0.675 -0.718 127 165 176
-5.0109 -2.2116 79.4775 0.215 -0.158 -0.964 130 166 176
-3.3919 -2.1558 80.0274 -0.226 -0.570 -0.790 141 175 188
-3.1775 -2.1621 80.0207 -0.401 -0.441 -0.803 142 174 187
-0.0762 -2.3257 79.5064 0.186 -0.701 -0.688 139 170 176
0.0918 -2.3225 79.5485 0.186 -0.701 -0.688 141 171 178
0.2897 -2.3263 79.5537 0.185 -0.702 -0.687 141 171 179
0.4576 -2.3232 79.5957 0.185 -0.702 -0.687 141 171 179
2.4099 -2.4031 79.4052 0.061 -0.573 -0.818 135 165 175
4.2689 -2.2893 80.3252 0.253 0.616 -0.746 139 169 174
4.6455 -2.2947 80.3463 0.171 0.583 -0.794 143 174 178
4.8130 -2.2922 80.3843 0.171 0.583 -0.794 145 176 179
4.9653 -2.2858 80.4426 0.176 0.581 -0.794 144 175 179
5.1634 -2.2912 80.4390 0.179 0.577 -0.797 145 174 178
5.3140 -2.2386 80.7652 0.349 -0.639 -0.685 149 178 182
5.4727 -2.2338 80.8152 0.478 -0.693 -0.539 147 176 179
5.5852 -2.2170 80.9286 0.462 -0.694 -0.551 146 175 180
5.7598 -2.2163 80.9569 0.325 -0.719 -0.615 146 175 183
6.0306 -2.2410 80.8517 0.164 -0.493 -0.854 138 167 174
6.5811 -2.1999 81.1669 0.274 -0.099 -0.957 133 160 172
6.7085 -2.1868 81.2603 0.359 -0.201 -0.911 135 163 175
6.8744 -2.1841 81.2997 0.292 -0.331 -0.897 134 164 176
9.3254 -2.3294 80.8002 0.162 -0.872 -0.461 145 177 189
9.4987 -2.3296 80.8231 -0.015 -0.824 -0.567 144 176 189
11.5361 -2.3237 81.1420 0.066 -0.910 -0.410 142 172 186
11.7183 -2.1261 82.3135 -0.402 -0.425 -0.811 147 178 183
12.3052 -2.0960 82.5699 -0.030 -0.098 -0.995 148 179 186
15.8016 -2.3402 81.6434 0.079 -0.969 -0.234 146 173 180
16.0646 -2.1021 83.0607 0.528 -0.843 -0.099 143 169 182
17.1306 -2.0099 83.7438 -0.044 -0.968 -0.248 144 174 184
18.0693 -2.2693 82.3713 -0.111 -0.952 -0.286 144 174 183
17.7904 -2.1194 83.2014 -0.188 -0.510 -0.839 147 176 185
17.9902 -2.1308 83.1635 -0.188 -0.510 -0.839 146 175 183
18.2355 -2.1578 83.0415 -0.192 -0.464 -0.865 144 173 179
18.5917 -2.2229 82.7137 0.026 -0.887 -0.461 145 174 179
18.9136 -2.1062 83.4354 0.488 0.105 -0.867 143 172 176
19.5554 -2.0995 83.5641 -0.044 -0.013 -0.999 143 172 183
19.7774 -2.1197 83.4780 0.108 -0.320 -0.941 143 171 182
19.9507 -2.1228 83.4840 0.163 -0.319 -0.933 141 168 179
20.1124 -2.1218 83.5122 0.161 -0.301 -0.940 137 166 174
20.1506 -2.0766 83.7796 0.557 0.253 -0.791 135 164 172
21.2801 -2.0089 84.3302 -0.022 -0.097 -0.995 116 145 154
21.4159 -1.9984 84.4104 0.309 0.107 -0.945 124 153 160
22.9012 -1.8769 85.3221 0.443 0.169 -0.881 132 163 169
23.0508 -1.8714 85.3753 0.380 0.093 -0.920 136 166 174
23.2321 -1.8783 85.3606 0.265 -0.155 -0.952 142 172 180
23.3865 -1.8747 85.4030 0.265 -0.155 -0.952 149 180 185
23.5359 -1.8692 85.4559 0.301 -0.156 -0.941 162 193 198
24.1555 -1.8560 85.6190 0.254 0.075 -0.964 196 226 235
24.2996 -1.8484 85.6833 0.245 0.068 -0.967 211 241 248
24.4687 -1.8510 85.6918 0.377 -0.341 -0.861 212 242 250
24.5743 -1.8276 85.8421 0.721 0.020 -0.692 208 236 246
24.7418 -1.8296 85.8540 0.730 0.033 -0.683 198 226 238
24.8781 -1.8188 85.9358 0.513 -0.101 -0.852 179 207 220
25.2929 -1.7885 86.1694 0.226 -0.150 -0.963 142 170 184
25.4753 -1.7969 86.1460 0.128 -0.142 -0.982 121 149 163
25.6388 -1.7975 86.1656 0.167 -0.580 -0.797 112 140 154
25.9522 -1.7930 86.2353 0.130 -0.446 -0.886 156 185 199
26.1190 -1.7952 86.2460 0.083 0.001 -0.997 154 183 197
26.2445 -1.7797 86.3537 0.321 -0.436 -0.841 155 184 198
26.4244 -1.7876 86.3330 0.469 -0.378 -0.798 163 192 206
27.2446 -1.7942 86.4094 -0.422 -0.623 -0.659 179 210 230
27.5817 -1.7293 86.8326 0.148 -0.952 -0.269 171 202 222
27.5169 -1.6273 87.4150 0.141 -0.985 -0.097 157 188 208
28.4124 -1.6681 87.3038 0.400 -0.131 -0.907 190 227 244
29.1095 -1.6184 87.6896 -0.242 -0.069 -0.968 115 150 173
29.7724 -1.6291 87.7203 0.093 -0.078 -0.993 174 206 231
30.0610 -1.5353 88.3044 0.413 -0.563 -0.716 118 150 174
32.5847 -2.0175 85.8621 0.305 -0.499 -0.811 198 236 253
35.9702 -1.6728 88.3340 0.554 -0.830 0.062 197 236 253
37.9069 -0.5652 95.0258 0.753 -0.268 -0.601 104 125 139
39.6989 -0.9399 93.1043 -0.406 -0.196 -0.893 194 222 221
40.2405 -0.9940 92.8661 0.127 0.291 -0.948 150 172 169
40.3968 -0.9942 92.8870 0.127 0.291 -0.948 62 79 80
40.6432 -0.9428 93.2193 0.717 -0.405 -0.568 91 97 108
40.7836 -0.9303 93.3115 0.462 -0.505 -0.729 92 92 110
41.4274 -0.2856 97.1391 -0.467 -0.356 -0.810 86 103 113
41.6215 -0.3137 97.0036 -0.463 -0.367 -0.807 100 118 128
57.7276 0.1104 101.7150 0.831 -0.550 -0.089 95 102 94
57.8686 0.1734 102.0999 0.829 -0.552 -0.094 115 122 114
58.0132 0.2200 102.3904 0.846 -0.388 -0.367 132 139 131
58.6107 0.3012 102.9444 0.347 -0.367 -0.863 108 116 105
59.5171 0.3763 103.5066 0.674 -0.706 -0.219 103 111 99
59.6676 0.4073 103.7078 0.696 -0.689 -0.202 108 119 110
59.8183 0.4412 103.9250 0.723 -0.677 -0.138 116 127 119
59.9684 0.5082 104.3349 0.739 -0.659 -0.137 95 106 98
60.1198 0.5646 104.6827 0.728 -0.668 -0.152 94 105 97
60.2713 0.6709 105.3199 0.727 -0.674 -0.129 103 114 106
60.4260 0.5964 104.9101 0.568 -0.806 -0.166 107 118 110
60.5794 0.6845 105.4420 0.320 -0.947 -0.038 103 113 105
60.7337 0.7228 105.6859 0.325 -0.945 -0.036 110 120 112
61.0443 0.8077 106.2211 0.316 -0.944 -0.095 62 72 64
61.6757 1.0193 107.5363 0.754 -0.607 -0.251 101 114 98
61.9950 1.1097 108.1053 0.726 -0.669 -0.161 99 111 96
62.1615 1.2204 108.7700 0.653 -0.732 -0.194 105 117 103
62.3233 1.2639 109.0447 0.644 -0.740 -0.195 97 111 100
62.4868 1.3177 109.3799 0.644 -0.740 -0.195 98 114 104
62.6508 1.3688 109.6991 0.732 -0.659 -0.174 98 112 103
-22.0603 -1.4555 80.4439 -0.282 -0.911 -0.301 148 190 202
-12.2168 -2.2927 77.0380 0.455 -0.762 -0.460 143 194 211
-10.3230 -2.2885 77.3318 0.105 -0.638 -0.763 128 174 192
-8.5862 -1.9771 79.3672 0.139 0.766 -0.628 162 204 224
-8.5312 -1.9482 79.5408 -0.031 -0.328 -0.944 177 219 237
-8.0573 -1.9269 79.7310 0.057 -0.793 -0.607 166 208 216
-7.8702 -1.9260 79.7629 -0.017 -0.844 -0.535 155 197 204
-7.6303 -1.9364 79.7368 -0.106 -0.512 -0.852 144 184 192
-7.3191 -1.9624 79.6323 -0.143 0.015 -0.990 133 173 181
-7.1011 -1.9683 79.6289 -0.130 -0.022 -0.991 133 172 181
-6.9836 -1.9527 79.7357 0.109 0.026 -0.994 133 172 181
-6.2190 -2.0364 79.3637 0.255 -0.672 -0.695 130 168 181
-6.0015 -2.0427 79.3584 0.144 -0.715 -0.684 131 168 184
