ply
format ascii 1.0
element vertex 869
property float x
property float y
property float z
property float nx
property float ny
property float nz
property uchar diffuse_red
property uchar diffuse_green
property uchar diffuse_blue
end_header
4.6905 27.6040 61.4876 0.227 -0.226 -0.947 95 82 76
4.8632 27.6291 61.5587 0.130 -0.257 -0.958 98 85 77
5.0158 27.6183 61.5772 -0.175 -0.411 -0.895 84 70 61
5.1437 27.5642 61.5319 -0.225 -0.434 -0.872 85 68 58
5.5591 27.4582 61.4789 -0.253 -0.279 -0.927 119 102 92
5.6962 27.4206 61.4579 -0.248 -0.268 -0.931 118 101 91
9.9605 26.7759 61.5109 -0.315 -0.411 -0.855 107 97 82
10.2713 26.9855 61.8602 0.104 -0.391 -0.915 102 93 78
13.9601 26.5707 62.0986 -0.578 0.044 -0.815 105 96 81
21.3536 26.4673 63.5565 -0.526 -0.646 -0.554 140 136 117
21.4696 26.4021 63.4938 -0.510 -0.658 -0.554 136 132 113
23.1808 26.3061 63.7341 -0.352 -0.757 -0.550 133 128 108
27.4486 26.1467 64.4413 0.054 -0.266 -0.962 128 121 103
27.6109 26.1237 64.4455 0.040 -0.278 -0.960 131 126 107
29.6728 26.1011 64.8605 -0.226 -0.731 -0.644 141 136 114
32.6176 26.6086 66.1800 -0.223 -0.762 -0.608 135 132 113
32.7195 26.5313 66.0979 -0.029 -0.676 -0.736 132 129 110
38.2774 27.8494 69.0735 0.636 -0.033 -0.771 54 59 37
38.7080 28.0150 69.3895 0.603 -0.072 -0.794 50 53 33
-40.5579 46.2500 76.5385 -0.653 -0.024 -0.757 117 146 144
-27.1110 37.3479 67.4850 -0.478 -0.471 -0.742 74 83 72
-26.9582 37.2852 67.4337 -0.430 -0.472 -0.770 73 82 71
-26.6136 36.8496 66.9233 -0.157 0.184 -0.970 82 92 80
-25.8621 36.5724 66.7129 0.008 -0.106 -0.994 58 75 56
-22.8324 34.5028 64.5874 -0.159 -0.321 -0.934 59 62 51
-21.9980 34.9218 65.3289 -0.016 -0.140 -0.990 60 63 57
-21.8540 34.9164 65.3528 -0.091 -0.137 -0.986 71 74 67
-21.7080 34.8596 65.3079 0.123 -0.117 -0.986 78 81 75
-21.5648 34.8815 65.3681 -0.334 -0.089 -0.938 90 92 87
-21.4190 34.8288 65.3287 -0.347 -0.086 -0.934 97 99 94
-21.2737 34.7878 65.3049 -0.346 -0.101 -0.933 75 78 71
-21.1267 34.6788 65.1902 -0.395 -0.068 -0.916 54 54 46
-20.9815 34.6293 65.1551 -0.510 -0.115 -0.853 57 54 45
-17.2473 33.2467 64.1027 -0.206 -0.570 -0.795 69 65 54
-17.1032 33.2330 64.1153 -0.317 -0.603 -0.733 74 72 59
-16.9607 33.1904 64.0887 -0.317 -0.603 -0.733 77 79 63
-16.8189 33.1369 64.0475 -0.290 -0.575 -0.765 73 77 58
-16.6798 33.0448 63.9539 -0.202 -0.562 -0.802 73 78 56
-16.5361 33.0251 63.9583 -0.215 -0.563 -0.798 71 79 56
-15.5583 32.5512 63.5326 0.138 -0.453 -0.881 70 72 51
-15.4163 32.5187 63.5196 0.155 -0.444 -0.882 63 65 44
-15.2714 32.5156 63.5465 0.155 -0.444 -0.882 68 69 51
-14.4528 32.0205 63.0582 -0.105 -0.432 -0.896 85 80 60
-12.8263 31.1841 62.2857 -0.354 -0.601 -0.717 87 86 66
-11.6453 31.2918 62.6840 0.204 0.055 -0.977 83 73 63
-10.1193 30.8330 62.3964 -0.382 -0.411 -0.828 84 74 65
-9.9848 30.7729 62.3448 -0.383 -0.418 -0.824 88 78 69
-9.8439 30.7441 62.3363 -0.339 -0.359 -0.870 86 76 67
-9.7106 30.6800 62.2791 -0.331 -0.378 -0.865 86 76 67
-9.5741 30.6318 62.2436 -0.221 -0.551 -0.805 87 76 67
-9.4344 30.5980 62.2283 -0.221 -0.551 -0.805 84 71 62
-9.0012 30.5574 62.2670 0.332 -0.434 -0.838 90 71 64
-8.8567 30.5434 62.2794 0.359 -0.445 -0.820 89 70 63
-6.2610 29.2130 61.0523 -0.283 -0.400 -0.872 84 70 61
-6.1309 29.1554 61.0030 -0.077 -0.307 -0.949 83 69 60
-5.9878 29.1408 61.0142 0.108 -0.262 -0.959 81 67 58
-1.4983 28.3250 60.8845 -0.150 -0.538 -0.830 89 74 67
2.9951 27.4541 60.6820 -0.020 -0.520 -0.854 104 91 83
4.3072 27.8545 61.5013 -0.503 -0.575 -0.645 75 62 56
4.4675 27.8583 61.5408 -0.354 -0.683 -0.639 100 87 81
4.6469 27.8958 61.6296 -0.277 -0.690 -0.669 103 90 84
5.0621 27.7874 61.5734 0.110 -0.154 -0.982 91 74 66
5.5898 27.5995 61.4348 -0.248 -0.268 -0.931 102 84 74
10.2514 27.0536 61.7043 0.080 -0.435 -0.897 103 93 81
13.9970 26.7183 62.0597 -0.379 -0.470 -0.797 104 96 79
14.5324 26.5434 61.9401 -0.329 -0.475 -0.816 97 88 71
14.6907 26.5299 61.9560 -0.337 -0.520 -0.785 104 95 78
21.3893 26.6139 63.5085 -0.373 -0.802 -0.467 147 144 125
27.3270 26.3212 64.3922 0.171 -0.288 -0.942 109 102 86
27.5108 26.3175 64.4267 0.171 -0.288 -0.942 110 103 85
27.6629 26.2854 64.4163 0.087 -0.290 -0.953 129 124 105
29.9045 26.0905 64.6367 -0.165 -0.742 -0.649 150 148 127
32.5724 26.6926 66.0180 -0.120 -0.783 -0.610 128 125 106
37.2955 28.5093 69.4706 0.407 -0.187 -0.894 60 61 45
37.5335 28.5314 69.5514 0.128 0.157 -0.979 64 65 49
38.9369 28.3159 69.5639 0.610 0.149 -0.779 49 52 34
37.4860 25.7126 65.7593 0.660 -0.556 -0.505 48 62 29
-40.3889 45.9720 75.9212 -0.738 -0.048 -0.673 124 150 147
-29.0710 38.2002 67.9526 -0.365 -0.087 -0.927 108 121 112
-28.6134 38.0477 67.8466 -0.202 -0.054 -0.978 38 51 42
-28.4661 38.0287 67.8527 -0.207 -0.044 -0.977 47 60 51
-25.8460 36.7764 66.7390 -0.168 -0.251 -0.953 41 59 37
-25.6930 36.6945 66.6623 -0.194 -0.327 -0.925 41 60 38
-22.8134 34.7085 64.6233 -0.193 -0.451 -0.871 61 64 53
-22.6972 35.1749 65.2717 -0.068 -0.285 -0.956 59 62 51
-21.9753 35.0772 65.2954 -0.011 -0.158 -0.987 55 58 51
-21.8306 35.0554 65.2973 -0.011 -0.158 -0.987 71 77 68
-21.5422 35.0465 65.3470 -0.332 0.022 -0.943 110 115 108
-21.3963 34.9919 65.3052 -0.347 -0.086 -0.934 123 128 121
-17.3785 33.1842 63.7480 0.057 -0.491 -0.869 69 67 55
-17.2340 33.1903 63.7872 0.055 -0.530 -0.847 66 64 51
-16.3710 33.1071 63.8604 0.004 -0.647 -0.763 62 67 44
-14.8175 32.5889 63.5000 -0.252 -0.451 -0.857 75 76 58
-14.6774 32.5370 63.4606 -0.239 -0.436 -0.867 86 85 65
-14.0006 32.0979 63.0184 -0.461 -0.441 -0.770 78 76 55
-13.8667 32.0064 62.9248 -0.498 -0.340 -0.798 78 76 55
-13.7332 31.9146 62.8306 -0.494 -0.352 -0.795 73 71 50
-12.8058 31.2958 62.2017 -0.378 -0.562 -0.736 90 89 69
-12.6242 31.5384 62.5649 -0.478 -0.553 -0.682 111 105 91
-11.9041 31.4827 62.6444 -0.010 -0.463 -0.886 91 81 71
-11.7603 31.4681 62.6556 -0.035 -0.497 -0.867 88 75 66
-11.6207 31.4287 62.6328 -0.004 -0.442 -0.897 80 70 60
-11.4766 31.4154 62.6459 -0.025 -0.437 -0.899 98 85 76
-11.3339 31.3933 62.6469 -0.025 -0.435 -0.900 98 85 76
-11.1906 31.3743 62.6521 -0.025 -0.435 -0.900 91 78 69
-10.5018 31.1356 62.4804 -0.234 -0.278 -0.931 90 77 69
-10.3627 31.0961 62.4572 -0.234 -0.278 -0.931 95 82 74
-10.2206 31.0709 62.4540 -0.386 -0.516 -0.765 80 70 61
-9.5561 30.7370 62.1498 -0.153 -0.607 -0.780 91 79 71
-9.4160 30.7053 62.1374 -0.141 -0.605 -0.784 91 75 67
-6.8704 30.2237 62.0380 0.356 -0.600 -0.716 85 71 60
-6.7594 29.5724 61.1911 -0.038 -0.718 -0.695 89 75 64
-6.6451 29.4583 61.0630 -0.118 -0.416 -0.902 90 76 65
-5.9596 29.2850 60.9779 0.108 -0.262 -0.959 104 90 81
3.8019 27.5916 60.8021 0.027 -0.381 -0.924 75 62 54
4.0971 27.5596 60.8225 -0.122 -0.492 -0.862 62 47 42
4.4705 27.9505 61.4249 -0.313 -0.696 -0.646 68 53 48
4.6094 27.9158 61.4082 -0.241 -0.707 -0.664 75 60 55
7.1471 27.6178 61.5527 0.323 -0.289 -0.901 135 118 108
14.0225 26.8517 61.9991 -0.378 -0.469 -0.799 123 117 98
14.1817 26.8395 62.0169 -0.355 -0.436 -0.827 116 108 89
14.3014 26.7779 61.9601 -0.356 -0.441 -0.824 106 98 79
14.4258 26.7223 61.9124 -0.356 -0.450 -0.819 100 92 73
14.5784 26.7019 61.9177 -0.383 -0.442 -0.811 102 95 76
15.2686 26.9236 62.3617 0.130 -0.022 -0.991 117 111 89
20.6168 26.4765 62.9080 0.083 -0.287 -0.954 124 117 98
20.9469 26.4502 62.9433 -0.094 -0.362 -0.928 135 132 113
21.3693 26.7029 63.3715 -0.373 -0.802 -0.467 133 130 111
27.5708 26.4865 64.4087 0.067 -0.467 -0.882 111 104 88
27.7126 26.4451 64.3836 0.009 -0.326 -0.945 134 129 110
29.6225 26.4560 64.8067 0.003 -0.422 -0.907 134 129 107
29.7908 26.4363 64.8164 0.003 -0.422 -0.907 143 138 118
32.1111 27.5744 66.8342 -0.456 -0.505 -0.733 144 139 119
32.1388 27.4321 66.6498 -0.431 -0.167 -0.887 143 138 118
36.8316 28.6009 69.2160 0.390 -0.326 -0.861 75 76 62
37.0741 28.6275 69.3034 0.601 -0.481 -0.639 62 63 49
37.3376 28.6700 69.4166 0.390 -0.176 -0.904 53 55 41
37.6399 28.7421 69.5777 0.377 -0.182 -0.908 65 67 54
38.5675 28.3248 69.2182 0.615 0.051 -0.787 52 56 41
39.1255 28.5871 69.6882 0.630 0.013 -0.776 47 51 36
-29.0523 38.3699 67.9293 -0.365 -0.087 -0.927 90 103 94
-26.2572 36.9458 66.6274 -0.088 -0.361 -0.929 48 66 46
-26.1186 36.9887 66.7139 -0.232 -0.323 -0.918 46 66 42
-25.9696 36.9439 66.6860 -0.197 -0.306 -0.931 44 64 39
-25.8239 36.9276 66.6954 -0.168 -0.251 -0.953 48 68 43
-25.6687 36.8256 66.5926 -0.192 -0.262 -0.946 48 68 43
-22.7895 34.8308 64.5483 -0.190 -0.449 -0.873 68 71 62
-22.6492 34.8581 64.6145 -0.053 -0.598 -0.800 67 70 61
-21.9528 35.2383 65.2691 0.019 -0.211 -0.977 45 51 41
-21.8075 35.2030 65.2531 0.017 -0.220 -0.975 66 72 61
-21.6630 35.1896 65.2660 0.056 -0.124 -0.991 90 98 85
-21.5184 35.1755 65.2779 0.010 -0.042 -0.999 94 102 91
-20.4991 34.7326 64.9050 0.314 -0.214 -0.925 73 73 63
-18.6290 33.9377 64.2443 0.264 -0.377 -0.888 74 71 62
-18.4872 33.8471 64.1538 -0.622 -0.683 -0.383 75 72 63
-17.7773 33.5344 63.8884 -0.402 -0.477 -0.782 69 66 57
-17.6348 33.4951 63.8664 -0.437 -0.497 -0.750 69 67 55
-17.4993 33.3129 63.6525 0.022 -0.083 -0.996 71 69 57
-17.3576 33.2675 63.6221 0.079 -0.499 -0.863 69 67 55
-15.9367 32.9246 63.4679 0.081 -0.400 -0.913 55 58 39
-14.7954 32.7075 63.4216 -0.280 -0.466 -0.839 78 79 61
-14.6524 32.6823 63.4185 -0.270 -0.459 -0.846 92 91 71
-14.1156 32.2855 63.0042 -0.490 -0.423 -0.762 85 82 63
-13.8476 32.1030 62.8182 -0.494 -0.352 -0.795 85 82 62
-13.7107 32.0387 62.7616 -0.494 -0.352 -0.795 84 83 62
-12.3337 31.5169 62.3597 0.205 -0.647 -0.734 79 69 60
-11.7375 31.5951 62.5907 -0.025 -0.475 -0.880 101 91 81
-11.5989 31.5497 62.5598 0.167 -0.705 -0.689 102 92 82
-9.5272 30.8918 62.1244 -0.196 -0.537 -0.821 97 86 77
-9.3983 30.8094 62.0421 -0.191 -0.572 -0.798 99 85 76
-9.2700 30.7263 61.9587 -0.253 -0.561 -0.788 97 81 73
-9.1312 30.6900 61.9399 -0.253 -0.561 -0.788 92 75 67
-6.7476 29.6609 61.0765 -0.042 -0.724 -0.689 86 72 61
-6.6240 29.5789 60.9937 -0.120 -0.406 -0.906 90 76 65
-6.4775 29.5763 61.0213 -0.237 -0.284 -0.929 91 77 66
-6.3364 29.5544 61.0222 -0.354 -0.172 -0.919 90 76 65
-6.2074 29.4923 60.9670 -0.328 -0.222 -0.918 111 97 88
1.0240 27.9871 60.5011 -0.446 -0.523 -0.726 92 78 67
1.9900 28.3886 61.2415 -0.113 -0.639 -0.761 91 76 71
2.6984 27.6442 60.4008 -0.062 -0.711 -0.701 94 81 73
3.0705 27.7641 60.6397 0.066 -0.312 -0.948 100 87 79
5.0384 27.9213 61.2679 0.197 -0.715 -0.671 73 58 47
5.1963 27.9203 61.3001 -0.339 -0.713 -0.614 77 61 51
5.3581 27.9255 61.3415 -0.287 -0.741 -0.607 81 67 56
7.0382 27.7935 61.5233 0.404 -0.455 -0.794 110 93 83
7.5840 27.3810 61.0900 0.079 -0.412 -0.908 95 81 71
10.3161 27.3386 61.6151 0.184 -0.365 -0.913 113 101 88
13.7082 26.9812 61.8610 -0.060 -0.060 -0.996 122 124 103
13.8152 26.9032 61.7799 -0.539 -0.354 -0.764 129 128 107
18.2244 27.2466 63.1756 -0.187 -0.512 -0.839 134 125 110
18.3709 27.2137 63.1630 -0.187 -0.512 -0.839 139 130 113
18.8259 26.7430 62.6329 -0.249 -0.374 -0.893 127 116 98
20.6341 26.6031 62.8313 0.050 -0.224 -0.973 131 124 105
20.9975 26.6115 62.9199 0.022 -0.303 -0.953 115 112 93
25.1269 26.4048 63.5235 -0.007 -0.761 -0.648 140 137 118
27.5938 26.6224 64.3384 0.067 -0.467 -0.882 136 129 113
32.1878 27.5942 66.6105 -0.394 -0.212 -0.894 141 136 116
32.5694 27.5821 66.6756 -0.139 -0.662 -0.736 120 115 96
32.5203 26.8911 65.7448 -0.055 -0.582 -0.811 137 133 114
35.4826 28.6426 68.7082 0.319 -0.458 -0.830 104 103 85
36.2412 28.5894 68.7988 -0.130 -0.698 -0.705 109 110 94
36.9534 28.8242 69.2630 0.356 -0.807 -0.470 62 65 48
37.0996 28.7750 69.2287 0.607 -0.507 -0.612 54 56 42
37.4942 28.9204 69.5063 0.382 -0.151 -0.912 45 47 34
37.8156 29.0073 69.6905 0.184 -0.358 -0.915 73 75 62
38.5788 28.6219 69.3395 0.294 0.423 -0.857 51 55 40
-40.3683 47.3208 77.1589 -0.411 0.426 -0.806 119 145 142
-29.1849 38.5816 67.9294 -0.422 -0.260 -0.868 119 132 123
-29.0306 38.5225 67.8837 -0.336 -0.159 -0.928 104 117 108
-28.7266 38.4293 67.8244 -0.205 -0.059 -0.977 36 49 40
-28.5736 38.3755 67.7853 -0.216 -0.047 -0.975 31 44 35
-28.4210 38.3239 67.7492 -0.216 -0.043 -0.975 38 51 42
-28.2731 38.3022 67.7517 -0.289 -0.121 -0.949 51 64 55
-26.0086 37.6294 67.3384 -0.567 -0.208 -0.797 64 84 59
-21.6405 35.3560 65.2465 0.056 -0.124 -0.991 79 87 74
-21.4961 35.3513 65.2708 0.010 -0.042 -0.999 78 86 73
-20.0420 34.8635 64.9314 0.045 -0.334 -0.941 64 64 56
-17.4757 33.4508 63.6000 0.155 -0.549 -0.821 81 81 71
-17.3324 33.4358 63.6104 0.016 -0.549 -0.836 95 95 85
-15.9131 33.0591 63.4111 0.081 -0.400 -0.913 47 48 32
-15.6253 33.0340 63.4388 0.086 -0.501 -0.861 54 55 40
-15.4805 33.0304 63.4646 0.062 -0.502 -0.863 69 70 54
-15.3507 32.8624 63.2692 -0.417 -0.172 -0.893 83 84 68
-14.7730 32.8287 63.3468 -0.280 -0.466 -0.839 93 94 76
-14.6319 32.7865 63.3206 -0.265 -0.457 -0.849 98 97 79
-14.0958 32.3866 62.9035 -0.475 -0.167 -0.864 90 89 69
-13.8308 32.1816 62.6876 -0.498 -0.067 -0.864 89 88 68
-13.6912 32.1396 62.6613 -0.277 -0.161 -0.947 90 89 69
-11.8481 31.7981 62.5985 -0.079 -0.468 -0.880 89 79 69
-11.7115 31.7404 62.5509 -0.044 -0.473 -0.880 97 87 78
-9.5148 30.9714 61.9955 -0.249 -0.522 -0.816 103 93 84
-6.6576 30.5415 62.0301 0.471 -0.717 -0.514 78 64 53
-5.9004 29.5822 60.9173 0.015 -0.435 -0.900 97 83 74
-1.2795 29.0686 61.2144 -0.182 -0.684 -0.706 92 79 71
-1.2179 28.8500 60.9374 -0.428 -0.116 -0.896 86 73 65
5.6635 27.9922 61.2563 -0.150 -0.278 -0.949 71 60 51
5.8050 27.9621 61.2462 -0.162 -0.262 -0.952 87 75 66
5.9366 27.9149 61.2116 -0.138 -0.289 -0.947 103 90 81
6.0977 27.9179 61.2496 -0.160 -0.296 -0.942 99 86 75
6.2379 27.8853 61.2361 -0.160 -0.296 -0.942 85 71 60
6.3883 27.8699 61.2474 -0.060 -0.256 -0.965 85 68 58
6.5391 27.8549 61.2594 0.252 -0.390 -0.886 87 72 59
7.0500 27.9040 61.4328 0.359 -0.399 -0.843 113 97 84
10.0455 27.5178 61.5546 0.223 -0.362 -0.905 114 102 90
10.2145 27.5250 61.6001 0.251 -0.334 -0.908 116 104 90
10.3827 27.5306 61.6431 0.250 -0.327 -0.911 117 105 90
10.5517 27.5369 61.6872 0.250 -0.327 -0.911 117 105 88
12.3924 27.3316 61.8047 -0.004 -0.608 -0.794 119 109 97
12.5472 27.3156 61.8162 -0.004 -0.608 -0.794 127 117 105
20.0776 26.8723 62.8227 -0.162 -0.216 -0.963 138 130 111
27.6167 26.7583 64.2681 0.067 -0.467 -0.882 152 145 129
32.2247 27.7463 66.5551 -0.399 -0.239 -0.885 141 136 117
32.3632 27.0434 65.6517 0.121 -0.348 -0.930 137 132 113
35.0249 28.7300 68.4537 -0.375 0.002 -0.927 127 126 106
35.1017 28.6261 68.3320 -0.394 0.010 -0.919 104 103 85
36.3421 28.7961 68.8203 0.249 -0.629 -0.737 111 112 96
37.6882 29.2007 69.6423 0.127 -0.364 -0.923 46 48 34
37.8302 29.1472 69.6014 0.325 -0.780 -0.535 73 75 62
38.2622 28.6687 69.0578 -0.256 0.535 -0.805 43 45 31
39.1798 29.0479 69.7554 0.591 -0.020 -0.807 40 45 25
41.8481 28.4936 69.5849 0.724 -0.343 -0.599 107 112 93
-29.1611 38.7216 67.8673 -0.356 -0.173 -0.918 126 139 130
-29.0101 38.6818 67.8465 -0.292 -0.113 -0.950 119 132 123
-28.8574 38.6319 67.8127 -0.131 -0.060 -0.990 89 102 93
-28.2539 38.4721 67.7285 -0.316 -0.136 -0.939 43 56 49
-26.2860 37.8610 67.3351 -0.020 -0.171 -0.985 97 115 95
-21.9065 35.5312 65.1774 0.159 -0.137 -0.978 42 48 36
-21.6183 35.5327 65.2401 0.052 -0.077 -0.996 65 73 60
-21.4737 35.5275 65.2636 0.010 -0.042 -0.999 62 70 57
-21.3277 35.4765 65.2270 -0.349 -0.093 -0.933 68 76 63
-21.1804 35.3719 65.1197 -0.443 -0.187 -0.877 74 80 68
-20.5957 34.9677 64.7085 -0.008 -0.124 -0.992 56 58 47
-20.1627 34.9234 64.7411 -0.302 -0.147 -0.942 50 51 43
-19.8735 35.0287 64.9413 -0.021 -0.336 -0.942 65 64 59
-19.7285 34.9550 64.8744 -0.202 -0.251 -0.947 67 63 60
-18.2954 34.1315 64.0875 -0.185 0.038 -0.982 89 89 79
-16.3171 33.2753 63.3722 -0.480 -0.491 -0.727 66 66 53
-16.1724 33.2765 63.4042 -0.312 -0.561 -0.766 70 70 57
-16.0310 33.2339 63.3778 -0.312 -0.561 -0.766 82 82 69
-15.8900 33.1870 63.3454 -0.258 -0.576 -0.776 98 98 86
-15.7461 33.1743 63.3590 0.092 -0.500 -0.861 101 101 89
-15.6025 33.1587 63.3686 0.086 -0.501 -0.861 95 95 83
-15.4577 33.1547 63.3939 0.062 -0.502 -0.863 86 87 73
-14.6039 32.9601 63.3165 -0.468 -0.513 -0.719 93 94 78
-14.0713 32.5265 62.8554 -0.497 -0.140 -0.856 94 93 75
-6.9536 30.5962 61.8028 -0.226 -0.595 -0.772 91 74 66
-5.8740 29.7202 60.8720 0.044 -0.382 -0.923 92 78 69
-3.4984 29.2606 60.7649 -0.421 -0.159 -0.893 79 65 56
-1.1072 29.1882 61.1731 0.013 -0.329 -0.944 78 68 59
-0.8364 29.4694 61.6020 0.215 -0.216 -0.953 78 68 59
1.8258 28.8512 61.3456 -0.273 -0.176 -0.946 82 69 63
1.9904 28.8691 61.4039 -0.413 -0.537 -0.735 80 70 61
4.9393 27.6442 60.4057 0.057 -0.101 -0.993 81 74 63
5.6672 28.0873 61.1449 -0.234 -0.369 -0.899 70 63 51
5.9296 27.9920 61.0742 0.046 -0.620 -0.783 95 87 76
6.2761 28.0391 61.2096 -0.060 -0.256 -0.965 77 65 53
6.4209 28.0142 61.2071 -0.060 -0.256 -0.965 93 79 68
6.5795 28.0120 61.2377 0.265 -0.381 -0.886 106 92 79
8.1334 27.6702 61.1131 0.097 -0.483 -0.870 95 83 69
10.2103 27.6148 61.4776 0.146 -0.028 -0.989 111 99 85
10.3658 27.6024 61.4939 0.153 -0.018 -0.988 111 99 83
10.5298 27.6020 61.5279 0.001 0.035 -0.999 109 98 80
10.8993 27.1953 61.0681 0.160 -0.496 -0.854 110 99 77
13.2660 27.4798 61.9430 0.096 -0.285 -0.954 110 114 93
13.5354 27.3928 61.8847 -0.064 -0.435 -0.898 109 112 91
14.3297 27.1171 61.6875 0.040 -0.314 -0.949 143 138 116
19.0404 26.9997 62.5250 0.097 -0.163 -0.982 113 102 84
25.9227 26.8585 63.7887 0.342 -0.333 -0.879 139 134 114
27.3079 26.9336 64.1799 -0.295 -0.548 -0.783 154 147 129
27.4654 26.9064 64.1771 0.063 -0.468 -0.882 150 143 125
32.2417 27.8817 66.4733 -0.437 -0.438 -0.785 140 135 116
32.4309 27.8746 66.5038 -0.111 -0.231 -0.967 138 133 114
32.2089 27.1978 65.5620 0.239 -0.299 -0.924 139 134 115
35.0693 28.8915 68.4044 -0.463 -0.664 -0.587 134 133 113
35.1146 28.7618 68.2425 -0.182 -0.208 -0.961 101 100 82
35.8338 28.8459 68.5052 0.442 -0.445 -0.779 58 59 41
36.0701 28.8703 68.5873 0.448 -0.507 -0.737 57 58 42
36.3404 28.9213 68.7118 0.233 -0.622 -0.748 77 78 62
36.8534 28.9997 68.9235 0.343 -0.811 -0.475 66 67 49
37.9440 29.2003 69.4187 0.284 -0.796 -0.534 75 77 64
38.4331 29.0904 69.3763 -0.637 0.417 -0.649 46 46 36
38.5491 29.0175 69.3044 0.135 0.010 -0.991 41 43 29
39.8192 29.5027 70.2136 0.598 -0.039 -0.801 38 41 25
-40.4641 48.0945 77.5945 -0.437 0.309 -0.844 113 139 136
-28.9881 38.8330 67.7987 -0.258 -0.156 -0.954 130 146 136
-28.8437 38.8335 67.8296 -0.187 -0.049 -0.981 113 129 119
-28.6909 38.7832 67.7954 -0.205 -0.059 -0.977 121 134 125
-28.5346 38.7094 67.7310 -0.229 -0.265 -0.937 136 149 142
-28.3875 38.6939 67.7414 -0.342 -0.203 -0.918 145 158 151
-28.3390 39.3240 68.5817 -0.533 -0.124 -0.837 155 168 161
-28.0175 39.1345 68.3994 -0.548 -0.108 -0.829 154 165 159
-26.2614 37.9940 67.2650 -0.034 -0.112 -0.993 80 98 78
-21.5982 35.7760 65.3206 -0.090 -0.178 -0.980 53 61 48
-21.4535 35.7771 65.3524 0.016 -0.116 -0.993 54 62 49
-20.5723 35.1123 64.6613 0.000 -0.135 -0.991 52 54 43
-20.2838 35.1102 64.7190 -0.114 -0.281 -0.953 59 61 50
-20.1391 35.0594 64.6824 -0.349 -0.355 -0.867 59 60 52
-19.7048 35.1051 64.8337 -0.147 -0.217 -0.965 67 63 60
-18.5544 34.4965 64.2731 -0.314 -0.200 -0.928 87 87 77
-18.2703 34.3122 64.0899 -0.185 0.038 -0.982 95 95 85
-18.1246 34.3406 64.1579 -0.122 -0.227 -0.966 103 103 93
-17.2770 33.8651 63.7091 -0.465 -0.099 -0.880 104 104 94
-16.5687 33.6115 63.5235 -0.071 -0.609 -0.790 87 84 75
-16.0072 33.3709 63.3242 -0.402 -0.511 -0.760 95 93 81
-15.8670 33.3126 63.2768 -0.282 -0.549 -0.787 101 99 87
-15.7239 33.2916 63.2792 0.086 -0.501 -0.861 102 100 88
-15.5797 33.2833 63.2985 0.086 -0.501 -0.861 91 91 79
-14.5883 33.0185 63.1574 -0.575 -0.525 -0.628 79 82 65
-11.2626 31.7907 62.2372 -0.206 -0.752 -0.627 97 84 76
-10.5636 31.6127 62.1493 -0.238 -0.557 -0.795 118 106 97
-8.4088 31.3349 62.2351 0.099 -0.442 -0.892 127 102 98
-8.4134 30.7108 61.4119 -0.526 -0.524 -0.670 114 86 83
-7.1993 30.8301 61.8236 -0.408 -0.470 -0.782 99 81 77
-7.0785 30.7276 61.7140 -0.394 -0.512 -0.763 94 77 70
-6.4200 30.4257 61.4542 -0.290 -0.418 -0.861 92 75 67
-3.9007 29.8807 61.2645 0.118 -0.376 -0.919 78 68 56
-3.8166 29.6916 61.0329 -0.156 -0.181 -0.971 77 64 55
-3.4783 29.3796 60.6928 -0.305 -0.630 -0.715 80 67 58
-3.3288 29.3788 60.7231 -0.266 -0.564 -0.782 87 74 65
-3.2004 29.3204 60.6732 -0.349 -0.566 -0.747 87 74 65
-3.0622 29.2887 60.6602 -0.367 -0.583 -0.725 87 74 65
-2.9510 29.1850 60.5470 -0.198 -0.279 -0.940 80 67 58
-2.8191 29.1372 60.5117 -0.130 -0.171 -0.977 67 57 48
-2.6813 29.1055 60.4989 -0.130 -0.171 -0.977 67 57 48
-2.5434 29.0739 60.4860 -0.130 -0.171 -0.977 69 59 49
-2.4048 29.0440 60.4757 -0.039 -0.160 -0.986 69 59 49
-0.8762 29.4476 61.3281 0.294 -0.579 -0.761 81 72 63
1.2571 28.0710 59.9617 -0.464 -0.125 -0.877 90 80 69
1.8786 29.0410 61.3700 -0.316 -0.759 -0.570 79 69 60
2.0225 29.0159 61.3672 -0.381 -0.584 -0.717 80 70 61
2.1756 29.0097 61.3911 -0.367 -0.596 -0.714 79 70 63
2.2248 27.8647 59.8928 -0.523 0.036 -0.852 87 78 69
5.5645 28.2729 61.1309 -0.206 -0.304 -0.930 102 96 84
5.6960 28.2255 61.0960 -0.196 -0.324 -0.925 70 64 52
5.8233 28.1710 61.0509 0.107 -0.196 -0.975 73 67 55
8.4248 27.9649 61.3249 0.216 0.173 -0.961 85 73 61
9.9695 27.8374 61.4809 0.029 0.057 -0.998 110 98 84
10.1255 27.8258 61.4983 0.182 0.112 -0.977 107 95 81
10.2758 27.8057 61.5033 0.109 -0.042 -0.993 104 92 78
10.4407 27.8066 61.5391 0.052 -0.094 -0.994 104 92 77
10.5945 27.7911 61.5510 0.009 -0.100 -0.995 104 92 75
14.3747 27.2748 61.6634 0.005 -0.301 -0.954 142 136 114
15.5309 27.4468 62.1324 0.619 -0.097 -0.779 138 132 110
17.4663 27.2945 62.3376 -0.221 -0.541 -0.812 145 136 119
17.6309 27.2844 62.3588 -0.166 -0.450 -0.878 143 134 117
20.8211 27.5042 63.3175 -0.215 0.547 -0.809 141 134 115
22.6806 27.1962 63.3015 0.175 -0.412 -0.894 143 137 115
27.4992 27.0522 64.1222 0.163 -0.381 -0.910 142 135 117
32.7890 28.1300 66.6515 0.247 -0.189 -0.950 143 138 119
32.9960 28.1369 66.7040 0.247 -0.189 -0.950 142 137 118
35.0912 29.0347 68.3263 -0.584 -0.314 -0.748 137 136 116
35.4162 28.9659 68.3038 0.396 -0.459 -0.795 87 86 68
35.8631 28.9954 68.4364 0.442 -0.445 -0.779 65 64 46
36.0515 28.9814 68.4575 0.337 -0.567 -0.752 58 59 43
36.3645 29.0670 68.6359 0.203 -0.197 -0.959 78 79 63
36.7897 29.0760 68.7369 0.360 -0.790 -0.497 65 66 50
37.0854 29.1459 68.8910 0.623 -0.517 -0.587 58 59 43
37.7309 29.4910 69.4811 0.369 -0.248 -0.896 59 60 46
37.9097 29.4664 69.4862 0.213 -0.281 -0.936 70 70 58
38.1281 29.4728 69.5404 0.151 -0.257 -0.955 66 68 57
38.3599 29.4893 69.6107 0.141 -0.260 -0.955 73 75 64
41.2422 29.7345 70.5382 0.311 -0.817 -0.486 38 46 25
41.4782 29.7492 70.6070 0.187 -0.873 -0.450 37 46 25
42.0239 28.8819 69.5788 0.628 -0.657 -0.417 101 104 89
-29.6944 39.0292 67.6578 -0.720 0.112 -0.685 128 143 140
-29.3025 39.2642 68.0481 0.056 0.086 -0.995 136 151 145
-28.6761 38.9798 67.8055 -0.417 -0.258 -0.871 139 154 147
-28.5208 38.9134 67.7508 -0.417 -0.258 -0.871 135 149 142
-28.3657 38.8472 67.6962 -0.417 -0.258 -0.871 134 148 141
-28.3183 39.4883 68.5477 -0.356 -0.013 -0.934 136 148 142
-26.7948 37.9563 66.8544 -0.433 -0.148 -0.889 156 169 160
-26.3923 38.2127 67.2751 -0.137 -0.112 -0.984 85 99 86
-25.7424 37.5995 66.6057 -0.367 -0.175 -0.914 74 92 69
-22.0086 35.9295 65.1925 0.013 -0.396 -0.918 56 62 50
-20.4050 35.2923 64.6905 -0.255 -0.456 -0.852 62 64 53
-19.9711 35.2718 64.7541 0.093 -0.328 -0.940 73 73 65
-19.2481 34.9897 64.5347 -0.365 -0.037 -0.930 89 85 82
-18.5307 34.6332 64.2163 -0.218 -0.236 -0.947 68 68 58
-18.3878 34.5650 64.1566 -0.227 -0.214 -0.950 96 96 86
-18.1029 34.4222 64.0286 -0.174 -0.133 -0.976 111 111 101
-17.2481 34.1004 63.7845 -0.377 -0.397 -0.837 104 104 94
-17.1036 34.0915 63.8030 0.014 -0.516 -0.856 118 118 106
-15.6994 33.4367 63.2364 -0.002 -0.403 -0.915 83 81 68
-15.5568 33.4079 63.2283 0.086 -0.501 -0.861 84 85 71
-11.2461 31.8828 62.1257 -0.292 -0.833 -0.470 97 84 76
-10.5395 31.7461 62.0937 -0.336 -0.514 -0.789 92 80 72
-7.8545 31.2080 61.9475 -0.273 -0.803 -0.530 93 74 70
-4.9472 29.9446 60.8956 -0.178 -0.213 -0.961 71 62 49
-3.7125 30.0499 61.2914 0.019 -0.418 -0.908 77 64 55
-3.3275 29.4466 60.5798 -0.346 -0.595 -0.725 92 79 70
-3.1935 29.4036 60.5513 -0.346 -0.595 -0.725 91 78 69
-3.0413 29.4100 60.5914 -0.336 -0.580 -0.742 91 78 69
-2.9236 29.3235 60.5025 -0.258 -0.629 -0.733 85 72 63
-2.7852 29.2931 60.4915 -0.251 -0.632 -0.733 69 59 50
2.0256 29.1031 61.2459 -0.376 -0.584 -0.720 78 70 61
2.1843 29.1087 61.2864 -0.392 -0.602 -0.696 79 72 64
8.4049 28.0269 61.1641 0.091 -0.237 -0.967 87 75 64
10.5013 27.9903 61.5535 -0.241 0.108 -0.964 103 91 78
10.6263 27.9332 61.5047 -0.229 0.088 -0.969 97 85 69
14.2512 27.4327 61.6040 0.047 -0.450 -0.892 132 126 104
14.4188 27.4316 61.6376 0.039 -0.442 -0.896 128 122 100
16.5309 27.3117 61.9209 -0.106 -0.458 -0.883 139 130 113
17.8262 27.4147 62.3264 -0.388 -0.495 -0.777 136 128 110
18.0246 27.2447 62.1446 -0.340 -0.496 -0.799 139 130 113
19.1397 27.3227 62.4797 0.002 -0.319 -0.948 127 116 97
19.3098 27.3169 62.5076 -0.006 -0.320 -0.947 142 132 114
20.5883 27.5547 63.0864 0.437 -0.602 -0.668 137 130 111
25.4484 27.3360 63.8135 0.069 -0.378 -0.923 132 126 104
32.8265 28.2831 66.5964 0.284 0.042 -0.958 142 137 118
35.1437 29.2029 68.2875 -0.640 -0.295 -0.710 133 132 113
35.6483 29.1134 68.2752 0.370 -0.491 -0.789 76 75 57
35.9048 29.1549 68.3832 0.437 -0.435 -0.787 73 72 55
36.1021 29.1481 68.4155 0.298 -0.580 -0.758 60 61 45
36.4346 29.2497 68.6182 0.191 -0.213 -0.958 78 79 64
36.5681 29.1910 68.5690 0.173 -0.337 -0.925 71 72 57
36.7618 29.1805 68.5957 0.271 -0.709 -0.651 65 66 52
37.4768 29.4182 69.0568 0.504 -0.310 -0.806 66 66 55
37.6719 29.4073 69.0833 -0.175 -0.796 -0.580 67 67 56
37.8499 29.3829 69.0883 0.076 -0.880 -0.469 67 67 57
38.1038 29.4177 69.1871 0.076 -0.871 -0.485 77 77 69
39.1070 29.5424 69.5602 0.151 -0.935 -0.320 38 40 31
40.8360 29.8848 70.3704 -0.454 -0.562 -0.691 45 49 37
41.2071 29.8397 70.3886 0.314 -0.808 -0.498 38 41 29
41.4116 29.8313 70.4202 0.187 -0.873 -0.450 39 42 29
-30.8617 41.6579 70.6042 -0.741 -0.568 -0.357 124 140 137
-29.6999 39.3335 67.8050 -0.508 0.323 -0.799 134 149 146
-29.5332 39.2051 67.6716 -0.474 0.228 -0.850 134 149 146
-29.4786 39.7251 68.3631 0.148 -0.332 -0.932 132 148 145
-29.2905 39.4749 68.0749 -0.492 -0.312 -0.813 141 157 153
-28.4518 39.7022 68.5464 -0.108 0.043 -0.993 126 144 138
-26.7712 38.0962 66.7945 -0.436 -0.179 -0.882 136 149 142
-26.3702 38.3671 67.2322 -0.144 -0.110 -0.983 142 155 146
-26.2212 38.3380 67.2250 -0.034 -0.112 -0.993 130 144 133
-26.0704 38.2923 67.1966 -0.177 -0.133 -0.975 120 134 122
-25.7206 37.7555 66.5670 -0.367 -0.175 -0.914 115 132 118
-20.3812 35.4054 64.6016 -0.027 -0.129 -0.991 103 105 94
-18.5070 34.7733 64.1639 -0.246 -0.165 -0.955 90 90 79
-18.2258 34.5015 63.8668 -0.214 -0.235 -0.948 101 101 91
-18.0801 34.5351 63.9411 -0.327 -0.256 -0.910 97 97 87
-17.5079 34.3631 63.8348 -0.195 -0.245 -0.950 93 93 83
-17.3640 34.3419 63.8370 -0.200 -0.232 -0.952 96 96 86
-17.2206 34.3076 63.8218 -0.183 -0.232 -0.955 115 115 105
-16.6716 33.7976 63.2688 -0.065 -0.556 -0.829 109 107 95
-16.5296 33.7599 63.2489 0.027 -0.522 -0.852 111 109 97
-15.2447 33.5205 63.2025 -0.113 -0.125 -0.986 95 96 82
-14.8231 33.3704 63.0938 -0.398 -0.103 -0.912 80 81 67
-14.6842 33.3075 63.0403 -0.398 -0.103 -0.912 62 63 49
-11.2421 31.9059 61.9217 -0.346 -0.800 -0.489 95 85 76
-10.6793 31.7905 61.8875 -0.036 -0.298 -0.954 88 77 69
-10.5192 31.8606 62.0125 -0.196 -0.460 -0.866 70 60 50
-8.5029 31.0131 61.3226 -0.172 -0.341 -0.924 128 102 98
-8.3535 31.0230 61.3666 -0.292 -0.285 -0.913 116 86 84
-8.2173 30.9786 61.3368 -0.292 -0.285 -0.913 97 74 70
-6.7586 30.8979 61.5340 -0.118 -0.388 -0.914 91 74 67
-6.5049 30.7430 61.3842 -0.566 -0.094 -0.819 101 84 76
-5.9079 30.2502 60.8635 -0.248 0.212 -0.945 92 78 67
-4.9186 30.0891 60.8582 -0.178 -0.213 -0.961 64 55 43
-2.2044 29.3085 60.4007 -0.095 -0.547 -0.832 85 75 66
5.2445 27.8905 60.0926 -0.169 -0.346 -0.923 112 108 96
5.3826 27.8584 60.0792 -0.169 -0.346 -0.923 85 81 69
10.3067 28.0423 61.3422 -0.113 -0.704 -0.701 112 100 88
10.4468 28.0075 61.3257 -0.079 -0.744 -0.663 109 97 83
10.7435 27.9616 61.3273 -0.087 -0.767 -0.636 131 118 101
15.8710 27.6506 61.9851 -0.243 -0.730 -0.639 128 121 102
17.4640 27.7032 62.3847 0.010 0.032 -0.999 143 135 116
20.3128 27.5571 62.7852 0.208 -0.846 -0.491 133 126 107
28.8601 27.4897 64.4717 0.229 -0.570 -0.789 146 139 121
30.1821 27.6449 64.9492 -0.512 -0.296 -0.807 142 137 118
35.1435 29.3280 68.1809 -0.571 0.038 -0.820 132 127 113
35.6948 29.2767 68.2283 0.408 -0.493 -0.768 78 75 60
35.9597 29.3252 68.3467 0.378 -0.483 -0.790 76 74 60
36.2206 29.3698 68.4592 0.351 -0.638 -0.685 64 65 51
37.4839 29.5514 68.9591 0.523 -0.330 -0.786 73 73 65
37.8707 29.5270 69.0075 0.064 -0.867 -0.495 72 73 66
38.7509 29.5592 69.2323 -0.604 0.120 -0.788 41 40 35
41.0412 30.0084 70.2955 0.107 -0.203 -0.973 38 41 30
38.0741 27.6154 66.5493 -0.190 0.610 -0.769 38 41 31
-30.6501 41.6040 70.3179 -0.728 -0.538 -0.425 122 138 135
-30.2940 40.4816 68.9286 -0.433 -0.897 -0.089 129 144 141
-27.8210 39.7163 68.4422 -0.275 0.182 -0.944 134 149 142
-26.5717 37.9805 66.4379 -0.312 -0.774 -0.551 139 154 147
-26.4227 37.9380 66.4133 -0.312 -0.774 -0.551 143 156 149
-26.2773 37.9256 66.4271 -0.397 -0.693 -0.602 142 155 148
-26.2011 38.5103 67.2049 -0.034 -0.112 -0.993 142 155 148
-26.0496 38.4595 67.1701 -0.177 -0.133 -0.975 141 154 146
-25.9007 38.4311 67.1639 -0.519 0.057 -0.853 139 154 145
-25.7395 38.2895 67.0125 -0.489 -0.032 -0.872 140 156 147
-25.5469 37.8432 66.4706 -0.544 -0.055 -0.837 152 168 157
-22.4026 36.3922 65.2291 0.057 -0.332 -0.942 82 85 74
-22.2554 36.3295 65.1778 0.042 -0.283 -0.958 75 78 67
-22.1075 36.2480 65.1021 0.146 -0.408 -0.901 68 71 60
-21.9603 36.1737 65.0357 -0.248 -0.557 -0.793 57 63 53
-21.2371 36.1732 65.1845 -0.304 -0.048 -0.952 54 61 49
-20.7966 35.9176 64.9424 -0.525 0.181 -0.832 69 71 60
-20.6506 35.8466 64.8800 -0.509 0.195 -0.839 77 77 67
-17.6309 34.4592 63.6956 -0.277 -0.922 -0.270 103 103 93
-15.2222 33.6414 63.1274 -0.243 -0.315 -0.918 97 98 84
-14.9464 33.4888 62.9856 -0.517 -0.673 -0.528 89 90 76
-14.8082 33.4184 62.9223 -0.502 -0.670 -0.547 77 78 64
-14.5319 33.2845 62.8049 -0.498 -0.673 -0.547 39 40 24
-11.2109 32.0794 61.9204 -0.250 -0.791 -0.558 83 70 62
-11.0865 31.9609 61.7916 -0.011 -0.785 -0.620 94 79 72
-10.9255 31.2701 60.9245 0.234 -0.109 -0.966 95 81 74
-10.4972 31.9832 61.9424 -0.196 -0.460 -0.866 88 75 67
-7.6202 31.0448 61.3137 0.137 -0.758 -0.638 85 70 65
-5.7549 30.3179 60.7518 -0.200 -0.038 -0.979 95 81 70
-5.6055 30.3217 60.7876 0.077 -0.244 -0.967 95 81 70
-2.4746 29.4538 60.3033 0.032 -0.577 -0.816 98 86 77
-2.3292 29.4418 60.3176 0.032 -0.577 -0.816 109 96 88
4.1492 29.4228 61.6314 0.655 0.118 -0.746 74 70 53
3.8188 28.5047 60.3665 0.154 -0.319 -0.935 89 88 70
4.2807 28.4927 60.4463 -0.155 -0.199 -0.968 64 66 45
7.3075 28.7816 61.4483 0.270 0.162 -0.949 91 77 64
9.7696 28.3117 61.3446 -0.229 0.054 -0.972 103 91 77
10.3796 28.4854 61.6969 -0.434 -0.483 -0.760 110 98 84
10.5883 28.3088 61.5099 -0.743 -0.362 -0.562 119 107 93
10.8137 28.1587 61.3608 -0.587 -0.285 -0.758 136 125 106
14.3230 27.7258 61.5217 0.057 -0.439 -0.897 97 91 69
14.4895 27.7233 61.5528 0.052 -0.435 -0.899 106 100 78
15.2706 27.8536 61.8841 0.111 -0.537 -0.836 127 119 98
17.2153 27.9229 62.3762 -0.071 -0.333 -0.940 127 118 101
17.5612 27.9219 62.4464 0.058 -0.035 -0.998 124 116 97
17.6267 27.7956 62.2953 0.013 -0.161 -0.987 130 124 102
17.8120 27.8094 62.3514 -0.389 -0.147 -0.909 124 119 97
21.6559 27.5804 62.8473 -0.345 -0.646 -0.681 141 134 116
21.7760 27.5191 62.7922 -0.363 -0.638 -0.679 145 138 120
30.1069 27.6970 64.7453 -0.506 -0.333 -0.796 142 137 118
35.1489 29.4575 68.0816 -0.539 0.000 -0.843 123 117 105
35.2671 29.3868 68.0139 -0.012 -0.266 -0.964 121 115 103
35.7130 29.4170 68.1454 0.358 -0.344 -0.868 75 71 59
36.1553 29.4429 68.2705 0.312 -0.381 -0.870 70 70 58
37.7261 29.7056 68.9374 -0.264 -0.801 -0.537 69 68 63
37.8610 29.6471 68.8890 -0.226 -0.821 -0.525 75 74 69
38.7063 29.8170 69.2851 -0.575 0.137 -0.807 38 37 32
38.4053 29.4186 68.7038 -0.287 -0.886 -0.364 40 39 34
38.7352 29.5122 68.8939 0.079 -0.941 -0.329 39 40 34
41.1011 30.1850 70.2596 0.107 -0.220 -0.970 35 38 27
-30.8821 40.7688 68.9273 -0.529 -0.795 -0.296 122 142 137
-30.0635 40.2932 68.4780 -0.625 -0.636 -0.452 131 146 143
-29.7895 40.3946 68.6660 -0.531 -0.654 -0.539 148 160 158
-29.4894 40.3525 68.6730 0.192 -0.297 -0.936 146 161 158
-26.5422 38.0715 66.3166 -0.408 -0.771 -0.489 140 155 148
-25.7196 38.4663 66.9984 -0.455 0.019 -0.890 143 155 150
-21.3507 36.0350 64.7392 -0.230 -0.205 -0.951 40 43 37
-21.2124 36.2712 65.0744 -0.527 -0.153 -0.836 46 49 41
-20.4786 35.6932 64.4747 -0.421 -0.443 -0.792 63 65 54
-20.3334 35.5962 64.3785 -0.153 -0.672 -0.724 71 73 62
-20.1889 35.5498 64.3480 -0.162 -0.679 -0.716 83 85 74
-15.4833 33.8400 63.0949 -0.350 -0.215 -0.912 126 127 113
-15.3423 33.7929 63.0627 -0.287 -0.270 -0.919 120 121 107
-15.1979 33.7825 63.0789 -0.264 -0.262 -0.928 115 116 102
-15.0604 33.6998 62.9998 -0.374 -0.172 -0.911 100 101 87
-14.9293 33.5564 62.8405 -0.518 -0.697 -0.495 86 87 73
-14.7895 33.5047 62.8021 -0.464 -0.680 -0.568 83 83 71
-14.6503 33.4477 62.7567 -0.464 -0.680 -0.568 87 88 74
-14.3758 33.3027 62.6248 -0.301 -0.384 -0.873 52 53 37
-14.2383 33.2359 62.5663 -0.334 -0.335 -0.881 60 61 45
-14.1003 33.1749 62.5154 -0.270 -0.386 -0.882 68 69 53
-13.9596 33.1386 62.4972 -0.123 -0.186 -0.975 67 68 52
-9.1798 31.3090 61.1039 -0.205 -0.124 -0.971 117 117 105
-9.0376 31.2917 61.1106 -0.047 -0.205 -0.978 109 108 96
-5.5799 30.4574 60.7381 0.081 -0.239 -0.968 96 82 71
-4.9800 30.4728 60.8815 0.315 -0.162 -0.935 94 81 69
-4.6989 30.4192 60.8696 -0.431 -0.144 -0.891 84 78 64
-3.0205 29.6607 60.2296 -0.068 -0.694 -0.716 80 67 59
-2.8767 29.6452 60.2390 0.087 -0.524 -0.847 99 86 78
-2.7322 29.6313 60.2507 0.067 -0.493 -0.867 122 109 101
-2.5896 29.6121 60.2551 0.073 -0.490 -0.869 119 107 98
-1.4989 30.0821 61.0898 -0.201 -0.388 -0.899 75 65 56
-1.3460 30.0825 61.1217 -0.268 -0.324 -0.907 71 63 53
-1.2025 30.0590 61.1207 -0.203 -0.393 -0.897 75 68 60
-1.1394 29.1052 59.8950 -0.275 -0.395 -0.876 146 139 129
7.1008 28.7972 61.1890 -0.080 0.014 -0.997 94 80 69
7.2610 28.7961 61.2206 -0.026 -0.114 -0.993 86 73 61
7.5585 28.7556 61.2292 -0.203 -0.405 -0.892 100 88 74
10.8292 28.2774 61.2805 -0.575 -0.274 -0.771 126 119 97
14.3361 27.8432 61.4377 0.154 -0.400 -0.903 102 96 74
16.7898 27.7264 61.7905 -0.143 -0.121 -0.982 117 109 90
17.4996 27.9545 62.2327 -0.059 -0.765 -0.641 134 126 107
21.5636 27.7804 62.8421 -0.375 -0.656 -0.655 135 128 110
23.7157 27.5883 63.0351 -0.194 -0.691 -0.697 146 139 120
34.4753 29.6995 67.9890 -0.237 -0.662 -0.711 128 122 106
35.7607 29.5815 68.0999 0.358 -0.344 -0.868 77 71 62
-45.0665 44.7228 70.8893 -0.942 -0.221 -0.254 57 69 68
-29.4676 40.5091 68.6278 0.192 -0.297 -0.936 148 163 160
-28.2177 39.0610 67.0096 -0.286 -0.632 -0.720 135 152 146
-26.2822 38.6471 66.8700 -0.389 -0.632 -0.671 140 155 150
-22.5022 36.7167 65.1454 -0.352 -0.703 -0.618 83 86 75
-21.1910 36.5013 65.1349 -0.137 -0.235 -0.962 44 45 40
-21.0442 36.4366 65.0811 -0.201 -0.018 -0.980 49 50 44
-20.8987 36.4289 65.1010 -0.197 -0.055 -0.979 52 53 45
-20.7528 36.4042 65.0989 -0.234 -0.023 -0.972 52 52 43
-20.4542 35.7550 64.3199 -0.361 -0.162 -0.918 66 66 56
-15.4621 33.9459 63.0001 -0.328 -0.279 -0.903 135 135 124
-15.3215 33.8956 62.9638 -0.195 -0.442 -0.876 130 130 118
-15.1779 33.8778 62.9702 -0.201 -0.379 -0.903 123 123 112
-15.0381 33.8197 62.9236 -0.375 -0.130 -0.918 126 126 114
-14.9089 33.6578 62.7406 -0.468 -0.681 -0.564 117 119 107
-14.7697 33.6003 62.6946 -0.468 -0.681 -0.564 103 103 92
-14.6307 33.5428 62.6486 -0.468 -0.681 -0.564 116 116 105
-14.3524 33.4340 62.5648 -0.346 -0.350 -0.870 110 111 95
-14.2139 33.3758 62.5178 -0.339 -0.340 -0.877 97 98 80
-14.0740 33.3310 62.4885 -0.245 -0.441 -0.864 86 87 69
-13.9350 33.2790 62.4495 -0.260 -0.404 -0.877 81 82 66
-9.1533 31.4525 61.0643 -0.212 -0.369 -0.905 117 117 105
-9.0054 31.4596 61.1037 -0.259 -0.540 -0.801 111 109 97
-8.8667 31.4264 61.0891 -0.263 -0.508 -0.820 70 63 53
-8.7269 31.3977 61.0806 -0.244 -0.476 -0.845 77 66 57
-8.5870 31.3698 61.0731 -0.289 -0.379 -0.879 95 76 70
-8.1231 31.4634 61.2891 -0.246 -0.205 -0.947 91 70 65
-8.0001 31.3655 61.1877 -0.071 -0.323 -0.944 86 66 62
-6.9751 30.7862 60.6478 -0.195 -0.147 -0.970 91 74 66
-6.5539 30.7131 60.6392 -0.051 -0.177 -0.983 108 91 83
-5.0960 30.6323 60.8329 0.127 -0.193 -0.973 95 81 70
-4.9495 30.6236 60.8517 0.196 -0.289 -0.937 97 84 72
-3.0075 29.7605 60.1322 -0.064 -0.688 -0.723 74 61 52
-2.8567 29.7640 60.1675 0.087 -0.524 -0.847 82 69 61
-2.7138 29.7461 60.1735 0.073 -0.471 -0.879 101 92 83
-1.4637 30.2407 61.0693 -0.196 -0.368 -0.909 72 64 54
-1.3207 30.2159 61.0665 -0.268 -0.324 -0.907 59 52 42
-1.1792 30.1877 61.0590 -0.203 -0.393 -0.897 55 48 38
-1.1172 29.2297 59.8319 -0.275 -0.395 -0.876 124 118 106
0.5990 30.0254 61.2127 -0.196 -0.035 -0.980 94 87 78
0.7156 29.9399 61.1260 0.227 -0.176 -0.958 110 104 93
0.8721 29.9434 61.1625 0.260 -0.109 -0.959 91 85 73
1.0251 29.9387 61.1877 0.217 -0.163 -0.962 92 85 69
1.8805 29.4458 60.7249 -0.478 -0.182 -0.859 72 64 56
6.6140 29.1495 61.3099 -0.360 -0.776 -0.517 105 94 83
6.7438 29.0972 61.2687 -0.471 -0.685 -0.557 65 54 42
7.1471 28.9648 61.1799 -0.363 -0.761 -0.538 94 84 74
7.2599 28.8852 61.1000 -0.556 -0.607 -0.568 80 70 58
8.0734 28.8960 61.2804 -0.532 -0.509 -0.676 108 99 84
8.1968 28.8344 61.2260 0.208 -0.233 -0.950 101 92 75
10.7176 28.4499 61.2441 -0.459 -0.244 -0.854 112 106 84
10.8539 28.4093 61.2194 -0.364 -0.185 -0.913 103 99 75
11.2166 28.2221 61.0514 0.088 -0.317 -0.944 110 106 79
11.3546 28.1844 61.0308 0.228 -0.468 -0.854 119 115 88
11.5261 28.1941 61.0784 0.121 -0.524 -0.843 112 108 81
11.7195 28.2339 61.1695 0.013 -0.514 -0.858 105 101 74
11.8984 28.2527 61.2304 -0.026 -0.241 -0.970 106 100 76
12.0502 28.2335 61.2367 -0.016 -0.228 -0.973 102 94 71
13.9703 28.1230 61.4865 -0.206 -0.387 -0.899 90 88 63
15.2451 28.0257 61.6214 0.201 -0.405 -0.892 138 130 109
15.8608 27.9461 61.6444 0.084 -0.640 -0.764 137 128 111
16.6636 27.8839 61.7281 -0.089 -0.119 -0.989 126 118 99
16.8357 27.8847 61.7644 -0.143 -0.121 -0.982 133 125 106
27.4003 28.2288 64.3709 -0.573 -0.547 -0.611 145 138 119
33.2843 29.1572 66.7761 0.644 -0.129 -0.754 134 128 112
34.4699 29.8194 67.8756 0.394 -0.897 -0.200 128 122 106
34.6429 29.7943 67.8784 0.404 -0.812 -0.421 129 123 109
35.1520 29.7099 67.8734 0.137 -0.276 -0.951 122 115 105
35.8495 29.7797 68.1065 0.404 0.030 -0.914 78 71 63
43.3269 30.4919 70.5578 -0.803 -0.045 -0.594 93 99 87
-32.0891 41.4838 69.0993 -0.601 -0.772 -0.205 135 155 153
-31.8002 41.4999 69.1789 -0.667 -0.640 -0.380 132 152 150
-30.9651 40.9780 68.6759 -0.612 -0.408 -0.678 140 156 153
-30.7992 40.8734 68.5748 -0.598 -0.394 -0.698 144 160 157
-28.1841 39.1348 66.8653 -0.298 -0.630 -0.717 137 154 148
-22.6179 36.7586 64.9347 -0.299 -0.666 -0.683 83 86 75
-22.4781 36.8439 65.0731 -0.310 -0.719 -0.622 83 87 73
-21.1670 36.6241 65.0566 -0.087 -0.087 -0.992 49 48 45
-20.5763 36.0094 64.3843 -0.546 -0.100 -0.832 58 58 48
-20.4310 35.9188 64.2971 -0.363 -0.200 -0.910 65 65 55
-20.2861 35.8377 64.2220 0.067 -0.495 -0.866 71 71 61
-19.5637 35.7618 64.2711 -0.130 -0.619 -0.775 80 77 72
-15.5702 34.2347 63.1151 -0.445 -0.151 -0.883 111 111 103
-15.4320 34.1523 63.0370 -0.431 -0.138 -0.892 121 121 112
-15.2924 34.0880 62.9825 -0.499 -0.172 -0.849 122 122 114
-14.8820 33.8238 62.7254 -0.010 -0.433 -0.901 109 110 102
-14.7510 33.6865 62.5750 -0.468 -0.681 -0.564 102 103 95
-14.6095 33.6539 62.5618 -0.499 -0.521 -0.692 97 99 88
-14.3259 33.5930 62.5410 -0.156 -0.160 -0.975 123 124 108
-14.1854 33.5513 62.5158 -0.176 0.001 -0.984 113 114 96
-14.0480 33.4841 62.4571 -0.183 -0.103 -0.978 102 103 85
-13.9053 33.4623 62.4582 -0.127 0.000 -0.992 85 86 68
-13.7501 33.5415 62.5918 -0.344 -0.188 -0.920 73 74 58
-8.9729 31.6287 61.0979 -0.328 -0.653 -0.683 111 109 97
-8.8337 31.5972 61.0857 -0.349 -0.634 -0.690 70 63 53
-8.6926 31.5734 61.0837 -0.338 -0.678 -0.652 73 63 54
-5.0725 30.7610 60.7732 0.006 -0.303 -0.953 66 52 41
-4.9325 30.7325 60.7650 0.095 -0.373 -0.923 64 51 40
-4.7810 30.7395 60.8049 0.037 -0.355 -0.934 86 75 63
-4.4048 30.5206 60.5992 -0.290 -0.102 -0.952 71 61 49
-3.1502 29.8424 59.9801 -0.282 -0.495 -0.822 75 65 54
-2.9956 29.8572 60.0307 0.048 -0.182 -0.982 67 57 46
-1.3057 30.3240 60.9765 -0.209 -0.378 -0.902 83 79 67
-1.1549 30.3189 61.0007 -0.198 -0.369 -0.908 76 73 62
-1.0190 30.2768 60.9741 -0.202 -0.371 -0.906 69 65 54
-1.0954 29.3534 59.7679 -0.268 -0.377 -0.886 71 68 56
-0.9651 29.3050 59.7320 -0.201 -0.408 -0.891 89 86 74
-0.8278 29.2738 59.7197 -0.003 -0.593 -0.805 124 120 111
-0.6841 29.2575 59.7280 -0.030 -0.599 -0.800 166 162 156
-0.5390 29.2442 59.7403 -0.003 -0.593 -0.805 148 143 137
0.8978 30.0775 61.1073 0.211 -0.012 -0.977 91 89 69
1.0595 30.0921 61.1591 0.120 -0.062 -0.991 87 85 63
0.8414 29.2767 60.0632 -0.080 -0.499 -0.863 87 85 63
4.0782 28.9514 60.3027 -0.380 -0.398 -0.835 68 64 52
4.2165 28.9179 60.2877 -0.308 -0.541 -0.783 53 49 38
11.7381 28.3571 61.0959 0.013 -0.514 -0.858 98 94 67
12.0777 28.3693 61.1808 -0.018 -0.196 -0.980 92 84 61
15.1182 28.1810 61.5568 0.016 -0.245 -0.969 140 132 111
15.8981 28.0944 61.6039 0.096 -0.260 -0.961 132 123 106
16.5553 28.0630 61.6973 -0.352 -0.126 -0.927 126 118 99
16.7031 28.0347 61.6909 -0.079 -0.130 -0.988 137 129 110
16.8816 28.0432 61.7382 -0.143 -0.121 -0.982 145 137 118
21.2082 27.9989 62.5618 0.068 -0.117 -0.991 138 131 113
28.8018 27.9019 63.9827 0.330 -0.791 -0.515 150 143 124
29.1274 28.0245 64.2071 0.472 -0.765 -0.437 149 144 124
33.0076 29.2130 66.5294 0.560 0.226 -0.797 128 122 106
33.4683 29.4360 66.9107 0.553 0.222 -0.803 132 126 110
35.2271 29.8971 67.8634 0.325 -0.322 -0.889 105 98 88
-31.8398 41.2484 68.5951 0.190 -0.211 -0.959 139 158 156
-31.7775 41.6498 69.1235 -0.672 -0.462 -0.579 135 154 150
-30.7667 40.9718 68.4571 -0.613 -0.367 -0.700 143 155 153
-29.6651 40.5207 68.1007 -0.468 -0.472 -0.747 151 162 160
-29.5077 40.4526 68.0451 -0.468 -0.472 -0.747 150 162 160
-28.3395 39.5045 67.0636 -0.550 -0.333 -0.766 137 154 148
-28.1651 39.3048 66.8423 -0.374 -0.424 -0.825 137 154 148
-27.8607 39.1946 66.7624 -0.211 -0.353 -0.912 132 148 141
-27.5731 39.2009 66.8288 -0.160 -0.629 -0.761 134 147 140
-27.4220 39.1523 66.7970 -0.218 -0.675 -0.704 135 148 141
-20.4072 36.0317 64.2086 -0.341 -0.211 -0.916 64 64 54
-20.2623 35.9394 64.1195 0.071 -0.520 -0.851 70 70 60
-20.1179 35.8846 64.0783 0.341 -0.399 -0.851 74 74 64
-19.9738 35.9009 64.1284 0.341 -0.399 -0.851 73 73 63
-19.8294 35.8653 64.1119 -0.004 -0.407 -0.914 73 73 63
-19.6849 35.8677 64.1442 -0.029 -0.428 -0.903 79 76 69
-19.5401 35.8874 64.1989 -0.024 -0.565 -0.825 81 78 73
-19.2508 35.8354 64.1907 0.326 -0.507 -0.798 79 76 71
-18.6781 35.4621 63.8271 -0.521 -0.300 -0.799 101 100 95
-18.2526 35.1716 63.5401 -0.407 -0.299 -0.863 88 89 83
-16.2431 34.7657 63.4256 -0.286 -0.208 -0.935 107 108 100
-15.6837 34.4677 63.1561 -0.448 -0.165 -0.879 104 105 99
-14.8494 34.0467 62.7842 0.000 -0.080 -0.997 119 120 114
-14.0187 33.6652 62.4623 -0.132 0.006 -0.991 113 114 96
-13.8767 33.6367 62.4545 -0.127 0.000 -0.992 112 113 95
-13.0333 33.4003 62.3217 -0.357 -0.606 -0.712 83 76 66
-12.8961 33.3382 62.2696 -0.400 -0.576 -0.713 84 77 67
-9.2590 32.3449 61.7302 0.159 -0.642 -0.750 101 97 86
-8.9547 31.7357 61.0091 -0.317 -0.658 -0.683 118 114 102
-8.8137 31.7122 61.0075 -0.346 -0.679 -0.648 66 60 48
-8.6709 31.6957 61.0152 -0.340 -0.691 -0.638 87 78 68
-7.6770 31.5509 61.0306 -0.276 -0.645 -0.712 100 85 80
-7.5373 31.5206 61.0200 -0.270 -0.638 -0.721 91 76 71
-7.1854 31.1798 60.6534 -0.080 -0.115 -0.990 114 100 92
-7.0535 31.1237 60.6080 -0.166 -0.098 -0.981 82 71 62
-5.0455 30.9012 60.7289 0.006 -0.303 -0.953 86 72 61
-4.9060 30.8710 60.7183 0.105 -0.363 -0.926 85 71 60
-4.7444 30.9090 60.7999 0.030 -0.324 -0.946 91 78 65
-2.9597 30.0190 60.0180 0.043 -0.178 -0.983 72 65 50
-1.8490 30.5631 60.9421 -0.160 -0.189 -0.969 84 67 57
-1.7148 30.5166 60.9094 -0.132 -0.218 -0.967 92 76 66
-1.2065 29.5192 59.7310 -0.268 -0.377 -0.886 81 82 68
-1.0786 29.4649 59.6871 -0.178 -0.298 -0.938 80 81 67
-0.9397 29.4373 59.6797 -0.152 -0.369 -0.917 68 68 55
-0.8039 29.4023 59.6624 -0.128 -0.373 -0.919 43 42 32
-0.6652 29.3743 59.6545 -0.128 -0.373 -0.919 48 47 42
-0.5205 29.3601 59.6655 -0.116 -0.360 -0.926 67 66 65
0.9394 30.2470 61.1008 0.198 0.011 -0.980 91 92 60
7.2165 29.2615 61.1062 0.039 -0.437 -0.899 95 91 80
7.3654 29.2415 61.1107 0.011 -0.451 -0.892 91 87 75
7.4724 29.1521 61.0174 -0.073 -0.220 -0.973 102 98 86
14.6261 28.5184 61.6524 -0.022 -0.191 -0.981 114 106 85
15.4631 28.2898 61.5283 -0.131 -0.447 -0.885 138 129 112
15.7600 28.2364 61.5198 -0.168 -0.329 -0.929 138 129 112
15.9488 28.2594 61.5876 0.194 -0.192 -0.962 133 124 107
17.0201 28.3129 61.8733 0.027 -0.535 -0.844 143 135 116
21.7697 27.9483 62.3670 -0.139 0.092 -0.986 141 134 116
33.8499 29.8839 67.3011 0.511 -0.641 -0.573 119 113 97
35.2687 30.0566 67.8103 0.208 -0.583 -0.785 90 84 72
35.7637 30.1287 68.0033 0.328 -0.274 -0.904 78 72 60
40.7730 30.7862 69.8628 0.560 -0.509 -0.653 38 40 29
-31.8900 41.7469 68.9731 -0.472 -0.824 -0.314 139 158 156
-31.7295 41.6775 68.9166 -0.465 -0.827 -0.316 129 148 144
-30.7388 41.0936 68.3688 -0.613 -0.367 -0.700 142 151 150
-29.4774 40.5571 67.9362 -0.486 -0.487 -0.726 148 156 158
-24.4793 37.6330 65.2002 -0.095 -0.597 -0.797 151 163 159
-19.8058 36.0360 64.0978 -0.139 -0.362 -0.922 79 79 69
-19.6613 36.0000 64.0808 -0.029 -0.428 -0.903 89 86 79
-19.5168 35.9807 64.0853 -0.029 -0.428 -0.903 80 77 72
-18.6548 35.5880 63.7564 -0.584 -0.198 -0.787 92 91 86
-18.2291 35.3068 63.4821 -0.407 -0.299 -0.863 86 87 81
-16.2173 34.9295 63.4046 -0.185 -0.426 -0.886 114 115 107
-14.6909 34.0777 62.6218 -0.310 -0.006 -0.951 98 99 93
-14.5503 34.0322 62.5919 -0.357 -0.009 -0.934 90 92 82
-13.9898 33.8432 62.4629 -0.118 0.006 -0.993 100 102 81
-13.8522 33.7766 62.4054 -0.169 -0.117 -0.979 113 114 96
-13.7178 33.6863 62.3169 -0.425 -0.173 -0.889 97 98 80
-9.2437 32.4382 61.6209 0.152 -0.646 -0.748 92 88 77
-8.6627 31.7606 60.8706 -0.343 -0.706 -0.620 82 76 64
-7.6748 31.5976 60.8611 -0.314 -0.214 -0.925 107 94 86
-7.5289 31.5920 60.8832 -0.278 -0.310 -0.909 95 82 74
-6.7483 31.2067 60.5474 -0.119 -0.234 -0.965 89 80 71
-6.6034 31.1975 60.5648 -0.093 -0.256 -0.962 75 66 57
-6.4635 31.1705 60.5584 -0.093 -0.256 -0.962 78 69 60
-5.0220 31.0303 60.6695 -0.306 -0.455 -0.836 91 77 64
-2.5204 30.0593 59.9307 -0.284 -0.126 -0.951 61 46 33
-1.8035 30.7491 60.9583 -0.133 -0.005 -0.991 90 73 60
-1.6737 30.6907 60.9097 -0.147 0.049 -0.988 93 78 65
0.5488 30.4908 61.1018 -0.086 -0.457 -0.885 46 51 26
0.6936 30.4679 61.1017 -0.151 -0.489 -0.859 76 81 50
0.8301 30.4261 61.0756 -0.100 -0.458 -0.883 72 78 43
1.7042 29.6378 60.2427 0.003 0.101 -0.995 65 66 46
7.2375 29.3872 61.0372 0.137 -0.346 -0.928 61 57 46
7.3909 29.3746 61.0520 0.021 -0.440 -0.898 74 70 59
8.1316 29.2660 61.0624 -0.433 -0.658 -0.616 77 69 56
8.2315 29.1667 60.9553 0.093 -0.290 -0.952 86 79 63
9.5674 29.2215 61.2947 0.194 -0.252 -0.948 103 93 83
9.7850 29.3038 61.4440 -0.324 -0.352 -0.878 108 98 86
9.9236 29.2649 61.4222 -0.332 -0.371 -0.868 106 99 82
14.9153 28.5563 61.5212 -0.210 -0.555 -0.805 138 132 110
15.0583 28.5228 61.5071 -0.210 -0.555 -0.805 138 133 111
15.2090 28.4989 61.5069 -0.245 -0.297 -0.923 139 132 113
15.4399 28.5761 61.6522 -0.022 -0.216 -0.976 139 131 112
15.5048 28.4440 61.4962 -0.115 -0.494 -0.862 138 129 112
15.8021 28.3908 61.4881 -0.139 -0.314 -0.939 138 129 112
23.8183 28.1348 62.7763 0.069 -0.567 -0.820 129 121 98
25.4242 28.2808 63.2869 -0.167 -0.392 -0.905 149 142 123
26.4219 28.1764 63.3543 -0.020 -0.538 -0.842 112 107 88
30.4579 28.2563 64.2702 -0.482 -0.257 -0.838 126 121 102
33.7383 29.9117 67.0507 0.597 -0.296 -0.746 114 108 92
35.2773 30.1885 67.7153 0.140 -0.537 -0.832 75 68 58
35.5406 30.2382 67.8320 0.238 -0.462 -0.854 68 61 51
44.4077 31.5276 71.2701 -0.248 0.488 -0.837 94 100 90
44.6614 31.3889 71.1437 -0.413 0.364 -0.835 13 15 12
-31.7986 41.5653 68.5088 0.212 -0.263 -0.941 141 157 156
-31.6482 41.5410 68.5080 0.218 -0.318 -0.923 141 157 154
-30.5498 41.1327 68.2074 -0.568 -0.377 -0.732 107 113 113
-24.4539 37.7473 65.1116 -0.095 -0.597 -0.797 151 163 158
