ply
format ascii 1.0
element vertex 866
property float x
property float y
property float z
property float nx
property float ny
property float nz
property uchar diffuse_red
property uchar diffuse_green
property uchar diffuse_blue
end_header
-49.7185 32.2788 88.2433 0.390 -0.591 -0.706 78 60 68
-49.5158 32.2581 88.3726 0.390 -0.591 -0.706 128 39 44
-49.2667 32.2367 88.6370 -0.346 -0.618 -0.706 204 14 20
-48.3602 32.1139 88.4604 -0.574 -0.249 -0.780 82 85 84
-45.3020 31.4136 80.6539 0.008 0.412 -0.911 60 66 54
-45.1045 31.3920 80.7461 -0.076 0.473 -0.878 60 66 54
-44.9561 31.3721 80.7224 -0.076 0.473 -0.878 84 90 78
-44.8302 31.3530 80.6463 -0.632 0.425 -0.648 87 93 81
-43.8060 31.2425 81.1575 -0.356 -0.177 -0.918 61 74 48
-43.8431 31.1730 79.2862 -0.500 -0.603 -0.622 66 79 52
-39.5710 30.4317 74.3576 -0.623 -0.502 -0.600 105 106 101
-37.0311 30.1939 76.5397 0.497 -0.480 -0.722 70 83 91
-33.4238 29.5364 71.5831 -0.660 -0.144 -0.737 176 195 201
-32.1733 29.4098 72.4173 -0.672 -0.253 -0.696 177 196 202
-19.4671 27.5255 65.8315 -0.611 -0.073 -0.788 67 65 50
-19.2035 27.4945 65.9001 -0.363 -0.324 -0.874 65 63 48
-18.0386 27.3525 66.0711 -0.348 -0.500 -0.793 71 61 49
-17.8808 27.3305 66.0264 -0.369 -0.475 -0.799 75 67 54
-17.6867 27.2973 65.8129 -0.589 0.334 -0.736 77 67 54
-17.6714 27.2878 65.6239 -0.436 0.358 -0.826 84 72 57
-7.3454 25.9463 65.0565 0.112 -0.854 -0.509 80 66 55
5.4010 24.2520 63.3907 0.391 -0.195 -0.900 89 81 70
-58.6805 33.9879 98.3443 -0.886 -0.389 -0.252 189 208 206
-58.4804 33.9714 98.5600 -0.726 -0.592 -0.349 189 208 205
-57.6888 33.7813 96.3844 -0.385 -0.126 -0.914 74 89 105
-57.5258 33.7621 96.4189 -0.400 -0.170 -0.901 80 93 96
-57.3926 33.7410 96.3165 -0.432 -0.330 -0.839 79 89 88
-54.9725 33.4162 95.8849 -0.544 -0.728 -0.417 51 56 59
-54.8059 33.3963 95.9133 -0.628 -0.653 -0.423 57 61 64
-54.8021 33.3702 95.2918 -0.592 -0.482 -0.645 62 66 69
-52.6835 33.0572 94.2177 -0.186 0.897 -0.401 69 70 72
-51.7447 32.7763 90.2940 0.290 -0.450 -0.844 82 83 85
-49.5470 32.4123 88.2263 0.390 -0.591 -0.706 129 46 49
-49.3236 32.3918 88.4152 -0.182 -0.487 -0.854 206 15 19
-49.1690 32.3715 88.3986 0.266 -0.590 -0.763 227 17 14
-48.9806 32.3510 88.4801 0.266 -0.590 -0.763 177 58 47
-48.7855 32.3303 88.5796 -0.509 0.080 -0.857 112 102 92
-48.5378 32.2899 88.3621 -0.638 0.083 -0.765 78 88 81
-44.0471 31.4291 81.2982 -0.414 -0.172 -0.894 62 71 51
-43.9255 31.4100 81.2082 -0.422 -0.177 -0.889 62 75 51
-43.8006 31.3907 81.1256 -0.352 -0.174 -0.920 68 81 54
-43.4656 31.3493 81.1511 -0.377 -0.262 -0.888 77 89 65
-37.0769 30.3440 76.4203 0.430 -0.572 -0.699 43 55 62
-33.3272 29.6628 71.4357 -0.690 -0.054 -0.722 176 196 201
-27.0647 28.7716 69.0840 -0.602 -0.440 -0.666 127 138 132
-25.9052 28.5528 67.3434 -0.531 -0.055 -0.845 85 88 77
-25.7837 28.5343 67.2682 -0.531 -0.055 -0.845 90 93 72
-19.1513 27.6292 65.7171 -0.229 0.081 -0.970 67 65 50
-18.0627 27.5034 66.0154 -0.112 0.018 -0.994 72 62 50
-11.3494 26.6113 65.0278 -0.255 -0.876 -0.409 95 80 75
-11.1771 26.5878 64.9868 -0.278 -0.881 -0.384 77 62 55
-11.0539 26.5686 64.9015 -0.274 -0.883 -0.380 82 68 59
-10.1594 26.4318 64.3336 0.181 0.382 -0.906 86 69 59
-8.3001 26.2068 64.5959 0.064 -0.910 -0.409 83 69 58
-7.4676 26.1146 64.9213 0.004 -0.946 -0.324 82 68 57
-6.9089 26.0474 65.0083 -0.017 -0.946 -0.323 79 65 54
10.3258 23.8572 64.9013 0.225 -0.307 -0.925 63 59 47
13.6835 23.4698 65.8324 0.491 -0.101 -0.865 77 72 75
-66.3361 35.7438 113.0220 -0.455 0.376 -0.807 115 121 119
-57.7812 33.9637 96.6020 -0.370 -0.090 -0.924 73 90 109
-57.6757 33.9406 96.3708 -0.237 -0.037 -0.971 74 89 102
-54.8969 33.5526 95.4809 -0.574 -0.646 -0.503 51 55 58
-51.9161 32.9508 90.1913 -0.037 0.100 -0.994 73 77 80
-50.0052 32.6262 88.2290 -0.318 0.096 -0.943 79 78 82
-49.8568 32.6062 88.1979 -0.330 0.118 -0.937 75 78 81
-49.7228 32.5862 88.1231 0.375 -0.496 -0.784 79 78 79
-49.5521 32.5661 88.1576 0.358 -0.572 -0.738 127 56 56
-49.3224 32.5461 88.3652 0.212 -0.628 -0.749 209 15 22
-48.9674 32.5057 88.4654 0.239 -0.625 -0.743 175 49 39
-48.6136 32.4451 88.0913 -0.638 -0.656 -0.402 79 87 84
-45.3651 31.7395 81.1622 -0.122 -0.094 -0.988 61 68 55
-45.2442 31.7045 80.7010 -0.162 -0.216 -0.963 56 66 54
-44.6509 31.6257 80.6052 -0.449 -0.077 -0.890 57 66 55
-44.3796 31.5869 80.4967 -0.443 0.120 -0.889 69 82 59
-43.9052 31.5577 81.2102 -0.386 -0.172 -0.906 76 90 59
-43.7679 31.5381 81.1554 -0.386 -0.172 -0.906 83 97 63
-43.6452 31.5189 81.0678 -0.396 -0.312 -0.864 89 103 72
-43.4608 31.4979 81.1182 -0.399 -0.288 -0.871 94 107 80
-33.1858 29.8647 73.1891 -0.741 -0.511 -0.436 173 191 196
-32.9100 29.8139 72.8133 -0.778 -0.593 -0.208 183 199 203
-25.9732 28.7110 67.4515 -0.453 -0.200 -0.869 99 102 94
-25.8728 28.6941 67.3506 -0.427 -0.136 -0.894 73 75 63
-22.9254 28.2745 66.2182 -0.589 0.155 -0.793 171 173 160
-21.2875 28.0463 65.7043 -0.358 0.251 -0.900 102 102 90
-21.1374 28.0254 65.6577 -0.409 0.289 -0.866 96 96 84
-20.7288 27.9749 65.6798 -0.118 -0.104 -0.988 110 110 98
-18.7020 27.7311 65.9455 -0.107 0.284 -0.953 64 60 45
-18.4905 27.7050 65.9574 -0.210 0.082 -0.974 72 64 51
-18.0993 27.6553 65.9469 -0.459 -0.489 -0.741 72 62 50
-16.7173 27.4796 65.9083 -0.036 -0.776 -0.630 90 79 58
-16.4735 27.4506 65.9472 -0.018 -0.762 -0.648 90 79 57
-16.0397 27.3969 65.9693 -0.088 -0.935 -0.344 92 81 60
-6.9051 26.1880 64.5939 -0.012 -0.944 -0.330 82 68 59
3.2012 24.8733 63.6072 -0.834 -0.459 -0.307 78 72 60
3.1294 24.8722 63.3703 -0.856 -0.456 -0.242 85 77 64
8.3420 24.2621 64.4487 -0.821 0.538 -0.191 62 55 47
-71.1832 35.5245 90.3838 -0.979 0.192 -0.064 35 40 33
-65.6015 35.9267 115.1615 0.482 -0.302 -0.823 94 105 99
-58.1023 34.1927 97.2115 -0.804 0.097 -0.587 103 123 119
-57.7721 34.1229 96.5699 -0.517 0.376 -0.769 69 87 103
-57.6686 34.0993 96.3301 -0.557 0.391 -0.733 93 108 121
-56.2054 33.7806 93.2692 -0.541 0.194 -0.818 68 73 76
-56.0737 33.7601 93.1772 -0.541 0.194 -0.818 63 67 70
-52.7883 33.4252 94.8825 -0.551 0.487 -0.678 56 57 61
-51.1787 32.9605 88.9455 -0.767 0.429 -0.477 77 81 80
-50.5211 32.8600 88.5340 -0.527 -0.176 -0.831 71 72 74
-50.2485 32.8200 88.3991 -0.207 0.234 -0.950 74 73 74
-49.9791 32.7798 88.2542 -0.783 -0.423 -0.457 89 89 91
-49.7514 32.7606 88.4612 -0.861 0.064 -0.505 82 82 83
-49.7088 32.7397 88.1114 0.192 -0.807 -0.558 85 81 81
-49.6089 32.7194 87.9352 0.125 -0.876 -0.467 127 64 63
-49.3762 32.7000 88.1526 0.155 -0.836 -0.526 199 23 26
-49.1866 32.6802 88.2401 0.155 -0.836 -0.526 227 7 10
-43.7882 31.6870 81.0659 -0.407 -0.291 -0.866 92 109 70
-43.6521 31.6675 81.0085 -0.407 -0.291 -0.866 91 108 72
-43.4540 31.6463 81.0896 -0.406 -0.314 -0.858 85 101 67
-41.5425 31.2091 76.6223 -0.516 -0.087 -0.852 67 66 61
-41.4024 31.1898 76.5817 -0.424 -0.056 -0.904 55 54 49
-41.2586 31.1704 76.5482 -0.460 -0.062 -0.886 73 72 68
-39.4229 30.9585 76.9443 -0.597 0.766 -0.237 97 96 92
-39.6313 30.8599 74.1349 -0.701 0.620 -0.351 101 97 94
-34.9983 30.2187 72.7349 -0.873 -0.487 -0.034 177 193 192
-33.5286 30.0658 73.4284 -0.274 -0.921 -0.278 176 191 196
-32.7708 29.9282 72.4622 -0.548 -0.634 -0.546 197 208 209
-32.6554 29.9099 72.3740 -0.470 -0.630 -0.618 198 209 210
-32.5416 29.8916 72.2836 -0.463 -0.654 -0.598 199 210 211
-30.8384 29.5645 69.7091 -0.512 0.095 -0.854 92 101 100
-30.7492 29.5481 69.5903 -0.493 0.116 -0.862 99 109 108
-30.6222 29.5292 69.5239 -0.491 0.097 -0.866 111 120 119
-29.4279 29.3668 69.2282 -0.515 -0.255 -0.818 145 154 151
-29.0841 29.3127 68.9758 -0.632 -0.051 -0.773 134 144 141
-28.9749 29.2950 68.8849 -0.627 -0.062 -0.777 136 146 143
-24.6763 28.6732 66.9809 -0.383 -0.385 -0.840 80 81 63
-22.4382 28.3635 66.3058 -0.669 -0.044 -0.742 184 187 178
-19.1261 27.9219 65.6815 -0.090 0.141 -0.986 55 52 37
-18.2275 27.8141 65.7847 -0.437 0.334 -0.835 74 62 50
-17.8836 27.7685 65.7252 -0.161 0.178 -0.971 89 79 67
-15.9796 27.5336 65.7939 0.027 -0.853 -0.522 88 76 59
-11.3615 26.9105 64.7592 -0.678 0.260 -0.688 87 72 67
-11.2389 26.8914 64.6739 -0.411 -0.120 -0.904 87 72 65
-11.0925 26.8702 64.6101 -0.411 -0.120 -0.904 86 71 64
-8.2970 26.5176 64.5374 -0.932 -0.212 -0.294 89 75 64
3.2104 25.0370 63.5831 -0.876 -0.361 -0.320 94 88 76
3.2551 25.0247 63.4303 -0.694 -0.352 -0.628 84 76 63
10.6038 24.1687 64.8379 -0.748 -0.166 -0.643 73 67 55
-57.7563 34.2827 96.5691 -0.422 0.386 -0.821 77 96 110
-51.8449 33.2378 89.7902 -0.262 0.118 -0.958 80 84 85
-51.8522 33.2138 89.2493 -0.083 -0.199 -0.976 87 91 92
-50.6520 33.0334 88.5635 -0.149 -0.546 -0.824 80 84 83
-50.1824 32.9744 88.5470 -0.296 0.331 -0.896 94 96 95
-50.0048 32.9550 88.6040 -0.291 0.244 -0.925 92 96 94
-49.8461 32.9352 88.6024 -0.859 -0.088 -0.505 93 95 92
-49.5970 32.8946 88.3922 -0.648 -0.115 -0.753 94 83 84
-49.5207 32.8738 88.1441 -0.637 -0.320 -0.701 124 70 68
-49.3555 32.8540 88.1607 0.226 -0.760 -0.609 190 37 36
-49.2153 32.8340 88.1027 0.261 -0.746 -0.612 231 11 18
-49.0182 32.8145 88.2107 0.261 -0.746 -0.612 187 32 32
-45.7464 32.1082 81.6756 -0.846 -0.010 -0.534 42 50 37
-44.3142 31.8626 80.1961 -0.638 -0.274 -0.720 109 130 91
-43.7896 31.8353 81.0188 -0.398 -0.317 -0.861 110 131 89
-43.6486 31.8157 80.9725 -0.394 -0.327 -0.859 103 124 84
-43.4590 31.7950 81.0346 -0.506 -0.309 -0.805 78 99 60
-43.8945 31.7557 79.0033 -0.492 0.106 -0.864 83 101 51
-43.7522 31.7364 78.9669 -0.495 0.115 -0.861 86 102 52
-42.9431 31.5748 77.6352 -0.453 0.177 -0.873 100 103 95
-41.4960 31.3807 77.3184 -0.533 -0.336 -0.776 65 64 59
-41.4110 31.3631 77.1655 -0.540 -0.308 -0.783 59 58 53
-41.5358 31.3524 76.5960 -0.416 -0.032 -0.909 60 59 54
-34.6266 30.3559 73.5630 -0.969 0.203 -0.142 176 192 191
-34.6879 30.3465 73.1928 -0.958 0.242 -0.155 177 193 190
-34.2370 30.2860 73.0941 -0.593 -0.734 -0.331 181 197 196
-31.7003 29.8147 69.6881 -0.256 -0.216 -0.942 136 141 140
-30.8815 29.7098 69.6161 -0.441 0.066 -0.895 114 119 118
-30.7440 29.6904 69.5642 -0.447 0.059 -0.892 121 127 125
-30.3442 29.6328 69.3902 -0.535 0.088 -0.840 150 157 154
-24.8375 28.8388 66.9787 -0.741 -0.356 -0.570 78 80 58
-24.6516 28.8157 66.9783 -0.435 -0.446 -0.782 80 79 61
-9.7332 26.8653 64.8112 0.149 -0.619 -0.771 82 68 59
-8.2541 26.6082 63.2093 -0.225 -0.275 -0.935 76 62 53
-2.9040 25.9626 63.6046 0.390 0.016 -0.921 92 80 68
3.1643 25.2058 63.5189 -0.876 -0.361 -0.320 89 83 71
-65.9048 36.3312 115.1509 0.209 0.060 -0.976 99 109 101
-65.4354 36.1886 113.3682 -0.989 0.003 -0.146 49 66 78
-58.5274 34.7199 100.3656 -0.966 -0.203 -0.162 189 208 206
-57.7221 34.4443 96.6537 -0.529 0.413 -0.742 107 123 135
-53.0967 33.7313 93.6351 -0.951 -0.270 -0.151 53 57 58
-51.6285 33.3742 89.9270 -0.235 -0.354 -0.905 85 89 90
-50.5313 33.1662 88.3932 -0.340 0.151 -0.928 80 87 85
-50.1496 33.1287 88.5931 -0.296 0.331 -0.896 94 97 94
-49.9932 33.1091 88.5850 -0.284 0.309 -0.908 92 97 92
-49.8713 33.0887 88.4722 -0.781 0.341 -0.523 92 95 88
-49.3374 33.0082 88.1606 -0.472 0.048 -0.881 180 41 40
-44.3180 32.0090 80.1439 -0.638 -0.274 -0.720 94 115 75
-44.2100 31.9902 80.0282 -0.652 -0.259 -0.713 94 115 72
-43.6523 31.9639 80.9206 -0.340 -0.372 -0.863 88 109 66
-43.4636 31.9436 80.9805 -0.506 -0.309 -0.805 71 92 51
-43.8681 31.9001 79.0190 -0.551 0.189 -0.813 74 92 44
-43.6901 31.8802 79.0607 -0.736 -0.102 -0.669 73 89 41
-41.4307 31.5235 77.4092 -0.478 -0.243 -0.844 54 53 48
-41.2491 31.4573 76.4877 -0.489 -0.154 -0.858 93 92 88
-38.8543 31.1720 76.6901 -0.430 0.404 -0.807 114 110 107
-36.0488 30.6450 72.8705 -0.695 -0.239 -0.678 171 190 196
-35.7006 30.5902 72.6190 -0.380 -0.131 -0.916 171 190 195
-35.5657 30.5710 72.5657 -0.380 -0.131 -0.916 176 192 192
-35.4182 30.5513 72.5324 -0.440 -0.170 -0.882 176 192 191
-35.2880 30.5323 72.4711 -0.440 -0.170 -0.882 176 192 189
-34.2697 30.4069 72.4716 -0.359 -0.272 -0.893 197 211 214
-34.1028 30.3861 72.4652 -0.208 -0.388 -0.898 203 217 220
-32.2074 30.0551 70.4119 -0.587 0.092 -0.805 97 106 103
-30.8882 29.8528 69.5735 -0.083 -0.319 -0.944 123 126 125
-24.5762 28.9445 66.8170 -0.191 -0.557 -0.809 88 85 68
-20.1884 28.3930 66.5829 -0.726 0.123 -0.677 106 104 89
-19.3079 28.2495 65.8432 0.014 -0.010 -1.000 70 64 52
-16.3490 27.8529 65.1666 0.095 -0.310 -0.946 84 71 56
-16.1647 27.8293 65.1461 -0.472 -0.283 -0.835 85 72 56
-9.0587 26.9279 64.5926 -0.988 0.133 0.075 88 71 61
-8.6234 26.7924 62.8698 -0.364 -0.161 -0.917 76 62 53
-2.3733 26.0581 63.6142 0.103 -0.146 -0.984 79 67 55
8.3189 24.7670 64.1516 -0.167 0.158 -0.973 78 69 60
7.9580 24.7908 63.7183 0.016 0.132 -0.991 71 62 53
-58.5224 34.9233 101.1156 -0.951 -0.220 -0.218 190 209 205
-58.5452 34.8809 100.1948 -0.967 -0.196 -0.166 190 209 205
-55.5056 34.1453 92.7811 -0.851 0.328 -0.410 56 60 63
-50.5825 33.3177 88.1805 0.156 -0.664 -0.732 78 87 84
-50.4070 33.2989 88.2354 0.159 -0.658 -0.736 88 97 94
-49.9825 33.2632 88.5633 0.282 -0.555 -0.783 92 97 92
-42.5408 31.7892 77.0680 -0.512 -0.399 -0.761 90 93 86
-42.2847 31.7516 76.9403 -0.344 -0.272 -0.898 78 79 73
-42.1346 31.7323 76.9211 -0.336 -0.374 -0.864 69 70 64
-38.7953 31.3163 76.7603 -0.421 0.465 -0.779 110 106 103
-39.5340 31.3099 74.7921 -0.728 -0.149 -0.669 94 90 87
-36.7539 31.0247 75.9043 0.603 -0.546 -0.582 108 112 115
-36.0870 30.7894 72.7719 -0.408 -0.161 -0.899 167 186 192
-35.8209 30.7514 72.6600 -0.419 -0.183 -0.889 176 195 201
-35.6940 30.7326 72.5939 -0.426 -0.198 -0.883 179 198 203
-35.5568 30.7134 72.5443 -0.408 -0.179 -0.895 177 192 194
-35.4147 30.6940 72.5023 -0.445 -0.161 -0.881 183 199 198
-30.3076 29.9161 69.3737 -0.618 -0.355 -0.702 140 146 144
-30.1918 29.8980 69.2917 -0.543 -0.368 -0.755 121 127 125
-30.0638 29.8791 69.2264 -0.489 -0.262 -0.832 94 100 98
-26.5848 29.3787 67.6952 -0.777 0.053 -0.627 183 185 174
-26.4944 29.3621 67.5818 -0.664 -0.067 -0.745 180 183 172
-26.3815 29.3441 67.4962 -0.654 -0.080 -0.752 143 147 133
-26.2639 29.3258 67.4164 -0.611 -0.103 -0.785 81 85 71
-24.7843 29.1234 66.9779 -0.357 -0.522 -0.775 91 93 72
-24.6565 29.1044 66.9094 -0.407 -0.507 -0.760 94 93 73
-16.0960 27.9734 65.1826 -0.313 -0.286 -0.906 88 77 59
-8.9819 27.0766 64.6287 -0.990 0.109 0.094 90 76 65
-8.7565 27.0492 64.6301 -0.935 0.139 -0.327 90 76 65
-8.7468 27.0389 64.4450 -0.921 0.134 -0.366 89 75 64
3.2960 25.5323 63.7382 -0.549 0.652 -0.522 88 82 70
3.4190 25.5125 63.6415 -0.382 0.703 -0.600 88 82 70
-66.0491 36.6316 113.4852 0.232 -0.850 -0.473 103 109 105
-65.4450 36.5340 113.0054 -0.989 0.040 -0.142 54 72 84
-58.5655 35.0410 100.0119 -0.964 -0.206 -0.169 192 211 207
-55.6465 34.5843 97.9879 -0.746 -0.666 -0.002 77 83 83
-55.2614 34.5166 97.5730 -0.391 -0.813 -0.431 82 88 88
-55.2296 34.4855 97.0367 -0.995 -0.091 -0.045 65 70 73
-55.2051 34.4542 96.4772 -0.999 0.009 0.037 58 62 65
-55.2178 34.4201 95.7729 -0.975 0.206 0.087 52 56 59
-53.4503 34.0846 93.3831 -0.796 -0.593 -0.121 60 64 63
-53.0720 34.0204 93.0220 -0.933 0.075 -0.353 65 69 68
-52.9154 34.0009 93.0118 -0.146 -0.165 -0.975 76 80 79
-50.3719 33.8227 95.5853 -0.520 -0.846 -0.120 80 84 85
-46.0570 32.6077 81.9381 -0.232 -0.707 -0.668 62 72 57
-46.0499 32.5882 81.5700 -0.442 -0.377 -0.814 61 72 55
-44.9481 32.4344 81.1723 -0.230 -0.152 -0.961 96 117 80
-42.2869 31.8948 76.8956 -0.340 -0.237 -0.910 72 73 67
-40.2118 31.6091 76.2235 -0.758 -0.304 -0.577 86 85 81
-39.7378 31.4884 74.9767 -0.633 -0.169 -0.756 107 103 100
-35.6082 30.8582 72.4260 -0.532 -0.243 -0.811 194 209 211
-32.5899 30.3965 70.5400 -0.586 0.081 -0.806 139 150 146
-32.4759 30.3784 70.4552 -0.586 0.081 -0.806 139 151 147
-30.4709 30.0795 69.3576 -0.561 -0.348 -0.751 24 30 28
-30.3207 30.0595 69.3227 -0.610 -0.354 -0.709 28 34 32
-30.2036 30.0413 69.2426 -0.574 -0.340 -0.745 35 41 39
-30.0665 30.0220 69.1896 -0.508 -0.313 -0.803 41 47 45
-26.8802 29.5739 67.9746 -0.498 -0.154 -0.853 162 164 159
-26.8626 29.5614 67.7704 -0.403 -0.021 -0.915 169 172 166
-26.2249 29.4669 67.4320 -0.623 0.012 -0.782 69 73 59
-24.8379 29.2708 66.8835 -0.488 -0.478 -0.730 100 102 81
-19.3329 28.5669 66.1701 -0.444 0.621 -0.646 65 59 47
-18.2569 28.4616 66.6669 0.251 0.693 -0.676 72 65 55
-17.5545 28.3602 66.3484 -0.778 0.541 -0.319 80 64 48
-17.5880 28.3521 66.1075 -0.775 0.546 -0.317 84 68 52
-17.4487 28.3319 66.0428 -0.302 0.292 -0.907 89 73 58
-16.1493 28.1265 65.0999 -0.101 -0.533 -0.840 95 84 66
2.8132 25.7380 63.3574 -0.464 0.208 -0.861 88 82 70
-69.3551 36.0797 91.8441 -0.667 0.711 -0.223 100 94 80
-58.5956 35.2410 100.5809 -0.965 -0.231 -0.122 191 210 206
-58.5513 35.2054 100.0028 -0.967 -0.163 -0.194 192 211 205
-57.4999 35.0624 99.6882 0.065 -0.848 -0.526 80 93 93
-57.4422 35.0303 99.2060 -0.475 -0.638 -0.606 97 111 111
-55.7490 34.7722 98.1667 -0.744 -0.669 0.004 70 76 76
-55.7225 34.7390 97.5929 -0.744 -0.669 0.004 69 75 75
-55.2973 34.6753 97.3530 -0.398 -0.810 -0.430 65 71 71
-55.2311 34.6468 96.9610 -0.995 -0.093 -0.046 68 73 76
-55.2064 34.6147 96.4030 -0.999 0.009 0.037 65 69 72
-55.1731 34.5837 95.8866 -0.975 0.204 0.086 57 61 64
-55.2451 34.5435 94.9509 -0.960 0.256 0.114 64 68 71
-53.6157 34.2608 93.2961 -0.907 -0.392 -0.151 70 74 73
-53.5944 34.2319 92.7908 -0.829 -0.536 -0.160 70 74 73
-53.1271 34.2346 93.9189 -0.772 -0.636 0.007 73 77 76
-53.0965 34.1762 92.8717 -0.753 -0.658 0.011 67 71 70
-52.7836 34.1079 92.2869 -0.309 -0.948 -0.081 78 82 81
-46.0501 32.7350 81.5242 -0.281 -0.220 -0.934 60 71 55
-45.9740 32.7155 81.3263 -0.748 -0.201 -0.633 71 82 66
-42.5141 32.0751 77.0421 -0.493 -0.244 -0.835 76 79 72
-42.3878 32.0564 76.9747 -0.365 -0.271 -0.891 75 78 71
-42.2576 32.0376 76.9150 -0.594 -0.069 -0.802 70 71 65
-42.1267 32.0188 76.8567 -0.338 -0.292 -0.895 70 71 65
-41.9934 31.9999 76.8032 -0.353 -0.263 -0.898 78 77 72
-41.0451 31.8347 75.8254 -0.377 -0.589 -0.715 95 94 90
-40.7221 31.8122 76.1390 -0.775 0.115 -0.621 88 87 83
-39.7575 31.6314 74.9021 -0.505 -0.452 -0.735 110 106 103
-36.5879 31.2979 75.8218 0.629 -0.491 -0.603 136 140 143
-33.4659 30.7234 72.0200 -0.559 -0.094 -0.824 103 117 118
-33.3530 30.7051 71.9300 -0.548 -0.088 -0.832 116 129 130
-33.2380 30.6868 71.8435 -0.538 -0.092 -0.838 122 132 133
-26.8541 29.7280 68.2017 -0.330 0.126 -0.936 156 158 153
-26.8786 29.7175 67.9443 -0.497 -0.176 -0.849 164 166 161
-26.7526 29.6987 67.8744 -0.497 -0.176 -0.849 169 172 166
-24.8284 29.4142 66.8630 -0.565 -0.274 -0.779 103 105 84
-14.2009 28.0036 64.3521 -0.082 0.219 -0.972 92 76 63
-7.1445 27.0971 63.2607 -0.800 0.429 -0.419 81 67 56
-2.0610 26.5115 63.7655 -0.144 0.528 -0.837 82 72 60
-0.3315 26.2461 62.6714 0.299 0.318 -0.900 78 70 57
0.1546 26.1874 62.6663 0.420 -0.003 -0.908 87 79 66
-67.9331 37.3400 115.7393 0.358 0.478 -0.802 60 53 43
-66.1105 36.9541 112.6156 0.099 -0.881 -0.463 111 114 106
-65.5330 36.9284 113.4192 -0.910 -0.240 -0.338 45 60 68
-65.4040 36.8957 113.0986 -0.941 -0.078 -0.330 67 86 98
-60.0530 35.8082 104.7707 0.630 0.204 -0.750 69 88 100
-58.9638 35.5233 101.8955 -0.612 -0.611 -0.503 185 208 202
-57.5449 35.2193 99.3973 0.081 -0.842 -0.533 84 98 99
-57.4536 35.1911 99.0755 -0.477 -0.635 -0.608 79 95 94
-55.2050 34.7056 95.0458 -0.982 0.154 0.112 68 72 75
-54.0211 34.6121 95.9371 0.072 -0.209 -0.975 72 76 77
-53.5873 34.4204 93.3377 -0.962 -0.272 0.008 78 82 81
-53.1622 34.3906 93.7278 -0.599 -0.800 -0.022 83 87 86
-53.0857 34.3651 93.4244 -0.636 -0.771 -0.017 75 79 78
-53.1089 34.3324 92.7650 -0.598 -0.801 -0.036 70 74 73
-52.9833 34.3110 92.6456 -0.165 -0.957 -0.237 81 85 84
-51.6042 33.9097 88.2523 0.058 -0.855 -0.516 83 85 84
-46.0407 32.8817 81.5016 -0.381 -0.261 -0.887 73 84 68
-42.2475 32.1807 76.8953 -0.594 -0.069 -0.802 68 69 63
-42.1389 32.1621 76.7918 -0.574 -0.075 -0.816 71 71 66
-41.7006 32.0709 76.0704 -0.460 -0.317 -0.829 87 86 81
-41.5354 32.0518 76.0813 -0.489 -0.367 -0.791 81 80 75
-40.6666 32.0230 77.4744 -0.673 -0.068 -0.737 87 86 81
-40.5832 32.0046 77.3173 -0.581 0.064 -0.811 90 89 84
-40.4794 31.9859 77.2010 -0.657 -0.001 -0.754 88 87 83
-40.2182 31.9649 77.3903 -0.471 -0.206 -0.858 88 87 83
-39.8030 31.7748 74.7798 -0.317 -0.049 -0.947 112 108 104
-39.5865 31.7382 74.5820 -0.633 -0.311 -0.709 122 118 115
-35.8505 31.2243 73.3253 -0.562 -0.120 -0.818 194 213 218
-35.4670 31.1677 73.1254 -0.307 -0.342 -0.888 178 196 201
-33.3268 30.8480 71.9347 -0.457 -0.049 -0.888 134 145 146
-33.2197 30.8299 71.8362 -0.541 -0.099 -0.835 139 148 149
-28.9064 30.1500 68.7779 -0.512 -0.399 -0.761 120 125 121
-23.4005 29.3369 65.8921 -0.494 -0.205 -0.845 174 177 166
-19.8438 28.9283 66.1953 -0.166 -0.208 -0.964 77 75 60
-12.0259 27.8543 63.5939 -0.175 0.288 -0.942 90 76 63
-11.8277 27.8299 63.5788 -0.157 0.265 -0.952 90 78 64
-7.9762 27.3849 63.8604 -0.041 -0.862 -0.506 84 72 58
-2.2167 26.6735 63.4271 -0.313 -0.722 -0.616 77 67 57
4.6024 25.9114 64.4030 -0.993 0.105 0.050 90 84 72
3.4662 25.9536 62.6639 -0.195 -0.500 -0.843 87 81 67
7.5008 25.5346 63.8344 -0.878 -0.418 -0.234 66 57 48
9.7008 25.2628 63.6669 -0.219 0.301 -0.928 84 80 69
9.7189 25.2513 63.4948 -0.050 -0.061 -0.997 83 79 68
-69.2071 36.4237 93.1732 -0.975 0.196 -0.108 93 85 72
-66.0496 37.1506 113.0494 0.138 -0.857 -0.497 126 128 118
-65.7183 37.1134 113.0872 -0.212 -0.811 -0.545 92 99 93
-65.5355 37.1012 113.2577 -0.906 -0.236 -0.351 51 67 75
-65.4047 37.0689 112.9550 -0.935 -0.106 -0.340 71 93 104
-60.0257 35.9814 104.8349 0.630 0.203 -0.750 62 81 93
-59.1585 35.7010 101.6293 -0.609 -0.581 -0.541 183 206 200
-58.9250 35.6484 101.1800 -0.836 -0.511 -0.200 179 202 196
-58.8370 35.6175 100.8108 -0.844 -0.501 -0.191 184 205 200
-57.5969 35.3743 99.0738 0.166 0.642 -0.749 77 93 92
-57.4262 35.3570 99.1272 0.153 0.648 -0.746 74 90 89
-55.9796 35.0697 97.0358 -0.637 -0.770 0.025 49 55 55
-55.3901 34.9882 96.8269 -0.353 -0.649 -0.674 61 65 68
-53.8181 34.6229 93.5969 -0.748 -0.646 -0.150 77 81 80
-53.6933 34.6011 93.4703 -0.958 -0.003 -0.286 77 81 80
-53.5790 34.5784 93.3055 -0.977 0.094 -0.194 78 82 81
-53.0894 34.4909 92.7733 -0.457 -0.697 -0.553 85 89 88
-52.9712 34.4688 92.6270 -0.347 -0.259 -0.901 82 84 83
-51.4582 34.0422 88.1651 0.064 -0.853 -0.518 86 88 87
-46.0493 33.0282 81.4355 -0.348 -0.264 -0.900 85 98 77
-45.2538 32.9344 81.4436 -0.870 -0.139 -0.473 74 90 60
-45.0953 32.9155 81.4415 -0.686 -0.072 -0.724 77 97 60
-43.0065 32.4730 77.9251 -0.267 -0.271 -0.925 99 102 96
-40.4964 32.1668 77.7686 -0.873 -0.335 -0.354 92 89 81
-39.9726 31.9362 74.7272 -0.732 0.169 -0.660 103 100 92
-39.8198 31.9172 74.7109 -0.330 -0.041 -0.943 105 102 94
-39.5919 31.8804 74.5343 -0.667 -0.363 -0.650 102 101 96
-35.8540 31.3680 73.2833 -0.510 -0.091 -0.856 146 156 158
-35.5992 31.3304 73.1488 -0.288 -0.275 -0.917 122 132 134
-33.2331 30.9741 71.7811 -0.464 0.013 -0.886 138 144 142
-30.5307 30.5361 69.6576 -0.257 -0.297 -0.920 88 94 92
-23.9507 29.5822 66.5176 -0.517 -0.373 -0.771 89 90 72
-22.4558 29.3918 66.2802 -0.348 -0.455 -0.820 176 179 168
-21.4494 29.2635 66.1184 -0.241 -0.170 -0.956 113 113 103
-12.8644 28.1698 64.7462 0.341 -0.237 -0.910 94 76 64
-7.3201 27.4608 63.8104 0.027 -0.378 -0.925 96 82 71
-7.5646 27.4368 62.8540 -0.676 0.621 -0.397 87 73 62
-3.2219 26.9500 63.3602 -0.121 -0.401 -0.908 84 74 62
-2.9870 26.9220 63.3574 -0.143 -0.398 -0.906 85 75 63
-1.1974 26.6834 62.8792 -0.947 0.219 -0.234 83 73 61
5.1539 26.0352 64.7696 -0.999 -0.039 -0.004 89 83 69
4.0641 26.0594 62.8748 -0.262 0.184 -0.947 88 82 66
8.3535 25.5734 63.2795 0.403 -0.218 -0.889 88 85 68
8.5091 25.5506 63.2014 0.343 -0.496 -0.798 89 86 71
9.7427 25.4300 63.6636 -0.143 0.511 -0.848 87 85 64
10.3297 25.3719 63.8719 -0.121 0.510 -0.852 88 85 66
-65.7164 37.2870 112.9647 -0.223 -0.795 -0.563 85 93 87
-65.5563 37.2662 112.9306 -0.223 -0.795 -0.563 59 75 83
-65.3818 37.2510 113.0229 -0.063 -0.773 -0.631 79 102 113
-60.7390 36.2109 104.3528 -0.856 -0.512 0.071 82 103 104
-60.0730 36.1393 104.4721 0.640 0.177 -0.748 59 79 88
-59.1995 35.8575 101.3287 -0.547 -0.613 -0.571 180 205 199
-58.7042 35.7114 99.7877 -0.841 -0.484 -0.243 137 157 148
-58.6090 35.6822 99.4716 -0.859 -0.083 -0.505 124 144 135
-58.4875 35.6576 99.2900 -0.855 -0.055 -0.516 95 116 109
-58.3943 35.6284 98.9704 -0.937 -0.057 -0.345 58 79 72
-57.6701 35.5680 99.4055 0.214 0.599 -0.772 66 80 80
-57.5036 35.5503 99.4380 0.214 0.599 -0.772 65 79 79
-56.2194 35.2777 97.3045 -0.713 -0.699 -0.056 50 56 56
-55.6948 34.9317 92.3149 -0.414 -0.148 -0.898 63 67 70
-53.7207 34.7559 93.3052 -0.509 -0.411 -0.756 85 89 88
-53.5827 34.7353 93.2289 -0.575 -0.354 -0.738 79 83 82
-53.4598 34.7134 93.0969 -0.551 -0.361 -0.753 80 84 83
-53.3162 34.6933 93.0411 -0.336 0.182 -0.924 86 90 89
-49.6069 33.9962 88.4635 -0.370 -0.472 -0.800 83 85 76
-49.0549 33.9432 88.6727 -0.256 0.093 -0.962 157 60 47
-46.3887 33.2332 81.7156 -0.338 -0.499 -0.798 75 89 63
-46.2503 33.2142 81.6688 -0.338 -0.499 -0.798 70 85 58
-45.3911 33.1442 82.2130 -0.933 0.086 -0.351 57 73 43
-45.1796 33.0615 81.1981 -0.865 -0.175 -0.471 66 86 50
-41.7966 32.4105 76.7568 -0.594 0.040 -0.804 92 89 80
-40.7810 32.3698 78.1387 -0.918 -0.121 -0.379 87 84 75
-41.3948 32.3361 76.2797 -0.485 0.431 -0.760 88 85 76
-40.0770 32.0965 74.7953 -0.705 -0.232 -0.670 103 100 91
-39.8894 32.0772 74.8435 -0.465 0.271 -0.842 102 99 90
-36.3636 31.7004 75.5094 -0.679 -0.395 -0.619 187 194 195
-36.3515 31.6024 73.8151 -0.715 -0.270 -0.644 161 169 171
-35.8401 31.5112 73.2698 -0.547 -0.002 -0.837 77 87 88
-33.5044 31.1709 72.1178 -0.567 -0.172 -0.806 140 144 145
-23.9337 29.7254 66.5057 -0.511 -0.402 -0.760 84 90 69
-9.9217 27.9371 64.0452 0.158 -0.727 -0.669 97 83 72
-7.4083 27.5899 63.1403 -0.226 -0.226 -0.948 86 72 61
-1.1963 26.8427 62.8498 -0.210 0.191 -0.959 85 75 63
-0.7774 26.7800 62.6140 0.076 0.144 -0.987 91 81 71
3.9994 26.2391 62.9814 -0.997 0.020 -0.074 88 82 66
7.5672 25.8147 62.8985 -0.557 -0.466 -0.688 83 80 61
-60.8465 36.4082 104.5762 -0.859 -0.505 0.077 120 142 140
-58.8691 35.9376 100.4809 -0.829 -0.005 -0.560 151 174 168
-58.7784 35.9067 100.1336 -0.774 -0.110 -0.623 117 140 134
-58.4527 35.8247 99.3829 -0.806 -0.109 -0.582 51 70 64
-58.1195 35.8363 100.2434 -0.925 0.326 -0.196 69 88 82
-57.6023 35.7412 99.6505 0.161 0.653 -0.740 53 67 67
-56.5986 35.5493 98.3749 0.216 -0.649 -0.730 58 59 61
-56.1760 35.4441 97.4205 -0.930 -0.363 -0.056 50 56 56
-55.9391 35.3958 97.0666 -0.240 0.005 -0.971 46 55 54
-55.7926 35.3754 97.0107 -0.206 0.001 -0.979 46 52 52
-55.3928 35.3092 96.6759 0.243 -0.552 -0.798 61 67 67
-53.0441 34.8089 92.8127 0.147 0.786 -0.600 93 97 96
-49.7600 34.1689 88.4294 -0.375 -0.509 -0.775 81 92 80
-49.1468 34.0927 88.3489 -0.005 -0.790 -0.613 148 54 43
-46.4111 33.3791 81.6146 -0.400 -0.580 -0.710 67 86 54
-46.2728 33.3602 81.5680 -0.366 -0.583 -0.725 65 84 51
-46.2459 33.3384 81.2494 -0.271 -0.744 -0.610 64 84 50
-44.3787 33.0092 79.3473 -0.405 0.099 -0.909 93 104 91
-43.6804 32.8545 78.0977 -0.523 -0.010 -0.852 124 127 120
-43.5571 32.8357 78.0223 -0.523 -0.010 -0.852 103 106 99
-43.0416 32.7607 77.7684 -0.438 -0.322 -0.839 75 76 70
-41.3167 32.4604 76.0782 -0.802 -0.078 -0.592 93 89 78
-40.1495 32.2566 74.9229 -0.581 -0.472 -0.663 113 110 101
-40.0922 32.2385 74.7287 -0.714 -0.224 -0.664 104 101 92
-39.9257 32.2196 74.7381 -0.781 -0.031 -0.624 102 99 90
-38.8910 32.1932 76.3493 -0.894 -0.071 -0.442 102 99 90
-36.3835 31.8472 75.4375 -0.679 -0.395 -0.619 160 165 166
-31.3367 30.9792 70.6723 -0.518 -0.555 -0.651 93 97 96
-31.3091 30.9493 70.2159 -0.468 -0.384 -0.796 74 80 78
-24.0156 29.8862 66.5959 -0.383 -0.179 -0.906 96 105 86
-22.2091 29.6321 65.8568 -0.536 -0.370 -0.759 79 76 67
-20.5208 29.4562 66.2184 -0.202 0.257 -0.945 82 83 69
-20.3933 29.4371 66.1451 -0.065 -0.110 -0.992 82 83 69
-9.1388 27.9937 63.9249 -0.738 0.502 -0.450 93 79 68
-6.0898 27.6540 64.2007 0.008 -0.658 -0.753 85 71 60
0.8713 26.7866 63.2600 0.326 0.248 -0.912 84 75 66
7.4924 25.9880 62.8168 -0.620 -0.583 -0.525 82 79 61
-60.0598 36.4763 104.3638 0.527 -0.481 -0.701 44 63 71
-58.8577 36.1022 100.4571 -0.813 0.118 -0.570 103 123 118
-58.7508 36.0739 100.1919 -0.717 0.146 -0.682 95 113 109
-58.6425 36.0461 99.9372 -0.625 0.029 -0.780 57 73 68
-58.0907 36.0043 100.3053 -0.921 0.351 -0.168 71 87 82
-58.0206 35.9698 99.8660 -0.951 0.287 -0.117 69 85 80
-57.9207 35.9408 99.5767 -0.905 0.358 -0.230 73 87 84
-57.7395 35.9261 99.6810 0.112 0.749 -0.653 48 60 58
-57.6080 35.9027 99.5456 0.157 0.751 -0.642 49 59 58
-57.5177 35.8725 99.2164 0.195 0.709 -0.678 49 58 60
-56.5981 35.7111 98.3028 -0.957 0.033 -0.287 54 58 59
-56.5040 35.6826 98.0101 -0.955 0.036 -0.294 59 63 64
-56.4124 35.6539 97.7094 -0.955 0.036 -0.294 58 64 64
-56.4961 35.5997 96.6467 0.039 -0.353 -0.935 59 65 65
-56.0961 35.5340 96.3250 -0.707 0.251 -0.661 52 61 60
-55.9886 35.5086 96.1091 -0.750 0.353 -0.560 56 65 64
-55.7830 35.4968 96.3079 -0.727 0.376 -0.575 60 69 68
-55.6175 35.4793 96.3354 -0.723 0.401 -0.562 60 69 68
-55.5304 35.4512 96.0357 -0.661 0.457 -0.594 60 69 68
-53.7607 35.0656 93.0304 -0.060 0.802 -0.594 93 99 97
-52.1557 34.6545 89.2847 -0.884 -0.456 0.107 81 86 82
-49.8943 34.3137 87.9720 -0.615 -0.789 0.018 77 90 76
-48.9894 34.2279 88.2859 -0.224 -0.784 -0.579 210 17 12
-47.8867 33.7821 82.9968 -0.424 -0.175 -0.889 58 74 48
-46.6627 33.5405 81.3350 -0.818 -0.532 -0.217 60 79 50
-46.4207 33.4790 80.7781 -0.859 -0.484 -0.170 65 84 51
-45.2001 33.4229 82.1957 -0.307 0.678 -0.668 56 78 42
-43.9643 33.0558 78.4701 -0.717 -0.004 -0.697 111 117 108
-41.3694 32.6220 76.2507 -0.654 -0.331 -0.680 99 96 87
-40.1679 32.3986 74.8503 -0.513 -0.393 -0.763 100 97 88
-40.0676 32.3802 74.7364 -0.664 -0.214 -0.717 102 99 90
-39.9149 32.3615 74.7201 -0.857 0.164 -0.488 102 99 90
-38.8880 32.3386 76.3160 -0.821 -0.011 -0.570 102 99 90
-36.4034 31.9938 75.3657 -0.679 -0.395 -0.619 106 111 111
-35.4725 31.6772 71.8934 -0.282 -0.115 -0.952 129 133 132
-35.0477 31.6205 71.7679 -0.433 -0.190 -0.881 121 125 124
-28.8057 30.6078 66.9442 -0.473 -0.729 -0.495 148 154 152
-22.3203 29.7823 65.7037 -0.611 -0.380 -0.695 90 88 76
-10.8897 28.3277 63.5221 -0.638 0.099 -0.764 86 73 57
-9.0661 28.0970 63.1965 0.399 -0.188 -0.897 99 87 73
-6.1078 27.8007 63.9647 -0.211 -0.625 -0.751 91 77 66
-5.9084 27.7647 63.7490 -0.435 -0.416 -0.799 84 70 57
-4.5896 27.5631 62.9364 0.219 -0.229 -0.949 86 74 58
0.0949 27.0259 63.0216 0.426 0.191 -0.884 84 74 64
-69.5430 36.9653 91.8427 -0.799 -0.601 0.010 87 81 69
-69.5570 36.8714 90.2951 -0.883 -0.470 -0.010 82 76 63
-60.5525 36.6389 103.2872 -0.970 -0.057 -0.238 43 57 60
-58.8588 36.2643 100.3691 -0.806 0.157 -0.571 79 95 92
-58.7318 36.2397 100.2073 -0.717 0.146 -0.682 47 63 60
-58.6149 36.2132 99.9955 -0.676 0.082 -0.732 57 68 64
-58.1168 36.2111 100.8872 -0.973 0.194 -0.128 59 70 66
-58.0606 36.1729 100.3728 -0.929 0.314 -0.195 64 75 71
-57.9665 36.1422 100.0504 -0.949 0.265 -0.170 55 67 63
-57.7378 36.0888 99.6108 -0.036 -0.401 -0.915 49 58 57
-56.1411 35.7283 96.7407 -0.365 -0.927 -0.084 66 75 74
-55.6117 35.5989 95.6297 -0.790 -0.526 -0.316 60 69 66
-55.4580 35.5801 95.6102 -0.352 -0.393 -0.850 59 68 65
-55.3113 35.5602 95.5617 -0.400 -0.536 -0.743 60 69 66
-55.0853 35.4722 94.5562 -0.963 0.267 0.037 67 76 73
-54.9822 35.4469 94.3386 -0.986 0.167 0.009 74 83 80
-53.6857 35.2306 93.2455 -0.060 0.802 -0.594 93 99 97
-48.9502 34.4136 88.8195 -0.796 -0.584 -0.160 137 51 41
-48.0182 33.9738 83.4280 -0.756 -0.341 -0.559 63 77 52
-47.9467 33.9517 83.2028 -0.618 -0.108 -0.779 55 69 44
-46.7068 33.7084 81.5682 -0.661 -0.544 -0.516 60 76 46
-46.0535 33.4980 79.3738 -0.578 0.173 -0.797 69 89 54
-44.3741 33.2988 79.2718 -0.735 -0.000 -0.678 100 108 94
-44.2825 33.2791 79.1226 -0.776 0.026 -0.630 65 75 63
-43.9477 33.2000 78.4643 -0.639 -0.055 -0.767 135 141 131
-43.8728 33.1802 78.2828 -0.550 0.004 -0.835 110 116 106
-43.7578 33.1612 78.1890 -0.556 0.019 -0.831 103 106 99
-43.6297 33.1425 78.1238 -0.456 0.073 -0.887 96 99 92
-39.0978 32.3919 74.3950 -0.925 -0.091 -0.369 95 94 89
-35.0896 31.7632 71.6669 -0.519 -0.141 -0.843 90 94 93
-34.5960 31.6891 71.3851 -0.233 -0.096 -0.968 95 97 96
-31.9512 31.2532 69.2442 0.074 -0.203 -0.976 117 123 121
-31.7534 31.2327 69.2796 -0.216 -0.184 -0.959 117 123 121
-30.9436 31.1051 68.7193 -0.400 -0.278 -0.873 123 129 125
-30.9601 31.0910 68.4596 -0.341 -0.381 -0.859 124 130 126
-30.0897 30.9619 67.9880 -0.850 0.158 -0.503 127 131 130
-29.8984 30.9412 68.0090 -0.840 -0.125 -0.527 127 131 130
-29.6288 30.9179 68.1324 -0.632 0.070 -0.772 139 143 142
-29.0991 30.7865 66.9888 -0.203 0.471 -0.859 150 156 154
-28.8910 30.7512 66.8042 -0.653 -0.599 -0.463 149 155 153
-25.0174 30.3659 67.7713 -0.710 -0.406 -0.576 97 102 77
-22.3711 29.9291 65.6171 -0.652 -0.334 -0.681 101 99 87
-8.9227 28.2291 63.0995 0.180 -0.182 -0.967 93 79 66
-3.7628 27.7234 64.5087 0.126 -0.869 -0.479 92 78 65
-4.9886 27.7345 62.4059 -0.619 -0.593 -0.515 85 73 57
-1.6252 27.3613 62.6186 -0.349 -0.618 -0.704 77 67 55
0.3508 27.1691 63.1820 0.440 0.211 -0.873 88 78 66
3.9795 26.7904 63.7983 -0.522 -0.803 -0.288 86 80 68
7.0737 26.3531 62.4714 -0.789 -0.198 -0.582 56 53 36
-58.9828 36.4518 100.4656 -0.903 0.237 -0.358 81 96 93
-58.1504 36.3681 100.6404 -0.899 0.414 -0.141 37 46 43
-58.0926 36.3296 100.1362 -0.894 0.412 -0.177 42 51 48
-57.9700 36.3041 99.9538 -0.906 0.407 -0.119 41 50 47
-57.8868 36.2711 99.5834 -0.898 0.422 -0.125 44 50 48
-57.7272 36.2530 99.5834 -0.018 -0.459 -0.888 51 57 57
-55.5637 35.7645 95.7595 -0.578 -0.233 -0.782 60 69 66
-55.4376 35.7416 95.6256 -0.581 -0.229 -0.781 67 76 73
-55.0434 35.6354 94.6571 -0.941 0.339 0.010 66 75 72
-52.2521 35.0496 90.4248 -0.845 0.022 -0.535 78 83 79
-48.0686 34.1186 83.2458 -0.377 -0.303 -0.875 56 68 44
-46.6203 33.8581 81.7372 -0.274 -0.430 -0.860 69 86 54
-44.4053 33.4426 79.1591 -0.642 0.111 -0.759 68 76 62
-43.6367 33.2859 78.0670 -0.531 -0.040 -0.846 96 99 92
-43.5141 33.2671 77.9901 -0.539 -0.041 -0.841 71 74 67
-43.3743 33.2486 77.9499 -0.529 -0.040 -0.848 55 57 52
-41.8323 33.0860 78.1567 -0.250 -0.342 -0.906 91 90 85
-41.6756 33.0675 78.1456 -0.554 -0.310 -0.772 95 95 88
-39.8496 32.7029 75.6729 -0.618 -0.736 -0.278 92 89 80
-34.0081 31.6585 69.6857 -0.357 -0.311 -0.881 131 136 132
-32.3296 31.5280 70.6454 -0.179 -0.432 -0.884 129 133 132
-31.5979 31.4479 70.6968 -0.042 -0.368 -0.929 126 130 129
-29.9493 31.0545 67.4483 -0.312 0.150 -0.938 144 148 147
-29.9194 31.0391 67.2586 -0.084 0.048 -0.995 145 149 148
-29.4228 30.9945 67.4480 0.006 -0.113 -0.994 148 154 152
-29.3987 30.9793 67.2512 -0.331 -0.019 -0.943 149 155 155
-28.7578 30.8867 66.9415 -0.198 0.463 -0.864 154 160 158
-24.1005 30.3221 66.4044 -0.445 -0.297 -0.845 51 63 43
-14.9505 29.1664 64.6154 -0.104 -0.792 -0.601 95 79 68
-10.7030 28.6198 63.6254 -0.238 -0.145 -0.960 115 103 87
-10.0406 28.5446 63.6293 0.003 -0.262 -0.965 90 73 63
-8.8347 28.3765 63.1439 0.161 -0.231 -0.960 93 79 66
-8.5841 28.3494 63.1668 0.220 -0.387 -0.895 93 79 66
-4.3670 27.9211 63.9918 0.126 -0.869 -0.479 103 89 76
-1.5168 27.5128 62.6705 -0.601 -0.370 -0.708 82 73 58
3.5109 27.0115 63.8017 -0.711 -0.337 -0.618 80 72 61
-68.1191 38.1959 108.8551 -0.592 -0.371 -0.715 88 86 76
-68.0148 38.1485 108.3059 -0.451 0.169 -0.876 85 83 71
-61.3852 37.1734 104.8244 -0.837 -0.539 0.091 159 181 179
-59.7992 36.9827 104.6464 0.083 -0.422 -0.903 45 58 67
-58.0097 36.5091 100.4625 -0.978 0.057 -0.202 39 48 45
-57.8743 36.4858 100.3403 -0.959 0.230 -0.166 46 55 52
-57.8044 36.4495 99.9022 -0.901 0.417 -0.119 52 61 58
-57.6783 36.4247 99.7390 -0.189 -0.540 -0.820 51 57 57
-55.5008 35.9329 95.9507 -0.396 -0.205 -0.895 64 73 70
-55.3849 35.9083 95.7737 -0.491 -0.180 -0.852 69 78 75
-55.4303 35.8179 94.3005 -0.836 0.545 -0.063 68 77 74
-52.2007 35.2090 90.5402 -0.835 -0.021 -0.549 82 87 83
-51.9719 35.1986 90.7783 -0.924 -0.375 0.078 82 87 83
-43.7601 33.4482 78.1006 -0.613 0.030 -0.790 94 97 88
-39.9614 32.8852 76.0378 -0.248 0.220 -0.943 91 88 79
-39.5461 32.7507 74.6882 -0.110 -0.736 -0.668 105 102 93
-32.5274 31.5787 68.8486 -0.425 0.042 -0.904 126 130 129
-32.0934 31.5380 68.9775 -0.151 0.004 -0.989 125 131 129
-31.8277 31.5165 69.1088 -0.211 -0.099 -0.972 126 132 130
-30.2779 31.2483 67.6739 -0.379 -0.281 -0.882 137 141 140
-30.2198 31.2318 67.5200 -0.514 -0.310 -0.800 137 141 140
-30.0405 31.2119 67.5260 -0.511 -0.216 -0.832 144 148 147
-29.9131 31.1935 67.4635 -0.418 0.015 -0.908 144 148 147
-29.8246 31.1761 67.3503 -0.199 -0.206 -0.958 144 148 147
-28.6727 31.0243 67.0176 -0.197 0.589 -0.784 154 160 158
-16.3603 29.5295 65.4231 -0.920 -0.377 -0.106 82 76 54
-12.8469 29.0905 64.7760 -0.362 0.501 -0.786 88 75 59
-10.6067 28.7662 63.6796 -0.240 -0.094 -0.966 113 101 85
-3.8995 27.9534 62.8338 -0.371 0.074 -0.926 84 72 60
-1.4859 27.6696 62.6637 -0.509 0.297 -0.808 88 79 64
0.9695 27.4156 63.0259 -0.576 0.089 -0.812 88 81 63
-59.8079 37.1476 104.5061 0.102 -0.483 -0.870 46 60 66
-55.3789 35.8175 91.9597 -0.907 0.383 -0.175 70 76 74
-54.9711 35.8377 92.9505 0.128 0.266 -0.955 76 82 80
-54.7489 35.8298 93.2068 0.048 0.370 -0.928 82 88 84
-54.2548 35.7802 93.2931 0.173 0.216 -0.961 95 100 96
-53.0359 35.6311 93.1057 -0.349 -0.935 -0.061 89 93 92
-52.7347 35.4812 91.3586 -0.447 -0.893 0.052 90 94 93
-51.9448 35.3563 90.8106 -0.952 -0.302 0.046 87 92 88
-48.5105 34.4948 83.6381 -0.407 -0.292 -0.865 56 70 45
-48.3907 34.4749 83.5404 -0.446 -0.267 -0.854 41 53 29
-48.2629 34.4555 83.4644 -0.450 -0.267 -0.852 38 50 26
-39.9090 33.0297 76.0979 -0.267 0.221 -0.938 91 89 80
-37.5148 32.5767 73.3186 -0.768 -0.176 -0.616 64 68 68
-35.1922 32.1889 71.4009 -0.747 -0.285 -0.600 135 139 138
-32.0608 31.6778 68.9903 -0.126 -0.011 -0.992 130 136 134
-31.8064 31.6569 69.1054 -0.203 -0.085 -0.975 129 135 133
-30.2923 31.3887 67.6225 -0.361 -0.500 -0.787 138 142 141
-30.1891 31.3708 67.5284 -0.470 -0.389 -0.793 137 141 140
-28.0259 31.1167 67.3519 -0.036 0.289 -0.957 161 166 159
-17.8482 29.8824 65.9442 -0.462 -0.405 -0.789 79 66 50
-12.5107 29.2250 65.0555 0.144 0.724 -0.674 81 67 54
-6.8378 28.4688 63.2427 0.217 -0.678 -0.703 92 75 64
-6.2243 28.3835 62.9947 -0.917 0.178 -0.357 95 77 65
2.8544 27.4085 63.6356 0.356 -0.064 -0.932 103 94 79
4.0703 27.2443 63.2150 0.074 0.520 -0.851 89 83 67
4.2189 27.2224 63.1366 0.323 0.030 -0.946 91 85 69
-65.7653 38.5635 113.0418 -0.253 -0.005 -0.967 120 120 108
-61.4692 37.5461 105.1051 -0.901 -0.423 0.099 67 89 87
-55.4877 36.2084 95.2147 -0.551 -0.743 -0.379 66 75 72
-55.3422 36.1452 94.5230 -0.630 -0.761 -0.153 64 73 70
-53.3340 35.8264 93.1184 -0.105 -0.971 -0.213 90 96 94
-48.0034 34.6501 84.5359 -0.573 -0.098 -0.814 42 56 30
-47.9003 34.6286 84.3884 -0.556 -0.108 -0.824 44 57 32
-47.7663 34.6093 84.3237 -0.548 -0.114 -0.829 53 66 41
-41.6982 33.5030 77.9767 -0.837 0.434 -0.334 110 111 102
-39.6931 33.1147 75.5444 -0.876 -0.453 -0.166 88 88 82
-32.9732 32.1907 72.9431 -0.010 0.227 -0.974 137 140 139
-20.5294 30.3797 66.6544 -0.012 0.117 -0.993 98 99 84
-13.0700 29.4449 65.1021 0.495 0.232 -0.837 98 85 69
-12.2042 29.3626 65.3072 0.143 0.719 -0.680 84 71 55
-12.1312 29.2787 64.1933 -0.474 0.317 -0.822 85 74 54
-6.3948 28.5862 63.3880 0.196 -0.642 -0.742 85 69 56
0.0634 27.8315 62.8463 -0.864 -0.146 -0.483 89 80 63
1.8264 27.6613 63.2253 0.365 -0.078 -0.928 94 87 69
2.3492 27.6166 63.4224 0.360 -0.076 -0.930 98 91 73
2.9103 27.5694 63.6455 0.349 -0.062 -0.935 102 93 78
3.8397 27.4738 63.7600 -0.345 -0.206 -0.916 85 75 63
-65.7244 38.7566 113.2784 -0.110 0.077 -0.991 127 127 114
-65.5852 38.7253 113.0480 -0.463 -0.179 -0.868 143 143 137
-65.4425 38.6960 112.8535 -0.453 -0.241 -0.858 145 148 146
-60.5519 37.3959 101.9205 -0.338 -0.726 -0.599 45 56 58
-56.6566 36.8166 99.7670 -0.507 -0.608 -0.611 71 77 77
-56.5459 36.7882 99.5346 0.224 -0.735 -0.640 73 79 79
-55.6222 36.3877 95.2427 -0.539 -0.802 -0.257 71 80 77
-55.4100 36.3797 95.4650 -0.521 -0.797 -0.305 65 74 71
-53.5204 35.9968 92.9555 -0.375 -0.603 -0.704 95 101 99
-53.4088 35.9725 92.7833 -0.597 -0.603 -0.528 95 101 99
-53.3848 35.8571 91.1637 -0.993 0.068 0.101 75 81 79
-52.7184 35.7547 90.7485 -0.547 -0.340 -0.765 92 96 95
-51.9950 35.4795 87.9399 -0.491 0.712 -0.503 85 90 84
-45.8710 34.3801 81.8434 -0.713 -0.071 -0.697 73 89 50
-45.8457 34.3548 81.5207 -0.159 -0.638 -0.753 73 89 50
-45.7539 34.3072 80.9811 -0.830 -0.191 -0.523 66 84 46
-44.4586 33.9929 78.5179 -0.477 -0.412 -0.776 75 79 65
-42.8878 33.7008 76.8089 -0.614 -0.231 -0.754 95 97 86
-41.2862 33.5694 77.4577 -0.937 -0.055 -0.346 92 91 86
-38.2418 32.9719 73.6953 -0.384 -0.030 -0.923 70 70 70
-28.6461 31.4607 67.1812 -0.304 0.374 -0.876 159 164 160
-12.5343 29.5585 65.3697 0.419 0.608 -0.674 99 88 70
-12.9328 29.5220 64.2134 -0.597 -0.005 -0.802 97 84 67
-9.5276 29.0886 63.3799 -0.996 0.066 -0.057 104 87 77
-9.5441 29.0762 63.1764 -0.981 -0.124 -0.147 103 89 78
-7.0525 28.8027 63.1936 0.307 0.030 -0.951 95 81 68
-5.1971 28.5989 63.2029 -0.320 -0.069 -0.945 88 74 61
0.1796 28.0109 63.2720 0.432 0.132 -0.892 95 83 67
0.1575 27.9993 63.0704 -0.324 0.054 -0.944 93 81 65
2.0156 27.8128 63.3331 0.401 -0.160 -0.902 100 93 75
3.1379 27.7202 63.7801 0.361 -0.151 -0.920 94 85 70
3.8869 27.6494 63.9495 -0.638 0.322 -0.700 88 78 66
4.1711 27.6193 63.9676 -0.924 -0.091 -0.372 77 67 55
4.3276 27.5969 63.8934 -0.920 -0.142 -0.365 76 68 55
4.1855 27.5796 63.4201 -0.916 0.400 -0.020 90 85 66
4.1840 27.5669 63.2344 -0.916 0.400 -0.020 90 84 68
-65.7437 38.9177 112.9602 -0.491 -0.327 -0.807 133 134 121
-65.5892 38.8946 112.8727 -0.478 -0.281 -0.832 142 144 137
-65.4332 38.8723 112.7991 -0.453 -0.241 -0.858 149 153 150
-65.2742 38.8515 112.7518 -0.522 0.086 -0.849 182 192 192
-61.3600 37.8428 104.5911 -0.980 -0.085 -0.182 42 67 64
-61.2731 37.8013 104.1418 -0.980 -0.085 -0.182 40 64 61
-56.4302 36.9238 99.2518 0.260 -0.784 -0.564 71 77 77
-56.2958 36.7500 97.0162 -0.852 -0.524 -0.020 69 75 75
-55.6489 36.5403 95.0643 -0.506 -0.789 -0.348 76 85 82
-55.4737 36.5262 95.1356 -0.527 -0.792 -0.308 76 85 80
-55.4889 36.4777 94.4309 -0.601 -0.796 -0.074 77 86 81
-53.5646 36.1879 93.3143 -0.946 -0.130 -0.297 88 94 90
-53.2408 36.1538 93.3328 -0.875 0.482 -0.048 80 86 82
-49.8952 35.3797 87.5947 -0.626 0.398 -0.671 95 83 74
-45.7351 34.4274 80.6052 -0.762 -0.425 -0.489 66 84 45
-45.5986 34.3562 79.8149 -0.773 0.090 -0.628 121 129 115
-45.3874 34.3161 79.5763 -0.740 -0.077 -0.668 82 85 79
-44.8002 34.1943 78.7660 -0.682 -0.043 -0.730 82 88 76
-43.2512 33.9467 77.6675 -0.352 -0.284 -0.892 103 105 91
-41.8058 33.8128 78.0059 -0.608 0.433 -0.665 97 99 88
-41.3595 33.7348 77.5958 -0.930 0.013 -0.367 87 86 81
-41.3043 33.7135 77.3812 -0.927 0.013 -0.374 94 93 88
-32.8347 32.2795 70.2419 -0.921 0.278 -0.275 133 139 137
-32.7028 32.2432 69.9347 -0.371 -0.589 -0.718 136 145 142
-23.9515 30.9756 65.5657 -0.706 -0.022 -0.708 181 181 169
-16.5260 30.0905 64.5357 0.034 -0.324 -0.945 88 81 62
-16.2295 30.0645 64.6249 -0.422 -0.174 -0.890 86 79 60
-13.4056 29.7914 65.1253 0.497 0.322 -0.806 98 82 67
-9.4481 29.2103 63.0395 -0.298 -0.418 -0.859 94 80 67
-7.5663 28.9966 62.9271 0.327 0.287 -0.900 92 78 65
-6.9605 28.9526 63.2393 0.347 0.307 -0.886 95 81 68
-5.0502 28.7341 63.1036 -0.499 -0.062 -0.864 98 84 71
-0.2053 28.2202 63.3239 -0.126 -0.512 -0.850 95 83 67
0.4488 28.1571 63.4428 0.430 0.077 -0.899 94 82 66
3.4445 27.8408 63.5990 0.046 -0.251 -0.967 97 87 75
4.1306 27.7219 62.9819 -0.697 0.208 -0.686 85 79 63
4.5536 27.6838 63.0974 -0.799 -0.187 -0.571 88 82 66
6.9166 27.3861 62.5433 -0.279 -0.421 -0.863 96 89 71
7.4112 27.2915 61.9747 -0.451 -0.546 -0.706 104 99 79
-65.2579 39.0316 112.7599 -0.522 0.086 -0.849 186 196 198
-60.3479 37.7166 102.0022 0.540 -0.050 -0.840 50 61 61
-58.6990 37.2072 97.4568 -0.118 -0.048 -0.992 56 62 60
-58.5990 37.1766 97.1857 -0.490 -0.340 -0.802 67 73 71
-58.5281 37.1392 96.7772 -0.435 -0.425 -0.794 67 73 71
-58.3693 37.1233 96.7957 -0.498 -0.395 -0.772 73 79 79
-57.3926 37.1916 99.1883 -0.887 0.319 -0.333 70 76 76
-56.7067 37.0787 98.6587 0.465 0.280 -0.840 65 71 71
-56.5122 37.0686 98.8102 0.470 0.283 -0.836 76 82 82
-56.4098 36.9869 97.8398 -0.980 -0.194 0.045 78 87 84
-56.4207 36.9337 97.0926 -0.977 -0.206 0.047 71 80 77
-53.1995 36.3174 93.4206 -0.796 0.603 0.049 79 85 81
-52.3299 36.0779 91.4239 -0.673 -0.718 -0.177 87 92 88
-49.9133 35.5641 87.9628 -0.690 0.050 -0.722 86 89 75
-49.7750 35.5446 87.9008 -0.585 0.228 -0.778 94 83 72
-49.2938 35.4252 86.9773 -0.585 0.793 -0.168 171 40 37
-49.5513 35.3003 84.8768 -0.071 -0.042 -0.997 95 67 39
-49.3475 35.2881 85.0132 -0.489 -0.304 -0.818 66 78 51
-48.5891 35.2646 85.8200 -0.093 0.228 -0.969 75 93 61
-45.6997 34.5749 80.6449 -0.386 -0.243 -0.890 83 100 66
-44.6889 34.3181 78.6208 -0.481 0.066 -0.874 95 99 85
-44.5633 34.2993 78.5503 -0.481 0.066 -0.874 92 96 82
-44.4310 34.2809 78.4948 -0.497 -0.001 -0.868 78 82 68
-43.1337 33.9747 76.2188 -0.341 0.150 -0.928 95 97 86
-41.6972 33.9622 78.1869 -0.814 -0.400 -0.422 92 94 83
-41.5812 33.9188 77.7625 -0.873 -0.201 -0.445 83 83 75
-41.4183 33.8775 77.4373 -0.884 -0.195 -0.425 100 99 94
-38.1901 33.2356 73.4256 -0.710 -0.247 -0.660 54 54 54
-38.0012 33.1977 73.1848 -0.678 -0.291 -0.675 44 44 44
-37.8764 33.1792 73.1171 -0.675 -0.266 -0.688 52 52 52
-37.7572 33.1607 73.0399 -0.683 -0.270 -0.679 57 58 58
-19.2384 30.6140 65.6274 -0.501 -0.551 -0.668 92 89 55
-6.5827 29.0890 63.5202 0.082 -0.645 -0.760 94 82 70
-6.8782 29.0760 62.9020 0.108 -0.556 -0.824 99 85 72
4.0912 27.9423 63.6617 0.052 -0.273 -0.961 105 95 83
4.1850 27.9235 63.5432 0.024 -0.208 -0.978 96 88 75
-65.5884 39.2368 112.6034 -0.059 -0.483 -0.874 122 123 117
-65.4333 39.2142 112.5243 -0.285 -0.737 -0.612 123 126 124
-61.6141 38.3829 106.8625 -0.977 -0.204 0.060 33 58 55
-58.3808 37.2773 96.6645 -0.716 0.494 -0.494 71 77 77
-57.5476 37.4278 99.8933 -0.899 -0.385 -0.208 79 85 85
-57.4871 37.3860 99.4197 -0.821 -0.540 -0.187 71 77 77
-57.3960 37.3521 99.0952 -0.838 -0.516 -0.174 65 71 71
-56.5282 37.2268 98.6640 0.472 0.336 -0.815 84 93 90
-55.9129 36.8021 93.8407 -0.328 -0.713 -0.620 81 90 87
-54.0553 36.5058 92.5405 -0.697 -0.716 0.035 89 95 93
-53.5880 36.4974 93.1021 -0.888 -0.233 -0.397 88 94 90
-52.9819 36.5101 94.1492 -0.785 0.617 0.052 79 85 81
-49.8825 35.7200 88.0015 -0.537 0.260 -0.802 87 90 76
-49.7477 35.7001 87.9288 -0.536 0.269 -0.800 92 83 72
-49.4358 35.4274 84.7119 -0.876 -0.317 -0.364 62 73 45
-49.2163 35.3522 84.0176 -0.543 0.056 -0.838 56 71 44
-49.0689 35.3347 83.9958 -0.333 -0.018 -0.943 57 71 45
-47.5069 35.1655 83.9780 -0.592 -0.370 -0.716 64 88 48
-47.2690 35.1554 84.1859 -0.454 0.642 -0.618 64 90 48
-45.6768 34.7218 80.6547 -0.351 -0.242 -0.905 107 121 94
-45.3879 34.6040 79.4879 -0.801 0.044 -0.598 93 97 86
-44.7652 34.4830 78.7597 -0.488 0.204 -0.849 80 83 72
-44.6676 34.4625 78.6261 -0.508 0.184 -0.841 81 85 71
-41.5067 34.0425 77.5450 -0.884 -0.195 -0.425 106 106 98
-41.4201 34.0219 77.3932 -0.874 -0.190 -0.447 109 108 103
-38.6148 33.4313 73.5040 -0.042 0.234 -0.971 72 72 72
-38.2694 33.3965 73.5361 -0.433 -0.056 -0.899 54 54 54
-38.1682 33.3775 73.4268 -0.443 -0.077 -0.893 47 47 47
-38.0494 33.3589 73.3482 -0.450 -0.086 -0.889 70 70 70
-27.9822 31.8235 67.2471 -0.252 -0.233 -0.939 181 184 175
-19.4424 30.7673 65.3848 -0.377 0.199 -0.905 83 79 50
-5.4818 29.1228 63.4457 0.236 -0.174 -0.956 96 80 65
-5.4835 29.1089 63.2564 -0.620 -0.701 -0.352 99 86 70
-4.7624 28.9912 62.7146 -0.391 -0.149 -0.909 86 74 58
-4.4485 28.9621 62.7774 -0.654 -0.388 -0.650 86 74 58
-2.9511 28.7918 62.6518 -0.036 -0.151 -0.988 77 63 50
-1.0997 28.6295 63.1439 -0.483 0.315 -0.817 82 73 56
-0.3200 28.5481 63.1766 -0.315 -0.798 -0.513 82 70 56
-0.6217 28.4956 62.0348 -0.477 -0.081 -0.875 105 96 79
0.5930 28.3775 62.2018 0.347 -0.305 -0.887 84 77 59
1.1025 28.3369 62.3915 0.347 -0.245 -0.905 93 84 67
8.7792 27.6126 63.7469 -0.612 -0.627 -0.482 101 95 76
-65.5681 39.4189 112.6488 -0.048 -0.436 -0.899 126 127 112
-65.4390 39.3814 112.3369 -0.289 -0.738 -0.610 114 116 106
-61.8123 38.3975 104.4667 -0.982 0.050 -0.182 49 68 69
-58.6803 37.5268 97.3934 -0.277 -0.294 -0.915 64 70 68
-58.5142 37.5130 97.4452 -0.474 -0.372 -0.798 67 73 71
-58.4838 37.4637 96.8383 -0.678 0.262 -0.687 67 73 71
-57.5404 37.5918 99.8492 -0.827 -0.524 -0.203 72 78 78
-49.9145 35.8684 87.8516 -0.255 0.598 -0.760 80 84 72
-49.7535 35.8517 87.8578 -0.301 0.581 -0.756 77 74 61
-49.1497 35.6747 86.3738 -0.766 0.629 0.133 188 22 13
-49.0540 35.4834 83.9878 -0.333 -0.018 -0.943 74 85 60
-48.8820 35.4685 84.0331 -0.572 -0.279 -0.771 82 95 69
