ply
format ascii 1.0
element vertex 895
property float x
property float y
property float z
property float nx
property float ny
property float nz
property uchar diffuse_red
property uchar diffuse_green
property uchar diffuse_blue
end_header
-13.3838 8.4628 72.4856 0.156 -0.834 -0.529 68 93 89
-11.9483 8.1747 72.1052 -0.187 -0.537 -0.822 56 80 79
-11.7127 8.1402 72.0791 -0.051 -0.538 -0.842 58 82 82
-11.1651 8.0349 71.9469 0.330 -0.163 -0.930 57 81 82
-10.4921 8.0208 72.1127 -0.064 -0.227 -0.972 83 104 105
-10.2872 7.9998 72.1156 0.361 -0.767 -0.531 85 107 108
-10.1516 8.0117 72.1908 0.361 -0.767 -0.531 87 108 109
-10.0159 8.0235 72.2660 0.361 -0.767 -0.531 83 103 104
-6.0125 7.4650 71.9012 -0.259 -0.302 -0.917 83 102 107
-3.7146 7.2508 71.9948 0.114 -0.888 -0.445 80 99 103
8.7853 5.8105 71.7200 0.212 -0.456 -0.864 75 86 88
9.0005 5.7671 71.6623 0.304 -0.744 -0.594 80 91 93
9.1904 5.7393 71.6413 0.287 -0.781 -0.555 81 92 94
9.3406 5.7365 71.6792 -0.074 -0.633 -0.771 83 94 96
11.6414 5.7542 72.4332 0.563 -0.376 -0.736 88 93 96
11.8105 5.7383 72.4395 0.492 -0.512 -0.704 83 89 89
15.3498 5.4832 72.7962 0.153 -0.571 -0.806 99 110 112
20.3711 5.3454 73.9399 0.130 -0.353 -0.927 77 85 88
23.1307 5.5358 75.3254 0.405 -0.462 -0.789 111 125 126
24.9114 5.7356 76.4384 0.660 -0.422 -0.622 22 30 32
25.0626 5.7272 76.4607 0.429 -0.721 -0.545 49 53 54
25.2032 5.7291 76.5092 -0.027 -0.482 -0.875 78 82 83
29.5129 5.8417 78.1476 0.339 -0.560 -0.756 68 78 80
31.0491 5.7000 78.2141 0.125 -0.693 -0.710 43 50 56
32.5198 5.9977 79.5109 0.380 -0.809 -0.448 62 71 78
32.6493 6.0152 79.6002 0.574 -0.696 -0.431 58 66 73
32.7994 6.0049 79.6169 0.446 -0.784 -0.431 56 60 67
32.9163 6.0396 79.7514 0.405 -0.789 -0.462 59 62 69
33.0419 6.0630 79.8562 0.344 -0.751 -0.564 61 64 71
35.8130 6.1856 81.0525 -0.078 -0.787 -0.612 38 42 43
36.0926 6.1951 81.1650 0.116 -0.662 -0.741 27 35 32
37.9307 6.2226 81.8054 0.147 -0.362 -0.920 35 41 39
39.7020 6.3845 82.8077 0.045 -0.724 -0.688 46 56 46
39.8309 6.4135 82.9297 0.729 -0.581 -0.362 39 49 38
40.3233 6.5850 83.5679 -0.050 -0.471 -0.880 25 35 27
40.3610 6.8157 84.2359 -0.063 -0.383 -0.922 28 35 27
47.9350 7.9161 89.6826 0.798 -0.045 -0.601 86 92 92
48.6718 7.9584 90.0283 0.270 0.038 -0.962 90 96 96
52.6114 9.8701 96.6716 -0.508 -0.290 -0.811 85 90 84
52.7763 9.6426 96.0747 -0.510 -0.772 -0.379 81 86 80
53.0916 9.5233 95.8318 -0.502 -0.783 -0.367 80 85 81
-24.1532 11.0669 76.0563 -0.682 -0.239 -0.691 71 117 132
-19.3854 9.5269 73.1587 0.234 -0.452 -0.861 111 157 178
-16.5054 8.9941 72.5330 0.369 -0.326 -0.871 179 220 229
-16.3582 9.0025 72.6017 -0.027 -0.499 -0.866 187 222 226
-16.1416 8.9797 72.6035 -0.038 -0.447 -0.894 185 217 221
-16.0033 8.9920 72.6807 -0.208 -0.145 -0.967 179 211 216
-15.7158 8.9370 72.6132 -0.066 -0.058 -0.996 141 174 180
-15.4589 8.8957 72.5748 -0.066 -0.053 -0.996 105 136 139
-15.2294 8.8665 72.5625 -0.062 -0.062 -0.996 77 107 109
-14.1395 8.6695 72.3388 -0.190 -0.338 -0.922 67 93 92
-13.9295 8.6483 72.3431 -0.159 -0.434 -0.887 73 98 97
-13.7215 8.6279 72.3490 -0.125 -0.414 -0.901 62 84 82
-13.5077 8.6047 72.3489 -0.026 -0.550 -0.835 52 73 73
-13.3011 8.5847 72.3555 -0.026 -0.550 -0.835 57 78 78
-13.0894 8.5622 72.3567 -0.031 -0.539 -0.842 58 78 79
-11.1416 8.1818 71.8767 0.472 -0.057 -0.880 64 88 91
-11.1137 8.2446 72.0630 0.023 -0.193 -0.981 71 92 95
-10.7278 8.2144 72.0956 -0.101 -0.295 -0.950 70 90 91
-10.5000 8.1825 72.0751 -0.069 -0.232 -0.970 73 93 92
-10.2928 8.1603 72.0758 -0.070 -0.238 -0.969 75 95 94
-10.1446 8.1663 72.1379 0.131 -0.146 -0.981 70 90 89
-9.9520 8.1509 72.1534 0.140 -0.166 -0.976 73 93 94
-9.6592 8.0872 72.0629 0.023 -0.324 -0.946 70 88 90
-5.7578 7.4923 71.5740 -0.162 -0.259 -0.952 82 101 104
-4.2901 7.3810 71.7082 -0.008 -0.671 -0.741 67 87 94
-4.0671 7.3463 71.6783 0.017 -0.630 -0.776 83 103 112
-3.6422 7.3677 71.8689 0.139 -0.882 -0.450 86 105 112
-2.4025 7.3692 72.2526 0.669 -0.532 -0.519 82 101 105
3.9616 6.8115 72.6230 0.168 0.089 -0.982 97 110 116
8.8098 5.9433 71.6507 0.223 -0.440 -0.870 86 97 99
9.0578 5.8788 71.5442 0.046 -0.321 -0.946 92 103 105
9.2407 5.8552 71.5334 0.048 -0.306 -0.951 97 108 110
9.4198 5.8339 71.5280 -0.024 -0.279 -0.960 101 112 114
10.4183 5.9414 72.1376 0.235 -0.451 -0.861 78 86 89
10.5758 5.9337 72.1641 0.216 -0.424 -0.880 86 93 99
11.6581 5.8914 72.3758 0.563 -0.376 -0.736 102 107 110
11.8382 5.8680 72.3645 0.492 -0.512 -0.704 105 111 111
19.4116 5.5827 73.8759 0.072 -0.250 -0.966 88 99 105
22.3999 5.7046 75.1354 0.208 -0.433 -0.877 90 103 111
23.1555 5.6640 75.2519 0.518 -0.259 -0.816 103 117 118
23.3245 5.6391 75.2332 0.543 -0.666 -0.511 103 117 118
24.7997 5.8584 76.3053 0.694 -0.346 -0.632 43 51 53
24.9330 5.8675 76.3718 0.660 -0.422 -0.622 27 35 37
25.0969 5.8466 76.3627 0.424 -0.728 -0.540 49 53 54
25.2193 5.8664 76.4564 0.001 -0.418 -0.908 73 77 78
28.6624 5.8336 77.4175 0.047 -0.306 -0.951 66 69 74
29.5357 5.9721 78.0767 0.458 -0.408 -0.790 58 68 70
29.6855 5.9632 78.0974 0.315 -0.575 -0.755 57 68 70
31.8508 6.1011 79.1504 0.081 -0.101 -0.992 61 71 80
31.9778 6.1213 79.2465 0.087 -0.141 -0.986 69 79 88
32.8021 6.1625 79.6154 0.395 -0.722 -0.568 52 56 62
33.2024 6.2003 79.8448 0.279 -0.753 -0.595 49 52 59
33.3857 6.1434 79.7401 0.222 -0.787 -0.576 55 58 65
35.3991 6.3291 80.8816 -0.083 -0.765 -0.639 26 32 32
35.5390 6.3337 80.9375 -0.071 -0.754 -0.653 28 34 34
35.6875 6.3248 80.9577 -0.058 -0.763 -0.644 31 37 37
35.8380 6.3125 80.9690 -0.063 -0.764 -0.643 34 40 40
35.9954 6.2887 80.9498 -0.051 -0.782 -0.621 30 36 36
37.4213 6.2858 81.3781 0.127 -0.403 -0.906 21 30 27
37.9343 6.3872 81.8221 -0.141 -0.506 -0.851 33 37 36
39.2151 6.6751 83.0289 0.013 -0.966 -0.259 53 63 57
39.3343 6.7248 83.2058 0.377 -0.818 -0.434 53 62 56
39.6045 6.4682 82.5625 0.025 -0.766 -0.643 49 58 54
47.6950 8.6266 91.1461 -0.537 0.093 -0.839 90 96 96
48.1684 8.5251 91.0039 -0.537 0.060 -0.842 87 91 90
52.9641 9.4383 95.0556 -0.362 0.235 -0.902 88 93 87
65.3438 8.4919 96.1674 0.288 0.278 -0.917 76 82 69
65.5251 8.5810 96.4751 0.562 -0.068 -0.824 81 87 72
-24.0791 11.2075 75.9356 -0.681 -0.240 -0.692 73 119 135
-18.7237 9.4748 72.7010 0.397 -0.208 -0.894 172 219 239
-16.5156 9.1607 72.4939 0.296 -0.628 -0.720 126 164 172
-16.1151 9.1297 72.5292 -0.026 -0.730 -0.683 67 96 99
-15.4434 9.0502 72.5112 -0.086 -0.293 -0.952 28 56 60
-15.2145 9.0211 72.4996 -0.086 -0.293 -0.952 46 72 74
-11.6195 8.4135 71.8913 -0.063 -0.525 -0.849 69 93 95
-11.3711 8.3723 71.8516 0.210 -0.185 -0.960 61 85 87
-11.1706 8.3536 71.8604 0.443 -0.109 -0.890 69 93 95
-11.1626 8.4262 72.0673 -0.046 -0.449 -0.892 65 86 87
-10.9222 8.3885 72.0348 -0.101 -0.497 -0.862 54 75 76
-10.7264 8.3720 72.0482 -0.034 -0.294 -0.955 70 90 89
-10.5074 8.3442 72.0371 -0.069 -0.232 -0.970 76 96 95
-10.1197 8.3123 72.0663 0.004 -0.313 -0.950 67 87 86
-9.9132 8.2902 72.0672 -0.000 -0.325 -0.946 63 82 85
-9.6720 8.2511 72.0312 -0.026 -0.358 -0.934 61 79 83
-6.0438 7.7123 71.6268 -0.155 -0.231 -0.961 83 102 107
-4.1920 7.4847 71.5536 -0.002 -0.693 -0.721 62 82 90
-3.9615 7.4458 71.5149 -0.072 -0.581 -0.810 79 99 110
-2.3082 7.6394 72.5662 -0.160 0.299 -0.941 93 112 116
-1.4155 7.4094 72.1927 -0.234 0.204 -0.950 80 99 103
8.8105 6.0911 71.6164 0.227 -0.428 -0.875 111 122 124
10.5160 6.0257 71.9549 0.490 -0.488 -0.722 82 90 93
17.5947 6.0397 74.1634 -0.158 -0.321 -0.934 90 100 102
17.7360 6.0420 74.2131 -0.169 -0.411 -0.896 105 115 115
18.6551 5.9980 74.3709 0.311 -0.161 -0.937 113 123 133
19.5320 5.7498 73.9412 0.161 -0.262 -0.951 73 83 92
21.1025 5.7452 74.4097 0.174 -0.515 -0.840 111 122 124
22.4145 5.8424 75.0851 0.206 -0.446 -0.871 106 118 130
24.3672 5.7423 75.4017 0.290 -0.539 -0.791 73 83 84
24.7449 5.9257 76.0336 0.731 -0.455 -0.510 50 58 60
24.8403 5.9717 76.1923 0.720 -0.444 -0.533 41 49 51
24.9695 5.9848 76.2686 0.693 -0.533 -0.485 35 43 45
25.1253 5.9716 76.2794 0.438 -0.713 -0.547 45 50 51
25.2894 5.9501 76.2691 -0.170 -0.654 -0.737 71 75 76
25.5586 5.9655 76.3949 -0.359 -0.761 -0.540 59 63 64
25.7425 5.9235 76.3332 -0.375 -0.775 -0.508 61 65 66
25.9589 5.8480 76.1870 0.136 -0.687 -0.714 61 65 66
27.5392 5.8229 76.6006 0.554 -0.218 -0.804 59 66 72
28.4245 5.7805 76.7524 0.676 -0.735 -0.050 66 73 79
31.7575 6.1972 78.9465 0.324 -0.380 -0.867 72 82 91
31.8946 6.2040 79.0074 0.079 -0.229 -0.970 73 83 92
32.0326 6.2097 79.0657 0.446 -0.415 -0.793 76 86 95
34.2579 6.2795 79.9440 0.208 -0.671 -0.712 67 70 77
37.9901 6.4568 81.5865 -0.042 -0.660 -0.750 32 36 35
44.7608 7.0142 85.2298 0.636 -0.401 -0.659 49 62 51
65.2245 8.6541 96.1147 0.620 0.023 -0.784 84 90 76
65.3793 8.6729 96.2152 0.325 0.241 -0.914 77 83 70
-16.2542 9.2797 72.4041 0.234 -0.552 -0.800 73 102 105
-16.0746 9.2734 72.4415 0.179 -0.525 -0.832 68 94 97
-15.4112 9.1971 72.4315 -0.052 -0.283 -0.958 48 73 77
-15.2131 9.1820 72.4500 -0.086 -0.293 -0.952 57 80 82
-14.1574 8.9988 72.2611 -0.242 -0.370 -0.897 16 37 41
-13.6656 8.9225 72.1985 -0.272 -0.375 -0.886 32 52 53
-13.4203 8.8844 72.1670 -0.161 -0.435 -0.886 51 68 68
-13.1811 8.8489 72.1410 -0.161 -0.435 -0.886 61 79 79
-12.9545 8.8191 72.1271 0.032 -0.566 -0.824 70 88 88
-11.4169 8.5524 71.8522 0.153 -0.045 -0.987 64 88 88
-11.3026 8.5747 71.9498 0.212 -0.037 -0.977 69 94 92
-11.1353 8.5718 71.9930 0.271 -0.087 -0.959 54 79 76
-10.9115 8.5418 71.9778 0.161 -0.044 -0.986 48 70 68
-10.7227 8.5285 71.9985 0.210 -0.089 -0.974 68 88 87
-10.5033 8.5004 71.9870 -0.081 -0.233 -0.969 63 83 82
-10.2945 8.4773 71.9863 0.000 -0.233 -0.973 53 73 74
-8.2883 8.2001 71.8260 -0.017 -0.230 -0.973 76 95 101
-8.0508 8.1612 71.7900 -0.091 -0.270 -0.959 76 95 101
-7.6039 8.0968 71.7467 0.800 -0.218 -0.558 73 92 96
10.4125 6.1463 71.8139 0.458 -0.498 -0.736 83 92 92
10.5417 6.1571 71.8835 0.490 -0.488 -0.722 84 92 94
18.6993 6.1124 74.2606 0.246 -0.163 -0.955 113 123 133
21.3024 5.8450 74.3106 0.278 -0.614 -0.739 109 121 122
21.4412 5.8476 74.3606 0.278 -0.614 -0.739 112 123 124
22.0864 5.9048 74.7184 0.464 -0.639 -0.614 124 136 145
22.6097 5.9455 74.9928 -0.013 -0.610 -0.793 124 136 149
22.7783 5.9213 74.9767 -0.029 -0.613 -0.790 112 124 135
22.9261 5.9159 75.0070 -0.022 -0.517 -0.856 112 124 134
23.3203 5.9452 75.2101 0.515 -0.262 -0.816 106 119 120
24.8610 6.1044 76.1280 0.699 -0.505 -0.506 38 46 47
25.0053 6.1026 76.1672 0.464 -0.716 -0.521 42 49 50
25.1619 6.0885 76.1757 0.441 -0.716 -0.541 45 51 51
26.0224 5.9362 76.0136 0.512 -0.328 -0.794 55 59 60
26.3514 6.0350 76.3909 0.708 -0.320 -0.629 69 74 78
26.4660 6.0634 76.5055 0.708 -0.320 -0.629 76 81 85
27.5122 6.0060 76.6659 0.484 -0.207 -0.850 56 63 69
28.6870 5.9567 76.8883 0.183 -0.479 -0.858 59 63 68
29.9011 6.0212 77.4411 0.679 -0.734 0.008 51 62 64
31.7408 6.3790 79.0066 0.058 -0.261 -0.964 70 79 87
31.8926 6.3668 79.0190 0.058 -0.261 -0.964 70 80 88
32.0249 6.3800 79.0968 0.099 -0.345 -0.933 71 81 89
32.6473 6.3084 79.0871 0.826 -0.259 -0.501 54 63 71
33.4299 6.4057 79.5994 0.434 -0.769 -0.469 56 59 66
33.5636 6.4179 79.6746 0.442 -0.762 -0.472 59 63 69
33.6955 6.4329 79.7570 0.444 -0.754 -0.484 62 65 72
33.8649 6.3938 79.6996 0.047 -0.715 -0.698 65 68 75
34.0134 6.3845 79.7191 0.047 -0.715 -0.698 66 69 76
34.3084 6.3685 79.7648 0.262 -0.437 -0.860 66 69 76
34.7196 6.1776 79.3568 0.238 0.067 -0.969 54 57 64
34.8479 6.1967 79.4496 0.184 0.121 -0.976 47 50 57
37.8751 6.5779 81.4449 -0.112 -0.743 -0.660 25 34 31
38.0118 6.5882 81.5156 -0.102 -0.739 -0.665 31 37 35
40.5928 6.8496 83.0388 0.641 -0.636 -0.429 20 30 21
40.7718 6.7690 82.8682 0.200 -0.690 -0.696 20 30 21
40.9146 6.7688 82.9113 -0.075 -0.579 -0.812 25 35 26
65.3878 8.7815 96.0506 0.295 -0.291 -0.910 77 83 71
-18.6679 9.7776 72.5490 0.187 -0.573 -0.798 164 208 236
-16.7588 9.4451 72.2097 0.285 -0.723 -0.629 161 212 223
-16.6056 9.4508 72.2726 0.285 -0.723 -0.629 157 199 204
-16.4537 9.4571 72.3368 0.243 -0.691 -0.681 53 88 90
-16.2140 9.4235 72.3167 0.234 -0.552 -0.800 69 96 100
-16.0842 9.4398 72.4019 0.095 -0.559 -0.824 62 83 92
-15.6478 9.3915 72.4016 0.032 -0.513 -0.858 54 74 81
-15.4462 9.3749 72.4171 0.065 -0.509 -0.858 51 75 79
-15.2433 9.3575 72.4310 0.053 -0.493 -0.868 51 72 77
-14.0285 9.0996 72.0861 -0.316 -0.201 -0.927 46 67 70
-13.8757 9.1046 72.1470 -0.232 -0.326 -0.916 73 93 94
-13.6027 9.0535 72.0885 -0.172 -0.358 -0.918 92 109 112
-12.8604 8.9346 71.9856 0.011 -0.569 -0.822 71 89 89
-11.3346 8.7486 71.9363 0.212 -0.037 -0.977 63 87 87
-11.1526 8.7387 71.9646 0.310 -0.014 -0.951 39 60 61
-10.9382 8.7132 71.9593 0.161 -0.053 -0.986 44 66 64
-10.5129 8.6634 71.9512 -0.134 -0.253 -0.958 50 70 69
-10.3607 8.6676 72.0096 -0.063 -0.359 -0.931 43 63 62
-10.1495 8.6430 72.0062 -0.183 -0.155 -0.971 42 62 62
-3.6915 7.6937 71.3464 -0.213 -0.480 -0.851 85 105 114
-3.4550 7.6508 71.2996 0.040 -0.411 -0.911 85 105 114
-0.5501 7.3285 71.2942 -0.186 -0.641 -0.744 82 100 104
-0.3726 7.3148 71.3105 0.095 -0.645 -0.759 77 94 101
-0.2192 7.3142 71.3560 0.080 -0.637 -0.767 78 93 98
10.5453 6.3031 71.8462 0.502 -0.472 -0.725 71 79 82
19.6285 6.0870 74.0335 0.619 -0.582 -0.526 123 131 137
20.1026 6.0482 74.0708 0.428 -0.748 -0.507 82 86 93
21.7868 5.9430 74.2951 0.653 -0.234 -0.720 118 129 124
21.8951 5.9726 74.4108 0.672 -0.030 -0.740 108 118 115
22.1469 6.0011 74.5673 0.675 -0.000 -0.737 117 127 131
22.4778 6.0871 74.9084 0.511 -0.409 -0.756 126 136 139
22.6248 6.0827 74.9413 0.501 -0.484 -0.718 120 130 134
22.7513 6.0971 75.0201 0.501 -0.484 -0.718 108 118 123
24.8955 6.2234 76.0300 0.502 -0.732 -0.460 45 50 48
26.5258 6.1547 76.3392 0.803 -0.390 -0.451 72 76 79
26.7460 6.2216 76.5932 -0.044 -0.421 -0.906 48 52 55
27.0428 6.2079 76.6461 0.269 -0.155 -0.950 54 58 61
27.1857 6.2068 76.6869 0.007 -0.452 -0.892 55 58 63
28.3414 6.1826 76.9744 0.411 -0.385 -0.826 60 69 76
29.0460 5.8627 76.3002 -0.010 -0.252 -0.968 59 64 72
30.6857 6.2547 77.8948 0.417 -0.494 -0.763 59 66 70
30.8413 6.2370 77.8934 -0.010 -0.659 -0.752 64 68 72
31.8038 6.4567 78.8002 0.469 -0.121 -0.875 72 80 86
31.9188 6.4926 78.9355 0.202 -0.248 -0.947 79 86 93
32.0600 6.4940 78.9828 0.226 -0.249 -0.942 86 94 100
33.4868 6.4872 79.4019 0.553 -0.463 -0.693 58 65 68
33.6405 6.4704 79.4024 0.577 0.001 -0.816 58 66 68
37.8039 6.8793 81.8188 0.445 -0.018 -0.895 27 33 29
37.8791 7.0047 82.1909 0.474 0.266 -0.839 33 38 34
41.7588 7.6934 85.2991 -0.094 -0.993 0.065 47 57 48
41.9550 7.5670 85.0073 -0.097 -0.995 0.037 46 56 47
45.6845 7.7410 86.6366 0.147 -0.810 -0.568 75 84 83
47.9927 8.6235 89.8018 0.640 -0.767 -0.046 74 79 81
65.2590 8.9180 95.9226 0.567 -0.328 -0.756 72 78 64
65.4121 8.9326 96.0102 0.295 -0.291 -0.910 76 83 66
-18.6225 9.9211 72.4567 0.187 -0.573 -0.798 163 204 232
-17.0451 9.6619 72.2238 0.025 0.040 -0.999 165 212 235
-16.8007 9.6263 72.2005 0.167 -0.517 -0.840 169 213 227
-16.4453 9.6155 72.2797 0.173 -0.663 -0.729 46 79 81
-16.2614 9.6072 72.3133 0.167 -0.665 -0.728 64 92 96
-16.0877 9.6035 72.3564 0.167 -0.665 -0.728 57 81 89
-13.8328 9.2450 72.0568 -0.172 -0.358 -0.918 91 111 112
-13.3619 9.1773 72.0140 -0.173 -0.368 -0.914 86 104 104
-13.1236 9.1418 71.9890 -0.181 -0.364 -0.914 76 94 94
-12.8068 9.0690 71.8848 -0.002 -0.579 -0.815 74 92 92
-10.9581 8.8815 71.9338 0.163 -0.049 -0.985 47 69 67
-10.3586 8.8250 71.9615 -0.054 0.034 -0.998 49 69 68
-0.2579 7.4879 71.3636 -0.119 -0.645 -0.755 82 97 102
10.5641 6.4390 71.7854 0.493 -0.148 -0.858 81 91 96
15.7996 6.2093 72.7581 0.590 -0.360 -0.723 103 113 115
16.1803 6.2469 72.9793 0.542 -0.489 -0.683 99 111 113
22.4729 6.2427 74.9013 0.282 -0.277 -0.918 117 127 128
22.6605 6.2010 74.8436 0.018 -0.499 -0.866 111 119 121
24.9670 6.3053 75.8412 0.402 -0.776 -0.486 50 55 52
25.4034 6.2951 75.9470 0.029 -0.549 -0.835 70 75 79
25.5462 6.2943 75.9886 0.005 -0.511 -0.860 73 78 82
27.5356 6.2892 76.5858 0.293 -0.518 -0.804 60 68 73
27.9238 6.3296 76.8170 0.618 -0.537 -0.573 73 82 89
30.1534 6.3709 77.6164 0.473 -0.361 -0.804 57 62 68
30.3094 6.3531 77.6151 0.454 -0.320 -0.832 54 59 65
30.4425 6.3632 77.6839 0.454 -0.320 -0.832 57 62 68
30.5773 6.3713 77.7479 0.428 -0.293 -0.855 59 64 70
30.7120 6.3797 77.8125 0.428 -0.293 -0.855 62 67 71
30.8573 6.3747 77.8432 0.466 -0.341 -0.817 65 68 73
31.4880 6.4727 78.3085 0.886 -0.316 -0.341 67 70 75
31.7549 6.6813 78.9680 -0.062 -0.762 -0.644 66 73 79
31.9348 6.6318 78.8863 -0.001 -0.726 -0.688 72 79 85
32.0980 6.6039 78.8591 0.022 -0.705 -0.709 80 87 93
33.1346 6.5452 79.0152 0.330 -0.845 -0.420 105 113 115
33.4025 6.5673 79.1586 0.448 -0.767 -0.460 92 102 101
40.1812 6.8613 82.0558 0.135 -0.960 -0.245 22 33 27
40.2780 6.9593 82.3567 0.610 -0.504 -0.612 30 39 33
42.3056 7.6034 84.7632 0.379 -0.925 0.024 40 52 40
42.6195 7.5393 84.6822 0.136 -0.549 -0.825 40 54 40
-19.4227 10.2926 72.7324 -0.064 -0.352 -0.934 91 131 161
-17.6246 9.9364 72.3047 -0.243 -0.670 -0.701 170 210 221
-16.8835 9.7509 72.0217 0.057 0.106 -0.993 170 209 230
-16.7365 9.7594 72.0904 0.064 0.051 -0.997 175 213 227
-15.9609 9.7074 72.1858 0.285 -0.588 -0.757 86 114 118
-15.7956 9.7074 72.2367 -0.063 -0.646 -0.761 117 146 149
-15.5388 9.6651 72.1990 0.087 -0.476 -0.875 142 172 174
-15.3575 9.6575 72.2340 -0.038 -0.510 -0.860 149 175 179
-14.9301 9.6121 72.2404 -0.147 -0.427 -0.892 132 152 159
-14.6420 9.5544 72.1701 -0.271 -0.315 -0.910 68 88 95
-14.3466 9.4930 72.0920 -0.292 -0.303 -0.907 62 83 88
-13.9371 9.3778 71.9006 -0.150 -0.640 -0.754 71 92 95
-13.7360 9.3600 71.9136 -0.174 -0.614 -0.770 83 103 104
-13.5019 9.3266 71.8935 -0.167 -0.616 -0.770 86 104 104
-13.2892 9.3031 71.8943 -0.159 -0.596 -0.787 85 104 102
-11.3820 9.0894 71.8923 0.220 -0.030 -0.975 60 86 85
-10.0618 8.9958 72.0408 -0.286 -0.115 -0.951 49 68 72
-9.6433 8.9479 72.0376 -0.083 0.130 -0.988 83 100 107
-9.4169 8.9153 72.0173 0.067 0.271 -0.960 99 116 123
-7.2465 8.5457 71.6671 0.705 0.242 -0.666 66 85 89
-1.5337 8.0915 72.1736 0.153 -0.419 -0.895 88 107 113
10.7818 6.5390 71.6866 0.571 -0.460 -0.679 105 118 122
16.4070 6.3319 72.8466 0.093 -0.444 -0.891 91 107 109
22.3607 6.3665 74.7729 0.715 -0.149 -0.683 114 123 122
22.4878 6.3804 74.8504 -0.086 -0.420 -0.903 110 119 118
22.6835 6.3310 74.7747 0.011 -0.490 -0.872 109 118 117
23.0179 6.2840 74.7480 -0.166 -0.665 -0.728 103 112 111
23.2791 6.3050 74.8861 -0.006 -0.788 -0.615 102 111 110
23.7163 6.2936 74.9891 0.074 -0.675 -0.734 103 109 109
24.3433 6.2347 75.0199 0.699 -0.476 -0.534 76 78 90
24.5799 6.2797 75.2166 0.713 -0.490 -0.501 76 79 88
24.6959 6.3048 75.3215 0.704 -0.542 -0.460 77 80 86
24.8562 6.2861 75.3194 0.392 -0.721 -0.572 66 70 74
24.9937 6.4316 75.7622 0.371 -0.741 -0.560 53 57 55
25.1510 6.4163 75.7685 0.403 -0.767 -0.499 48 53 50
25.4200 6.4314 75.8928 0.527 -0.486 -0.697 69 74 78
27.5559 6.4216 76.5227 0.306 -0.528 -0.792 66 74 80
27.7382 6.3765 76.4545 0.639 -0.489 -0.594 63 72 79
27.8843 6.3712 76.4850 0.741 -0.323 -0.588 58 67 74
28.1111 6.4336 76.7266 0.509 -0.144 -0.848 60 69 76
28.2537 6.4324 76.7670 0.483 -0.096 -0.870 54 63 70
28.3743 6.4560 76.8692 0.424 -0.327 -0.844 48 57 64
29.8219 6.4159 77.2040 0.017 -0.172 -0.985 57 62 67
29.9391 6.4448 77.3198 0.283 -0.603 -0.746 57 62 68
30.0780 6.4477 77.3703 0.283 -0.603 -0.746 57 62 68
30.2240 6.4417 77.3988 0.060 -0.600 -0.797 57 62 68
31.8493 6.7169 78.6564 0.232 -0.733 -0.640 60 68 71
31.9763 6.7371 78.7511 0.019 -0.725 -0.688 65 73 76
32.1255 6.7276 78.7709 0.448 -0.599 -0.664 72 80 83
33.1848 6.6361 78.8448 0.335 -0.845 -0.417 102 112 111
33.3169 6.6493 78.9219 0.362 -0.837 -0.409 100 110 109
33.4432 6.6711 79.0208 0.429 -0.768 -0.476 99 109 108
37.5261 6.6946 80.3414 -0.084 -0.306 -0.948 27 31 30
38.2367 6.9489 81.2601 0.365 0.509 -0.780 31 37 35
38.2095 7.2710 82.1387 0.826 0.063 -0.560 27 34 31
40.1034 6.9012 81.7028 0.155 -0.962 -0.226 28 40 30
40.4555 7.0606 82.2501 0.283 -0.701 -0.654 23 30 22
42.5158 7.6220 84.4297 0.409 -0.912 0.045 37 50 31
45.1253 8.0786 86.4897 -0.068 -0.911 -0.407 32 38 42
46.8862 8.6913 88.7185 -0.218 -0.975 -0.036 61 65 66
65.9374 9.7147 97.3968 0.522 -0.273 -0.808 79 85 71
-17.6072 10.0917 72.2388 -0.225 -0.105 -0.969 175 208 212
-17.3916 10.0694 72.2440 -0.165 -0.171 -0.971 178 208 222
-16.9910 9.9623 72.0740 0.059 0.116 -0.992 185 216 234
-16.3972 9.9181 72.1358 0.122 0.001 -0.993 187 217 221
-16.1620 9.8860 72.1202 0.027 -0.188 -0.982 192 223 226
-15.9014 9.8419 72.0798 0.302 -0.581 -0.756 194 226 229
-15.7299 9.8390 72.1246 0.195 -0.657 -0.729 174 208 210
-15.5300 9.8228 72.1419 0.049 -0.489 -0.871 135 169 171
-15.1169 9.7840 72.1628 -0.138 -0.481 -0.866 51 76 81
-14.8756 9.7482 72.1389 -0.174 -0.407 -0.897 69 89 96
-14.6206 9.7057 72.1011 -0.227 -0.464 -0.856 77 97 104
-14.3468 9.6542 72.0443 -0.227 -0.488 -0.843 66 87 92
-13.8922 9.5171 71.8086 -0.111 -0.615 -0.781 69 90 93
-13.6007 9.5337 71.9439 -0.130 -0.590 -0.797 86 104 104
-13.4196 9.5253 71.9766 -0.202 -0.453 -0.868 85 103 102
-11.5439 9.2487 71.7964 0.260 -0.147 -0.954 69 97 95
-10.1927 9.1398 71.9142 0.164 -0.017 -0.986 46 66 65
-7.1132 8.7151 71.6989 0.461 0.326 -0.825 82 100 104
-0.5357 7.8628 71.3896 -0.067 -0.341 -0.938 89 106 113
-0.2391 7.7825 71.2610 0.005 -0.092 -0.996 86 101 106
-0.1427 7.8139 71.3768 0.111 -0.199 -0.974 87 102 107
5.8115 7.0553 71.1320 0.396 -0.448 -0.801 102 116 116
10.7668 6.6977 71.6781 0.607 -0.472 -0.639 102 116 119
10.9481 6.6733 71.6671 0.438 -0.692 -0.574 108 122 125
15.3009 6.6666 72.9888 -0.639 -0.176 -0.749 94 104 106
23.3387 6.4000 74.7334 -0.022 -0.808 -0.589 101 107 107
24.3027 6.4259 75.1011 0.253 -0.076 -0.964 92 94 107
24.4375 6.4326 75.1608 0.242 -0.070 -0.968 86 88 100
24.5820 6.4296 75.1972 0.242 -0.070 -0.968 77 80 89
24.7135 6.4395 75.2648 0.679 -0.228 -0.698 70 73 79
24.9029 6.5333 75.5799 0.610 -0.533 -0.586 63 67 67
25.0150 6.5633 75.6967 0.616 -0.552 -0.563 56 61 58
25.1518 6.5686 75.7532 0.681 -0.493 -0.541 51 56 53
25.2740 6.5888 75.8461 0.497 -0.502 -0.708 69 74 77
25.4177 6.5872 75.8860 0.504 -0.450 -0.737 67 72 78
26.9630 6.6045 76.4093 0.343 -0.643 -0.685 56 60 63
27.2297 6.6231 76.5424 -0.026 -0.593 -0.805 69 72 77
27.5930 6.5353 76.4135 0.341 -0.451 -0.825 65 73 79
27.7730 6.4925 76.3517 0.600 -0.518 -0.610 69 78 85
27.9146 6.4920 76.3941 0.728 -0.336 -0.597 74 83 90
28.2727 6.5662 76.7074 0.428 -0.363 -0.828 71 80 87
28.4058 6.5756 76.7744 0.362 -0.467 -0.807 64 73 80
29.6920 6.5589 77.1245 0.201 -0.475 -0.857 50 54 63
29.8344 6.5573 77.1641 0.066 -0.027 -0.997 48 53 59
29.9817 6.5499 77.1889 0.146 -0.252 -0.957 48 53 59
30.1051 6.5714 77.2860 0.084 -0.528 -0.845 48 53 59
30.2717 6.5400 77.2513 0.017 -0.438 -0.899 50 55 61
31.7649 6.8004 78.4243 0.428 -0.722 -0.544 68 73 76
31.8726 6.8461 78.5825 0.012 -0.829 -0.559 62 70 73
32.0111 6.8510 78.6386 -0.018 -0.812 -0.583 68 76 79
32.1601 6.8416 78.6587 0.401 -0.775 -0.488 75 83 86
32.4492 6.8346 78.7285 0.229 -0.825 -0.517 81 89 92
32.6058 6.8144 78.7214 0.147 -0.802 -0.579 85 93 96
32.7602 6.7970 78.7213 0.158 -0.784 -0.600 87 95 98
33.3629 6.7455 78.7658 0.362 -0.837 -0.409 99 109 108
33.3975 6.8988 79.1964 0.308 -0.333 -0.891 85 95 94
33.5323 6.9093 79.2665 0.313 -0.336 -0.888 71 81 80
33.6687 6.9175 79.3312 0.325 -0.326 -0.888 66 76 75
35.0553 7.1940 80.5152 0.647 -0.717 -0.260 41 45 48
36.7767 7.1846 81.0194 -0.183 -0.970 -0.160 31 37 35
36.9347 7.1578 80.9948 -0.184 -0.970 -0.158 35 41 39
40.1755 7.2293 82.1884 0.934 -0.321 -0.159 15 27 17
42.0905 7.7903 84.3144 -0.367 -0.784 -0.500 70 82 60
42.2751 7.6860 84.0856 -0.148 -0.897 -0.416 75 87 63
46.4726 8.1642 86.6876 0.691 -0.699 0.187 59 64 67
47.0480 8.8692 88.7958 -0.245 -0.969 0.038 64 67 71
48.2538 8.7789 88.9199 0.641 -0.749 -0.166 84 94 86
48.3859 8.8721 89.2158 0.603 -0.788 -0.120 93 99 96
63.0282 9.0882 94.3156 0.696 0.152 -0.702 87 89 78
63.1077 8.8613 93.7186 0.494 -0.278 -0.824 81 84 75
63.2634 8.8938 93.8554 0.304 0.045 -0.951 73 76 69
65.9576 9.8560 97.3204 0.522 -0.277 -0.807 78 84 70
-19.4158 10.6194 72.6248 -0.060 -0.366 -0.929 115 150 165
-18.0243 10.3692 72.3719 -0.234 -0.692 -0.683 177 212 204
-17.7529 10.3216 72.3259 -0.290 -0.632 -0.719 168 197 196
-17.4090 10.2405 72.2108 -0.347 -0.535 -0.770 161 187 197
-16.7834 10.1057 72.0364 0.064 -0.060 -0.996 161 187 199
-16.5788 10.0878 72.0507 0.064 -0.060 -0.996 152 180 188
-16.3405 10.0542 72.0327 -0.024 -0.314 -0.949 146 176 180
-16.1643 10.0493 72.0735 0.001 -0.212 -0.977 153 186 188
-15.8209 9.9665 71.9538 0.426 -0.574 -0.700 158 193 195
-15.6647 9.9706 72.0132 0.282 -0.534 -0.797 155 190 194
-13.8275 9.6469 71.6973 -0.111 -0.615 -0.781 70 89 93
-13.5698 9.6796 71.8657 -0.168 -0.655 -0.736 84 99 101
-13.3707 9.6624 71.8804 -0.195 -0.598 -0.778 82 98 98
-12.7602 9.5260 71.6968 -0.207 -0.467 -0.860 84 104 103
-11.0386 9.3188 71.6627 0.552 -0.379 -0.743 63 84 82
-10.8596 9.3100 71.6940 0.622 -0.442 -0.647 69 88 87
-10.5172 9.2999 71.7721 0.096 -0.406 -0.909 56 74 74
-10.2023 9.3033 71.8784 0.107 -0.043 -0.993 46 65 65
-10.0459 9.3056 71.9327 0.107 -0.041 -0.993 44 62 66
-9.9039 9.3149 72.0020 0.102 -0.043 -0.994 68 85 92
-9.7150 9.3009 72.0220 0.102 -0.043 -0.994 80 97 104
-9.4321 9.2398 71.9426 0.050 -0.102 -0.993 100 117 124
-9.2023 9.2050 71.9185 -0.034 -0.182 -0.983 100 117 124
5.3735 7.2920 71.1985 0.406 -0.585 -0.702 97 112 109
7.6850 7.3315 72.0183 -0.486 -0.479 -0.731 92 109 116
9.6287 6.9259 71.5121 -0.073 -0.555 -0.829 97 110 116
10.0680 6.8273 71.3789 -0.114 -0.435 -0.893 108 117 122
10.6975 6.7948 71.4843 0.138 -0.593 -0.793 95 106 112
11.9640 7.0262 72.5052 -0.431 0.216 -0.876 87 90 104
15.2488 6.6378 72.4593 0.398 -0.235 -0.887 79 93 94
18.8801 6.4782 73.1433 0.107 -0.443 -0.890 117 127 131
19.0328 6.4693 73.1664 0.047 -0.391 -0.919 118 131 137
21.9304 6.5425 74.2586 0.278 -0.745 -0.607 120 128 138
22.3629 6.5361 74.3745 0.167 -0.749 -0.641 116 124 126
22.4642 6.5735 74.5076 0.319 -0.686 -0.654 109 117 119
22.9044 6.5599 74.6061 0.331 -0.596 -0.731 104 113 112
23.4737 6.5577 74.7754 0.511 -0.606 -0.610 99 105 105
23.6203 6.5529 74.8077 0.610 -0.519 -0.599 101 107 107
23.9529 6.5051 74.7799 0.243 -0.021 -0.970 100 106 106
24.0613 6.5371 74.9005 0.260 -0.044 -0.965 86 92 92
24.4561 6.5663 75.1017 0.193 -0.280 -0.940 84 86 98
24.6026 6.5613 75.1333 0.193 -0.280 -0.940 75 78 87
24.8503 6.5967 75.3059 0.128 -0.162 -0.978 65 69 73
24.9519 6.6369 75.4469 0.437 -0.407 -0.802 62 66 66
25.0764 6.6544 75.5328 0.470 -0.425 -0.774 54 58 56
25.3156 6.6997 75.7301 0.518 -0.496 -0.697 56 61 65
25.4731 6.6839 75.7354 0.600 -0.432 -0.673 58 63 69
25.5817 6.7181 75.8623 0.016 -0.572 -0.820 57 62 68
25.7642 6.6762 75.8042 -0.016 -0.582 -0.813 58 63 69
28.2888 6.7032 76.6557 0.428 -0.363 -0.828 72 81 88
28.4271 6.7068 76.7081 0.362 -0.467 -0.807 84 93 100
29.6997 6.7061 77.0985 0.085 -0.137 -0.987 48 52 61
29.8342 6.7142 77.1621 0.028 -0.167 -0.986 44 49 55
29.9732 6.7170 77.2125 0.007 -0.145 -0.989 61 66 72
30.1425 6.6825 77.1704 -0.021 -0.156 -0.988 67 72 78
30.2978 6.6647 77.1699 -0.021 -0.156 -0.988 63 68 74
30.4527 6.6474 77.1704 -0.000 -0.180 -0.984 65 70 76
31.7967 6.9182 78.3225 0.393 -0.571 -0.720 77 82 85
31.9247 6.9368 78.4126 0.016 -0.834 -0.552 73 81 84
32.0742 6.9264 78.4304 0.013 -0.829 -0.559 76 84 87
32.2219 6.9184 78.4541 0.022 -0.823 -0.568 81 89 92
32.4278 6.8306 78.2783 -0.035 -0.765 -0.643 84 92 95
32.5104 6.9115 78.5241 0.194 -0.836 -0.513 89 97 100
32.6504 6.9137 78.5734 0.194 -0.836 -0.513 91 99 102
33.4045 6.8475 78.6252 0.614 -0.598 -0.515 84 94 93
33.5476 7.0500 79.2211 0.329 -0.346 -0.878 76 86 85
33.6580 7.0964 79.3815 0.571 -0.004 -0.821 69 79 78
33.7835 7.1213 79.4880 0.570 0.006 -0.821 58 68 67
34.8632 6.9916 79.4675 0.278 0.027 -0.960 50 53 58
45.7738 7.7220 84.8194 -0.075 -0.565 -0.821 75 80 84
60.2826 7.9854 90.0082 0.728 -0.568 -0.385 97 103 99
61.7737 8.2799 91.2698 0.549 0.193 -0.813 106 110 87
63.1522 9.0815 93.8787 0.424 -0.290 -0.858 87 90 81
-19.3887 10.7722 72.5491 -0.064 -0.352 -0.934 56 87 97
-18.2430 10.5566 72.3182 -0.223 -0.543 -0.810 37 68 62
-17.9145 10.4827 72.2193 -0.234 -0.692 -0.683 30 58 51
-17.6593 10.4422 72.1882 -0.237 -0.700 -0.674 37 61 61
-17.3593 10.3808 72.1144 -0.294 -0.637 -0.712 37 58 69
-17.0228 10.3023 72.0054 -0.043 0.037 -0.998 52 74 90
-16.8175 10.2842 72.0195 0.060 -0.076 -0.995 167 190 204
-16.1627 10.2109 72.0230 -0.017 -0.251 -0.968 156 190 191
-15.7778 10.1083 71.8637 0.426 -0.574 -0.700 151 187 187
-15.6082 10.1062 71.9101 0.318 -0.567 -0.760 156 191 192
-13.7629 9.7766 71.5861 -0.111 -0.615 -0.781 71 88 93
-13.5494 9.7524 71.5866 -0.138 -0.476 -0.869 81 95 100
-13.4864 9.8003 71.7356 -0.085 -0.588 -0.805 83 95 99
-13.2486 9.7644 71.7118 -0.076 -0.601 -0.796 79 93 96
-11.6159 9.6026 71.7768 0.275 -0.171 -0.946 62 86 86
-11.0302 9.4736 71.6079 -0.000 -0.635 -0.773 66 85 85
-10.9093 9.4934 71.6989 0.719 -0.409 -0.562 73 89 89
-10.4901 9.4454 71.6981 0.011 -0.469 -0.883 52 67 67
-10.3978 9.4795 71.8189 0.023 -0.383 -0.924 47 62 65
-10.2283 9.4752 71.8597 -0.176 -0.441 -0.880 42 58 60
-9.5257 9.3649 71.7774 -0.215 -0.529 -0.821 65 80 87
-9.2507 9.3072 71.7058 -0.157 -0.595 -0.788 107 122 129
-7.5672 9.0181 71.4416 0.042 -0.272 -0.961 94 112 114
1.6220 8.0694 71.7050 -0.131 -0.214 -0.968 95 109 111
4.8384 7.5881 71.3927 0.698 -0.528 -0.484 101 116 111
9.7286 7.0081 71.3293 -0.054 -0.623 -0.780 97 108 112
12.9449 6.7882 71.7253 0.468 -0.349 -0.812 127 135 145
13.1112 6.7723 71.7335 0.291 -0.130 -0.948 126 137 144
15.3610 6.7017 72.2360 0.463 -0.513 -0.723 90 105 106
15.5486 6.8870 72.7963 -0.704 -0.170 -0.689 90 101 103
21.2103 6.4503 73.3589 0.329 -0.546 -0.770 114 124 132
23.5704 6.6164 74.5371 0.503 -0.601 -0.621 88 94 94
23.6936 6.6339 74.6224 0.498 -0.575 -0.649 91 97 97
24.4571 6.7175 75.0845 0.164 -0.245 -0.956 86 88 100
24.6044 6.7118 75.1144 0.212 -0.380 -0.901 76 79 88
26.1483 6.8738 76.0297 -0.244 -0.017 -0.970 78 83 89
26.8684 6.8626 76.2215 0.553 -0.485 -0.678 55 59 62
26.9983 6.8756 76.2967 0.465 -0.390 -0.795 70 74 77
27.7711 6.8040 76.3412 0.277 -0.652 -0.706 64 73 80
28.1622 6.8417 76.5638 0.528 -0.527 -0.665 69 78 85
28.2654 6.8857 76.7149 0.540 -0.295 -0.788 66 75 82
28.4400 6.8476 76.6655 0.355 -0.460 -0.814 77 86 93
29.7422 6.8112 76.9687 0.165 -0.470 -0.867 49 53 62
29.8778 6.8179 77.0285 0.176 -0.454 -0.873 52 57 63
30.0235 6.8123 77.0582 0.217 -0.484 -0.848 76 81 87
30.1484 6.8322 77.1507 0.137 -0.131 -0.982 84 89 95
30.4621 6.7927 77.1404 0.017 -0.219 -0.976 64 68 77
30.6114 6.7820 77.1575 0.019 -0.215 -0.976 67 72 78
31.8244 6.8524 77.7225 0.507 0.187 -0.842 78 83 86
31.9516 6.8708 77.8115 0.512 0.179 -0.840 75 80 83
31.9574 7.0531 78.3072 0.273 -0.773 -0.573 82 90 93
32.4599 6.9467 78.1741 0.045 -0.670 -0.741 89 97 100
32.5112 7.0713 78.5274 0.374 -0.535 -0.757 94 102 105
34.1336 7.1872 79.3420 0.268 -0.293 -0.918 59 62 67
34.2679 7.1989 79.4151 0.278 -0.416 -0.866 59 62 67
34.7210 7.1569 79.4411 0.107 -0.497 -0.861 58 61 66
34.8732 7.1406 79.4439 0.151 -0.043 -0.988 56 59 64
38.8095 7.4613 81.5271 0.066 -0.410 -0.910 61 74 54
38.9584 7.4483 81.5378 0.399 -0.272 -0.876 52 66 45
40.2710 7.6923 82.6037 -0.293 -0.667 -0.684 8 18 10
40.7902 7.4863 82.2058 -0.366 -0.540 -0.758 20 25 19
44.6207 7.9514 84.6476 0.419 0.522 -0.743 35 41 31
58.7032 7.0237 86.4770 0.066 -0.791 -0.608 125 134 123
63.3249 9.2411 93.9117 -0.204 -0.433 -0.878 82 85 78
63.4246 9.0882 93.5281 0.304 -0.497 -0.813 81 83 78
-19.3922 10.9390 72.5017 -0.150 -0.260 -0.954 48 73 81
-18.1470 10.6765 72.1787 -0.262 -0.689 -0.675 63 88 84
-17.8115 10.5990 72.0732 -0.256 -0.688 -0.679 57 80 76
-17.5466 10.5537 72.0328 -0.237 -0.700 -0.674 53 73 76
-17.2973 10.5154 72.0066 -0.248 -0.752 -0.611 52 70 85
-15.7673 10.2654 71.8049 0.255 -0.701 -0.666 168 204 200
-15.3932 10.2445 71.8641 0.094 -0.751 -0.654 93 128 124
-15.2421 10.2510 71.9282 0.148 -0.691 -0.708 65 97 94
-14.7988 10.1969 71.9192 -0.198 -0.416 -0.888 79 101 104
-14.5263 10.1454 71.8645 -0.217 -0.476 -0.852 41 59 63
-14.2421 10.0880 71.7976 -0.198 -0.508 -0.838 46 61 68
-13.8287 9.9685 71.6031 -0.047 -0.662 -0.748 64 78 84
-11.5782 9.7437 71.6918 0.163 -0.096 -0.982 63 84 85
-10.8151 9.5263 71.3413 -0.082 -0.238 -0.968 63 79 82
-10.6161 9.6671 71.7824 -0.144 -0.357 -0.923 55 66 70
-10.3762 9.6278 71.7505 0.071 -0.404 -0.912 48 60 64
-10.2132 9.6268 71.7981 -0.102 -0.499 -0.860 42 56 60
-9.9931 9.5971 71.7860 -0.197 -0.457 -0.868 45 60 66
-9.2376 9.4589 71.6466 -0.217 -0.809 -0.547 101 116 123
-7.5020 9.1414 71.3268 0.041 -0.234 -0.971 89 107 109
-7.2689 9.1028 71.2945 0.792 -0.305 -0.529 85 103 105
-5.5485 8.9443 71.3984 -0.183 -0.241 -0.953 66 86 93
-5.2972 8.8942 71.3411 -0.055 -0.017 -0.998 59 79 86
-5.1021 8.8738 71.3462 -0.056 -0.013 -0.998 64 84 91
-0.1581 8.1087 70.8099 0.502 -0.525 -0.687 108 126 129
15.2397 6.9426 72.4200 0.665 -0.285 -0.691 91 102 104
15.8377 6.9246 72.5562 -0.138 -0.068 -0.988 89 99 101
16.3494 6.8611 72.5430 0.267 -0.197 -0.943 99 110 112
16.5024 6.8534 72.5694 0.295 -0.169 -0.940 103 110 116
20.4456 6.5284 72.9107 0.023 -0.263 -0.965 96 113 117
20.5364 6.5720 73.0564 0.159 -0.327 -0.932 96 114 118
21.2258 6.5858 73.3062 0.351 -0.551 -0.757 119 130 133
23.3703 6.6887 74.2456 0.548 -0.606 -0.576 112 121 120
23.4795 6.7193 74.3618 0.508 -0.634 -0.583 105 114 113
23.6016 6.7377 74.4492 0.516 -0.577 -0.633 101 107 107
24.1723 6.8712 74.9854 0.250 -0.241 -0.938 103 108 111
24.3212 6.8642 75.0123 0.166 -0.339 -0.926 100 102 115
24.4691 6.8579 75.0411 0.166 -0.339 -0.926 87 89 101
24.6208 6.8479 75.0609 0.212 -0.380 -0.901 73 76 85
25.1502 6.8852 75.3251 0.015 -0.394 -0.919 47 51 49
27.0160 7.0111 76.2404 0.465 -0.390 -0.795 70 74 77
27.1723 6.9952 76.2456 0.494 -0.543 -0.679 71 75 78
27.2905 7.0213 76.3525 0.500 -0.523 -0.691 70 73 78
28.3296 6.9675 76.5282 0.441 -0.451 -0.776 72 81 88
28.4032 7.0462 76.7632 0.389 -0.174 -0.905 67 76 83
29.4805 6.9430 76.8176 0.556 0.128 -0.821 49 53 62
29.5876 6.9843 76.9620 0.554 -0.344 -0.758 49 53 62
29.7263 6.9874 77.0132 0.050 -0.371 -0.927 49 53 62
29.8705 6.9839 77.0481 -0.087 -0.423 -0.902 50 55 61
30.0326 6.9581 77.0286 0.082 -0.495 -0.865 54 59 65
30.1619 6.9727 77.1079 -0.163 -0.406 -0.899 60 65 71
30.3178 6.9541 77.1060 -0.008 -0.572 -0.820 64 68 77
30.4782 6.9297 77.0897 0.153 -0.689 -0.708 64 68 77
31.7298 7.1382 78.0380 0.676 -0.410 -0.612 75 80 83
31.8579 7.1563 78.1266 0.397 -0.685 -0.611 74 79 82
32.2718 7.1714 78.2951 0.416 -0.602 -0.681 91 99 102
32.5356 7.1985 78.4495 0.374 -0.535 -0.757 96 104 107
33.1062 6.9918 78.0684 0.276 -0.148 -0.950 107 115 117
33.2646 6.9664 78.0489 0.321 -0.145 -0.936 95 105 105
38.3764 7.6462 81.4594 0.663 -0.716 -0.219 127 140 115
39.1544 7.5143 81.3441 0.535 -0.676 -0.507 51 66 35
39.5726 7.5303 81.5164 -0.303 0.218 -0.928 68 80 69
40.0456 7.4282 81.3872 0.757 -0.109 -0.645 25 37 27
45.8336 7.9198 84.4992 0.532 0.183 -0.827 57 62 65
-17.4148 10.6559 71.8597 -0.243 -0.753 -0.611 56 72 80
-17.1608 10.6151 71.8287 -0.248 -0.752 -0.611 51 65 85
-16.9093 10.5752 71.7996 -0.222 -0.766 -0.604 96 115 141
-16.7537 10.6578 72.0691 0.460 -0.496 -0.736 161 190 207
-15.3133 10.3685 71.7385 0.078 -0.757 -0.649 84 117 109
-15.1753 10.3812 71.8151 0.148 -0.691 -0.708 61 95 89
-12.6815 9.9677 71.4768 -0.181 -0.470 -0.864 74 93 97
-10.7586 9.8978 71.8836 0.049 -0.351 -0.935 53 62 67
-7.2271 9.3200 71.4254 0.929 -0.050 -0.366 80 95 98
-7.1807 9.3783 71.5961 0.927 -0.058 -0.369 80 94 97
-6.4444 9.3243 71.6789 -0.559 -0.418 -0.716 56 71 76
-5.6936 9.0941 71.2935 -0.040 -0.347 -0.937 56 75 81
-5.4933 9.0711 71.2936 -0.040 -0.347 -0.937 66 85 92
-5.2760 9.0388 71.2743 -0.047 -0.326 -0.944 64 84 91
-5.0208 8.9862 71.2120 -0.179 -0.042 -0.983 68 88 95
-2.5512 8.7428 71.3225 -0.554 0.032 -0.832 94 114 121
12.9436 7.0860 71.6677 0.491 -0.361 -0.793 101 116 116
13.0816 7.0905 71.7224 0.314 -0.213 -0.925 96 107 106
17.9722 7.0874 73.2251 -0.284 0.490 -0.824 130 130 134
26.4892 7.1215 75.9483 0.594 -0.036 -0.803 93 97 101
28.6229 7.2781 77.0274 0.540 -0.437 -0.720 68 73 82
29.4848 7.0945 76.8014 0.602 -0.227 -0.766 49 53 62
29.7433 7.1237 76.9597 0.050 -0.371 -0.927 49 53 62
30.3499 7.0712 77.0063 -0.029 -0.569 -0.822 63 67 77
30.5135 7.0425 76.9798 0.154 -0.695 -0.703 64 68 78
30.9608 7.0102 77.0314 0.253 -0.618 -0.744 74 78 85
31.2090 7.0529 77.2226 0.432 -0.533 -0.727 78 81 84
31.7883 7.2195 77.8485 0.407 -0.674 -0.617 78 85 87
31.8971 7.2635 78.0001 0.384 -0.669 -0.637 79 85 88
32.3068 7.2839 78.1813 0.428 -0.599 -0.677 85 93 96
32.5600 7.3257 78.3716 0.374 -0.535 -0.757 97 105 108
32.9922 7.3153 78.4774 0.273 -0.364 -0.890 114 122 125
33.7007 7.5245 79.2572 0.503 -0.608 -0.615 75 84 85
33.8446 7.5222 79.2956 -0.028 -0.442 -0.896 74 82 84
34.0042 7.4962 79.2751 -0.159 -0.448 -0.880 72 78 81
34.3118 7.4607 79.2749 -0.030 -0.432 -0.901 66 69 74
39.3103 7.6613 81.3572 0.284 -0.757 -0.588 72 89 57
40.0432 7.6106 81.4479 0.823 0.204 -0.531 47 59 47
49.9227 6.3774 81.1936 0.496 -0.047 -0.867 83 89 85
-19.7403 11.3520 72.5122 -0.269 -0.704 -0.658 53 67 77
-19.4197 11.2823 72.4255 -0.187 -0.455 -0.871 45 62 64
-19.1554 11.2382 72.3898 0.076 -0.596 -0.799 51 69 72
-16.7110 10.6450 71.5634 -0.352 -0.634 -0.689 147 168 195
-15.2435 10.4971 71.6228 0.069 -0.760 -0.646 76 112 100
-13.7018 10.2285 71.3830 -0.042 -0.097 -0.994 62 72 78
-13.5071 10.2131 71.4021 -0.183 -0.509 -0.841 74 81 91
-10.7478 10.0522 71.8262 0.049 -0.351 -0.935 51 62 66
-10.4003 9.9584 71.6835 -0.277 -0.726 -0.629 46 57 61
-10.0682 9.8719 71.5555 -0.277 -0.731 -0.623 40 50 55
-7.6444 9.5295 71.3917 -0.054 -0.200 -0.978 77 95 97
-5.3627 9.1574 71.1049 0.498 -0.138 -0.856 59 79 86
-5.1673 9.2204 71.3334 0.305 -0.167 -0.938 59 79 86
-2.6692 8.6219 70.5094 0.578 -0.448 -0.682 84 108 112
1.2499 8.4790 71.3404 0.583 -0.499 -0.641 91 104 110
15.4273 7.0968 72.0379 0.425 -0.319 -0.847 88 95 103
17.5365 7.3600 73.3923 0.801 -0.343 -0.490 108 108 104
18.3030 7.2007 73.2045 -0.577 -0.531 -0.620 133 132 128
21.2471 6.8655 73.2209 0.006 -0.279 -0.960 106 110 112
21.3887 6.8650 73.2633 0.449 -0.236 -0.862 113 116 115
21.7988 6.8766 73.4211 0.453 -0.332 -0.827 116 114 113
22.4126 6.8299 73.4863 -0.019 -0.368 -0.930 128 134 136
25.3438 7.1379 75.2145 0.073 -0.629 -0.774 62 65 71
28.6881 7.3580 76.8358 0.507 -0.314 -0.802 71 78 88
28.8320 7.3556 76.8739 -0.301 -0.452 -0.839 68 75 85
30.2572 7.1679 76.8141 0.246 -0.376 -0.893 57 63 78
30.5518 7.1513 76.8608 0.378 -0.389 -0.840 62 68 83
30.6759 7.1725 76.9557 0.493 -0.237 -0.837 63 69 82
30.9984 7.1191 76.9132 0.244 -0.612 -0.752 65 70 82
31.8227 7.3328 77.7381 0.386 -0.675 -0.628 69 82 83
34.6484 7.5433 79.1733 -0.113 -0.760 -0.640 61 65 68
39.2004 7.7705 81.1872 0.499 -0.685 -0.531 44 59 28
39.3438 7.7674 81.2233 0.291 -0.749 -0.596 45 59 32
39.5302 7.6735 81.0304 0.243 -0.659 -0.712 36 49 30
40.3703 8.0111 82.1908 -0.118 -0.758 -0.642 40 50 40
41.1624 7.8237 81.9360 -0.049 -0.621 -0.783 29 35 32
41.9712 8.2992 83.4544 0.242 0.438 -0.866 28 36 27
42.4824 8.4737 84.0780 -0.400 0.432 -0.808 36 47 31
43.1321 10.9576 90.9044 -0.179 -0.973 -0.146 41 47 38
45.2565 8.3586 84.6289 0.423 -0.507 -0.751 36 41 44
45.8186 8.4042 84.9243 0.556 0.077 -0.828 62 67 71
45.9228 9.1363 86.9093 0.284 0.779 -0.559 63 68 71
49.9379 6.5334 81.2081 0.462 -0.130 -0.878 96 103 96
62.7826 9.5938 93.3439 0.839 -0.529 -0.130 74 76 63
63.2355 9.6441 93.6181 -0.039 -0.754 -0.656 97 100 89
-18.1240 11.0802 71.8002 -0.253 -0.590 -0.766 84 102 104
-16.6097 10.7598 71.4188 0.105 -0.669 -0.735 169 191 214
-16.4466 10.7608 71.4719 0.151 -0.709 -0.688 176 203 219
-13.7260 10.4008 71.3589 -0.122 0.008 -0.992 72 81 86
-13.4653 10.3532 71.3133 -0.125 -0.002 -0.992 80 87 95
-12.6051 10.2502 71.3063 0.088 -0.299 -0.950 73 96 98
-12.4396 10.2486 71.3531 0.423 -0.059 -0.904 81 107 106
-12.3269 10.2730 71.4528 0.329 -0.203 -0.922 93 114 115
-12.0194 10.2010 71.3569 -0.095 -0.225 -0.970 83 103 104
-10.3292 10.0818 71.5638 -0.381 -0.388 -0.839 40 51 55
-9.9500 9.9709 71.3869 -0.277 -0.731 -0.623 37 47 52
-9.7341 9.9426 71.3787 -0.289 -0.740 -0.608 52 68 75
-9.0008 9.8128 71.2613 -0.167 -0.681 -0.713 83 97 106
-8.8177 9.8006 71.2856 0.074 -0.784 -0.616 85 100 107
-7.1785 9.6088 71.2841 0.241 0.238 -0.941 73 88 91
-5.8805 9.3388 70.9694 0.194 -0.911 -0.364 61 76 79
-5.7355 9.3450 71.0308 0.194 -0.911 -0.364 57 75 79
-5.4326 9.3507 71.1395 0.257 -0.813 -0.523 61 81 88
-2.8939 8.7299 70.2782 0.571 -0.457 -0.682 73 96 102
0.1182 8.4945 70.5859 0.014 -0.490 -0.872 103 118 121
0.3723 8.4354 70.5077 0.019 -0.480 -0.877 97 112 117
1.3929 8.6375 71.3599 0.612 -0.473 -0.634 86 99 105
1.5890 8.6114 71.3513 0.262 -0.094 -0.961 69 82 90
11.0222 7.6171 71.6329 0.439 -0.503 -0.744 92 107 114
15.2767 7.2512 71.9789 0.138 -0.444 -0.886 73 79 94
15.4866 7.1997 71.9073 0.310 -0.277 -0.910 87 93 105
21.2509 7.0117 73.1926 0.301 -0.507 -0.808 94 97 99
23.5438 7.1108 74.1652 0.688 -0.323 -0.650 92 101 106
23.6574 7.1377 74.2719 0.688 -0.323 -0.650 92 101 106
23.8036 7.1327 74.3039 0.333 -0.669 -0.664 92 101 106
26.4859 7.4347 75.9356 0.589 0.025 -0.807 83 91 95
28.8515 7.3202 76.3640 -0.061 -0.310 -0.949 72 79 89
30.5670 7.2894 76.8131 0.376 -0.392 -0.839 52 58 74
30.7640 7.2168 76.6814 0.557 -0.469 -0.686 58 64 80
31.0268 7.2399 76.8241 0.244 -0.612 -0.752 71 76 90
31.6937 7.4760 77.6571 0.454 -0.641 -0.618 69 80 80
33.0112 7.4089 77.8868 0.484 -0.338 -0.807 73 78 84
34.6585 7.6924 79.1489 0.338 -0.320 -0.885 56 60 63
34.7942 7.7020 79.2163 0.413 -0.276 -0.868 52 56 59
35.0735 7.4824 78.7203 0.093 -0.777 -0.622 52 56 59
35.5173 7.2193 78.1594 0.151 -0.674 -0.723 46 50 53
38.9332 7.9115 81.0534 0.048 -0.710 -0.703 118 132 109
39.0833 7.8948 81.0556 0.463 -0.670 -0.580 123 137 112
39.2263 7.8924 81.0936 0.719 -0.383 -0.580 33 47 22
39.3545 7.9211 81.2094 0.558 -0.547 -0.624 30 44 21
39.5238 7.8630 81.1076 0.635 -0.320 -0.703 28 40 24
40.5701 8.0615 81.9581 -0.344 -0.137 -0.929 50 61 47
40.8659 8.0353 81.9803 0.033 -0.728 -0.685 39 47 34
41.1923 7.9342 81.8129 0.021 -0.573 -0.819 35 42 35
41.7341 8.7284 84.0880 -0.629 -0.030 -0.777 37 44 38
42.2879 8.4122 83.4205 -0.595 0.059 -0.802 25 35 29
45.1322 8.4983 84.5294 0.377 -0.508 -0.774 37 41 40
45.2794 8.4852 84.5402 0.421 -0.482 -0.768 36 40 43
49.9539 6.6836 81.2067 0.450 -0.134 -0.883 119 124 118
50.0883 6.6830 81.2465 0.765 -0.193 -0.615 117 122 115
66.0345 10.1852 95.4754 0.799 -0.200 -0.567 94 97 80
66.2505 10.3656 96.0211 0.836 -0.145 -0.529 104 106 91
-18.4065 11.2980 71.8050 -0.267 -0.641 -0.719 87 107 108
-16.5603 10.8987 71.3231 0.155 -0.714 -0.683 182 205 225
-16.3870 10.8949 71.3665 0.155 -0.714 -0.683 175 203 215
-14.7114 10.7226 71.4311 -0.205 -0.609 -0.766 65 94 95
-12.6241 10.4197 71.2780 0.135 -0.312 -0.941 72 94 95
-12.4420 10.4098 71.3084 0.382 -0.176 -0.907 78 102 102
-12.3115 10.4256 71.3904 0.346 -0.305 -0.887 87 108 109
-10.4899 10.1594 71.2522 -0.294 -0.600 -0.744 52 63 67
-10.6958 10.3456 71.6800 -0.037 -0.311 -0.950 45 56 60
-10.1710 10.1606 71.3541 0.357 -0.709 -0.608 44 55 59
-9.9662 10.1380 71.3579 -0.066 -0.550 -0.833 45 55 59
-8.7772 9.9378 71.1978 0.143 -0.176 -0.974 72 88 95
-5.8312 9.4684 70.8716 0.339 -0.749 -0.569 58 73 78
-5.1651 9.4469 71.0211 0.443 -0.896 0.027 68 88 97
-5.7487 9.8480 71.8990 -0.664 -0.359 -0.656 59 79 88
-5.1108 9.5874 71.4087 -0.661 -0.359 -0.659 79 99 106
-2.6640 8.7562 69.9727 -0.269 -0.557 -0.785 81 104 110
-2.4608 8.8130 70.1855 0.593 -0.488 -0.641 89 113 117
0.2008 8.5990 70.4454 0.078 -0.428 -0.900 98 114 114
0.3746 8.5861 70.4651 0.269 -0.224 -0.937 97 111 114
0.5882 8.5500 70.4359 0.191 -0.527 -0.828 90 106 107
1.4489 8.7575 71.2502 0.720 -0.691 -0.057 83 98 103
1.6217 8.7450 71.2710 0.191 -0.122 -0.974 74 89 94
11.0595 7.7405 71.5432 0.394 -0.499 -0.772 85 103 110
13.2978 7.4841 71.5598 0.151 -0.335 -0.930 73 83 85
13.4163 7.5030 71.6464 0.465 -0.393 -0.793 73 83 85
13.5602 7.5031 71.6914 0.477 -0.404 -0.780 71 84 85
21.6988 7.1388 73.2512 0.683 -0.421 -0.596 89 92 93
21.8612 7.1190 73.2491 0.718 -0.108 -0.688 94 97 98
23.8268 7.2615 74.2343 0.321 -0.670 -0.670 89 98 103
25.5773 7.3480 75.0048 0.325 -0.584 -0.744 83 87 98
25.7063 7.3609 75.0789 0.349 -0.546 -0.761 82 86 97
26.5273 7.5443 75.8174 0.681 -0.431 -0.591 77 82 87
26.6476 7.5682 75.9177 0.666 -0.411 -0.623 31 36 40
28.1076 7.3563 75.8108 0.806 -0.304 -0.507 75 79 88
28.8431 7.4866 76.3825 -0.218 -0.291 -0.932 72 79 89
28.9969 7.4714 76.3900 0.341 -0.364 -0.867 69 76 86
29.2685 7.4844 76.5085 0.295 -0.556 -0.777 62 69 79
29.4043 7.4910 76.5679 0.354 -0.579 -0.735 53 60 70
29.5397 7.4981 76.6285 0.704 -0.266 -0.659 37 44 54
30.5965 7.4091 76.7211 0.013 -0.737 -0.675 68 74 88
30.7575 7.3826 76.7011 0.445 -0.498 -0.744 74 80 94
30.9064 7.3717 76.7183 0.440 -0.582 -0.684 82 88 102
31.4701 7.5565 77.3808 0.463 -0.604 -0.649 87 92 95
32.9231 7.4943 77.6669 0.074 -0.676 -0.734 76 81 87
33.0325 7.5393 77.8195 0.486 -0.331 -0.809 71 76 82
33.7501 7.7292 78.5430 0.398 -0.637 -0.660 49 50 55
33.8843 7.7401 78.6134 0.398 -0.637 -0.660 48 49 54
34.0212 7.7470 78.6742 0.394 -0.687 -0.611 50 51 56
34.6717 7.8367 79.1124 0.341 -0.308 -0.888 52 56 59
34.8219 7.8233 79.1234 0.373 -0.118 -0.920 48 52 55
38.8121 8.0439 80.9419 -0.359 -0.599 -0.716 32 44 25
38.9920 7.9661 80.7925 0.621 -0.453 -0.640 51 62 45
39.1222 7.9897 80.8951 0.628 -0.446 -0.638 120 132 112
39.2464 8.0263 81.0302 0.719 -0.383 -0.580 75 87 68
39.3968 8.0083 81.0290 0.047 -0.021 -0.999 42 54 36
39.6442 8.0857 81.3101 0.273 -0.341 -0.900 30 40 32
40.1654 8.1908 81.7489 0.802 -0.328 -0.499 29 39 30
40.2817 8.2500 81.9413 0.790 -0.347 -0.506 24 34 25
40.5859 8.2061 81.9197 -0.353 -0.098 -0.931 54 65 51
40.9019 8.1324 81.8229 0.029 -0.618 -0.786 48 59 42
41.5928 8.1795 82.1615 0.930 -0.318 -0.185 20 29 28
42.0160 8.5607 83.2987 -0.333 0.135 -0.933 29 38 36
45.1876 8.5086 84.1437 0.593 -0.242 -0.768 32 36 35
45.9743 9.9820 88.2767 0.719 -0.671 -0.178 56 60 61
50.2189 6.9974 81.7135 0.862 -0.082 -0.500 111 114 107
65.5836 10.2466 95.0502 0.343 -0.442 -0.829 86 90 73
65.8970 10.2976 95.2819 0.583 -0.581 -0.568 96 101 80
66.2606 10.4792 95.8740 0.802 -0.175 -0.570 100 103 87
-18.3212 11.4222 71.6761 -0.258 -0.653 -0.712 88 108 109
-16.4948 11.0299 71.2122 0.119 -0.716 -0.687 186 209 226
-16.3436 11.0365 71.2765 0.125 -0.725 -0.677 171 200 210
-14.6628 10.8606 71.3357 0.105 -0.530 -0.841 60 90 87
-14.5033 10.8627 71.3908 -0.392 -0.277 -0.877 58 81 83
-13.5172 10.6999 71.2691 -0.138 -0.014 -0.990 35 42 50
-13.2330 10.6401 71.2000 -0.047 -0.000 -0.999 44 52 61
-13.0502 10.6301 71.2305 -0.071 0.003 -0.997 41 53 60
-12.8163 10.5948 71.2102 0.048 0.006 -0.999 53 70 75
-12.6494 10.5925 71.2560 0.041 0.015 -0.999 70 90 94
-12.2385 10.5493 71.2701 0.335 -0.322 -0.885 78 99 102
-10.4111 10.2783 71.1251 -0.294 -0.600 -0.744 53 64 68
-10.0991 10.2829 71.2338 0.359 -0.757 -0.546 48 59 63
-9.8261 10.2251 71.1667 0.199 -0.757 -0.622 52 62 67
-6.3050 9.5430 70.4675 -0.303 -0.599 -0.742 52 67 70
-4.9798 9.5872 70.9942 0.288 -0.900 -0.326 60 80 89
1.5810 8.9227 71.2836 0.452 -0.209 -0.867 80 95 100
1.8081 8.8775 71.2355 -0.376 -0.241 -0.895 80 95 100
11.0854 7.8719 71.4714 0.394 -0.499 -0.772 102 119 124
13.3654 7.5828 71.4193 0.113 -0.329 -0.938 76 87 89
13.6477 7.5868 71.5174 0.173 -0.148 -0.974 74 88 89
15.8560 7.4317 71.7948 0.370 -0.307 -0.877 91 98 106
21.6804 7.3060 73.2705 0.644 -0.572 -0.508 78 90 91
21.8358 7.2926 73.2836 0.677 -0.359 -0.643 87 101 101
23.6582 7.3011 73.8710 0.408 -0.540 -0.736 109 118 123
23.8796 7.3608 74.0965 0.304 -0.673 -0.674 110 119 124
25.5778 7.5008 74.9905 -0.129 -0.396 -0.909 82 86 97
26.3527 7.4260 75.0344 0.196 -0.225 -0.954 69 73 84
26.5499 7.6746 75.7484 0.681 -0.431 -0.591 61 64 70
28.8716 7.6088 76.2955 -0.196 -0.278 -0.940 71 78 88
29.0258 7.5931 76.3020 0.432 -0.473 -0.768 69 76 86
29.1873 7.5681 76.2866 0.723 -0.320 -0.612 65 72 82
29.2916 7.6130 76.4368 0.297 -0.566 -0.769 62 69 79
29.4264 7.6209 76.4992 0.337 -0.594 -0.730 58 65 75
29.5604 7.6297 76.5639 0.549 -0.559 -0.621 65 72 82
30.7131 7.5981 76.8384 0.557 -0.430 -0.710 82 89 99
30.8463 7.6081 76.9059 0.383 -0.369 -0.847 83 90 100
30.9794 7.6182 76.9738 0.372 -0.358 -0.857 83 88 98
31.5094 7.6629 77.2556 0.403 -0.445 -0.800 74 79 82
32.9309 7.6440 77.6465 0.201 -0.619 -0.759 76 81 87
33.7898 7.8325 78.4080 0.404 -0.634 -0.659 47 48 53
33.9136 7.8591 78.5163 0.398 -0.637 -0.660 49 50 55
34.0534 7.8616 78.5662 0.394 -0.687 -0.611 53 54 59
