ply
format ascii 1.0
element vertex 888
property float x
property float y
property float z
property float nx
property float ny
property float nz
property uchar diffuse_red
property uchar diffuse_green
property uchar diffuse_blue
end_header
19.5084 13.3151 68.9575 0.664 -0.354 -0.659 58 69 55
19.7823 13.3209 69.0489 0.161 -0.349 -0.923 54 64 53
21.4224 13.2146 69.2016 0.583 -0.586 -0.563 52 60 49
23.7415 13.1065 69.5353 0.244 0.039 -0.969 54 64 53
24.4292 13.1105 69.7353 -0.170 -0.124 -0.978 65 68 59
27.1235 13.0159 70.2101 0.140 -0.594 -0.792 87 77 65
27.4151 12.9932 70.2265 0.079 -0.624 -0.778 64 54 42
28.8874 13.0449 70.7753 0.198 -0.699 -0.687 66 65 44
29.0288 13.0388 70.7971 0.112 -0.396 -0.911 89 88 67
29.1675 13.0366 70.8290 0.082 -0.392 -0.916 110 109 88
29.3063 13.0343 70.8605 0.123 -0.400 -0.908 111 110 89
29.5932 13.0154 70.8863 0.231 -0.658 -0.716 95 94 74
29.6199 13.1818 71.3594 0.225 -0.399 -0.889 86 85 65
29.7609 13.1768 71.3844 0.223 -0.398 -0.890 88 87 69
29.9041 13.1685 71.4003 0.201 -0.419 -0.886 90 88 73
30.0397 13.1719 71.4469 0.214 -0.430 -0.877 70 68 53
31.2577 13.2062 71.8772 0.345 -0.226 -0.911 84 77 67
32.6135 13.2432 72.3530 0.410 -0.187 -0.893 111 116 112
39.0397 13.7627 75.5709 0.450 -0.369 -0.814 117 123 119
39.1790 13.7629 75.6097 0.460 -0.440 -0.771 119 125 121
39.3157 13.7717 75.6718 0.455 -0.397 -0.797 121 127 123
46.6362 14.8361 80.6602 0.551 -0.013 -0.834 41 43 40
47.0666 14.8526 80.8246 0.087 -0.175 -0.981 47 48 43
50.1226 15.3868 83.1588 0.003 -0.877 -0.480 58 57 52
50.2678 15.3784 83.1751 0.003 -0.877 -0.480 54 50 47
50.5645 15.4313 83.4044 0.631 -0.718 -0.294 51 48 43
51.1540 15.4791 83.7002 -0.187 0.033 -0.982 50 51 43
53.1264 15.8876 85.3849 0.480 -0.353 -0.803 60 79 80
55.1324 16.2331 86.9026 0.461 -0.783 -0.417 26 39 45
57.4639 14.7451 83.3774 0.948 -0.115 -0.297 39 46 41
57.6680 14.9275 83.9438 0.945 -0.136 -0.297 130 141 129
57.8558 15.0575 84.3594 0.925 -0.163 -0.343 111 125 105
57.9482 14.9138 83.9823 0.255 -0.226 -0.940 109 122 100
62.1949 16.0597 88.3554 -0.450 -0.532 -0.717 85 88 67
63.6351 16.5618 90.1562 0.889 -0.190 -0.416 96 98 86
63.8836 16.7501 90.7515 0.808 -0.398 -0.435 99 101 88
-12.3859 16.2475 67.9308 0.047 -0.453 -0.890 81 97 96
-12.2034 16.2352 67.9467 0.047 -0.453 -0.890 85 101 101
-11.7125 16.3890 68.5097 0.374 -0.683 -0.627 70 82 80
-11.3774 16.3800 68.5767 0.516 -0.736 -0.438 53 63 62
-11.2363 16.3892 68.6409 0.373 -0.686 -0.625 38 49 45
-11.1100 16.4060 68.7224 0.056 -0.539 -0.840 32 43 39
-10.9195 16.3895 68.7289 -0.354 -0.390 -0.850 33 45 41
-10.6619 16.3380 68.6561 -0.350 -0.373 -0.859 23 34 30
-10.3680 16.2671 68.5395 -0.382 -0.336 -0.861 33 43 42
-10.2038 16.2639 68.5757 -0.291 -0.373 -0.881 69 79 78
-8.9139 15.9979 68.1895 -0.052 -0.135 -0.989 59 67 69
-8.7291 15.9828 68.1983 -0.199 -0.248 -0.948 100 108 110
-2.8944 15.0494 67.2026 0.358 -0.575 -0.736 47 53 53
-1.9916 14.9627 67.2093 -0.136 -0.583 -0.801 96 102 98
-1.5788 14.8968 67.1392 -0.150 -0.589 -0.794 52 59 52
-1.1948 14.8470 67.1062 -0.095 -0.450 -0.888 50 57 50
-1.1281 14.9857 67.5106 0.051 -0.528 -0.848 43 50 43
0.6700 14.7129 67.2450 0.372 -0.534 -0.759 64 70 66
1.0201 14.6805 67.2510 -0.005 -0.495 -0.869 55 61 58
1.1202 14.7105 67.3620 0.067 -0.536 -0.841 57 63 60
2.7145 14.2675 66.5668 -0.041 -0.332 -0.942 54 58 59
2.8805 14.2551 66.5778 0.258 -0.685 -0.682 52 56 57
4.2882 14.4828 67.5983 0.328 -0.739 -0.589 39 46 37
4.4213 14.4921 67.6608 0.328 -0.739 -0.589 51 58 47
4.5544 14.5014 67.7233 0.328 -0.739 -0.589 61 68 59
4.7499 14.4693 67.6876 0.109 -0.524 -0.845 66 73 64
4.8875 14.4756 67.7429 0.058 -0.445 -0.893 62 68 60
5.1938 14.3689 67.5299 -0.200 -0.504 -0.840 57 64 55
6.9301 14.2810 67.7622 0.257 0.005 -0.967 50 53 42
7.6513 14.0811 67.4039 0.432 -0.694 -0.576 62 68 58
7.7139 14.1391 67.5825 -0.325 -0.290 -0.900 61 67 57
7.9251 14.0922 67.5099 -0.279 -0.230 -0.932 55 62 51
8.0958 14.0737 67.5052 0.663 -0.293 -0.689 42 50 38
8.2595 14.0601 67.5123 0.312 -0.484 -0.818 40 50 35
8.4561 14.0227 67.4623 -0.095 -0.206 -0.974 50 61 44
8.6757 14.0725 67.6612 0.516 0.296 -0.804 62 72 57
9.0325 14.1285 67.9152 -0.258 0.455 -0.852 58 64 52
10.5528 13.8552 67.5721 0.176 -0.623 -0.762 49 54 45
10.6972 13.8543 67.6092 0.129 -0.569 -0.812 49 53 45
11.0260 13.8219 67.6093 0.005 -0.552 -0.834 55 59 51
11.1664 13.8239 67.6534 -0.235 -0.516 -0.823 54 59 50
11.3038 13.8281 67.7029 -0.212 -0.549 -0.808 52 58 49
11.4536 13.8228 67.7293 -0.281 -0.261 -0.924 52 57 48
11.6513 13.7805 67.6657 -0.246 -0.227 -0.942 57 60 52
12.3280 13.6969 67.6190 0.564 -0.183 -0.805 61 64 56
12.8634 13.7234 67.8396 0.571 -0.230 -0.788 58 60 55
15.0550 13.5516 67.9635 -0.143 -0.787 -0.600 53 55 49
15.6526 13.6447 68.3867 0.026 -0.164 -0.986 48 49 44
16.0019 13.5865 68.3208 -0.143 -0.295 -0.945 54 56 51
16.1927 13.5429 68.2517 0.401 -0.466 -0.789 72 73 72
16.3563 13.5229 68.2409 0.486 -0.648 -0.586 79 78 81
16.4793 13.5385 68.3182 0.480 -0.651 -0.587 73 72 76
16.6120 13.5457 68.3747 0.474 -0.648 -0.596 55 55 56
16.8796 13.5582 68.4831 0.284 -0.851 -0.441 54 55 44
17.1912 13.5310 68.4930 -0.367 -0.796 -0.482 65 67 52
18.7372 13.3976 68.5462 0.163 -0.182 -0.970 44 56 41
18.8903 13.3849 68.5528 0.299 -0.214 -0.930 44 56 41
19.0088 13.4052 68.6419 0.339 -0.351 -0.873 44 56 41
19.2156 13.3406 68.5189 0.547 -0.295 -0.783 40 53 38
19.3417 13.3535 68.5894 0.488 -0.310 -0.816 43 57 42
19.4712 13.3632 68.6519 0.500 -0.273 -0.822 62 76 61
19.6510 13.3238 68.5917 0.061 -0.406 -0.912 49 62 48
25.5528 13.2380 69.9738 0.384 -0.469 -0.795 83 84 75
25.9226 13.1207 69.7491 0.611 -0.262 -0.747 80 78 70
27.4481 13.1001 70.1107 0.080 -0.621 -0.780 56 46 36
27.8423 13.1233 70.2836 0.548 -0.484 -0.682 75 68 51
28.4865 13.1818 70.6234 0.217 -0.600 -0.770 105 98 79
28.7706 13.1681 70.6633 0.179 -0.573 -0.800 95 92 71
28.9063 13.1703 70.7066 0.263 -0.276 -0.925 55 53 32
29.0473 13.1648 70.7300 0.179 -0.334 -0.925 80 79 58
29.6384 13.3082 71.2915 0.153 -0.499 -0.853 78 76 57
29.7749 13.3101 71.3344 0.105 -0.555 -0.825 74 72 55
30.6275 13.2680 71.4514 0.232 -0.564 -0.793 90 86 71
31.2626 13.3548 71.8675 0.329 -0.438 -0.837 98 92 81
31.3959 13.3624 71.9253 0.174 -0.445 -0.878 88 82 71
32.6220 13.3869 72.3300 0.391 -0.266 -0.881 68 73 68
32.9994 13.4540 72.6206 0.315 -0.093 -0.945 80 88 72
36.8109 13.5707 73.9925 0.388 -0.215 -0.896 112 121 113
36.9273 13.6265 74.1796 0.307 -0.352 -0.884 116 125 117
37.1904 13.6624 74.3520 0.379 -0.447 -0.810 121 128 121
37.3239 13.6755 74.4251 0.398 -0.540 -0.742 121 128 121
37.4629 13.6744 74.4601 0.423 -0.494 -0.760 121 128 121
37.5998 13.6788 74.5098 0.316 -0.399 -0.861 123 130 123
38.7800 13.8841 75.4056 0.123 -0.308 -0.943 98 105 98
38.9231 13.8722 75.4118 0.118 -0.276 -0.954 102 109 102
39.0563 13.8919 75.5032 0.441 -0.385 -0.811 113 119 115
39.1959 13.8908 75.5385 0.441 -0.576 -0.689 121 127 123
39.3308 13.9056 75.6168 0.430 -0.582 -0.690 125 131 127
46.6512 14.9884 80.6418 0.575 -0.069 -0.815 41 43 41
46.9380 15.0120 80.7860 0.073 -0.179 -0.981 42 44 40
49.9911 15.5102 83.0115 0.778 -0.467 -0.421 62 62 53
50.1398 15.5453 83.1503 -0.058 -0.952 -0.299 58 57 51
50.2848 15.5340 83.1584 -0.058 -0.952 -0.299 55 52 47
51.0260 15.6422 83.6633 0.023 -0.059 -0.998 47 47 39
51.1700 15.6223 83.6476 0.012 -0.067 -0.998 50 51 43
57.4876 14.9076 83.3931 0.947 -0.111 -0.301 42 48 44
57.8785 15.2176 84.3636 0.923 -0.164 -0.348 114 127 108
57.9688 15.0668 83.9685 0.249 -0.250 -0.936 108 121 99
63.4994 16.7035 90.0438 0.791 -0.555 -0.257 87 89 78
-14.1776 16.6660 68.1202 -0.117 -0.403 -0.908 58 72 75
-13.9535 16.6340 68.0930 -0.044 -0.403 -0.914 62 76 79
-12.3638 16.3937 67.8649 0.047 -0.473 -0.880 85 101 101
-11.9977 16.3684 67.8953 0.209 -0.635 -0.744 66 80 80
-11.5058 16.2781 67.7805 -0.075 -0.778 -0.624 55 67 65
-11.1941 16.5255 68.5513 0.364 -0.696 -0.619 59 70 66
-11.0514 16.5339 68.6136 0.022 -0.554 -0.832 40 51 45
-10.8824 16.5285 68.6451 -0.330 -0.492 -0.805 27 37 34
-10.6420 16.4856 68.5925 -0.325 -0.489 -0.809 34 43 42
-10.3593 16.4202 68.4893 -0.314 -0.498 -0.809 20 29 28
-10.2082 16.4239 68.5409 -0.271 -0.543 -0.795 24 33 32
-8.9285 16.1621 68.1679 -0.052 -0.135 -0.989 57 63 65
-2.6680 15.2453 67.3508 -0.146 -0.364 -0.920 67 74 74
-2.4705 15.2182 67.3301 -0.146 -0.364 -0.920 48 52 53
-2.3234 15.2205 67.3770 -0.138 -0.513 -0.847 69 73 74
-2.0734 15.1623 67.2845 0.077 -0.505 -0.860 80 86 84
-1.9344 15.1692 67.3418 0.020 -0.580 -0.814 71 77 73
-1.7581 15.1541 67.3484 0.121 -0.433 -0.893 62 69 62
-1.1590 14.9767 67.0221 -0.114 -0.451 -0.885 42 52 43
-1.0209 14.9836 67.0791 0.044 -0.460 -0.887 42 52 44
0.4629 14.8991 67.2532 0.439 -0.077 -0.895 54 60 60
0.6955 14.8476 67.1745 0.364 -0.529 -0.766 49 58 57
1.0491 14.8129 67.1755 -0.005 -0.495 -0.869 54 60 59
2.6851 14.4346 66.5778 -0.034 -0.280 -0.959 46 54 54
2.8834 14.4015 66.5409 0.303 -0.624 -0.720 43 52 51
5.1944 14.5178 67.4981 -0.199 -0.488 -0.850 52 56 45
5.7546 14.3366 67.1503 0.223 -0.208 -0.952 45 53 39
5.9032 14.3345 67.1855 0.223 -0.208 -0.952 41 52 37
6.0442 14.3376 67.2327 0.434 -0.301 -0.849 43 55 39
6.1752 14.3475 67.2962 0.434 -0.301 -0.849 49 60 45
6.3081 14.3562 67.3569 0.422 -0.316 -0.850 38 48 33
7.0196 14.3674 67.5835 0.324 -0.762 -0.560 55 66 43
8.0952 14.2223 67.4775 0.685 -0.239 -0.688 48 67 43
8.2173 14.2385 67.5558 0.736 -0.318 -0.597 45 66 43
8.3205 14.2684 67.6670 0.736 -0.318 -0.597 50 72 49
10.5690 13.9906 67.5159 0.177 -0.613 -0.770 47 62 45
10.7295 13.9774 67.5235 0.147 -0.727 -0.670 48 61 45
12.2838 13.8789 67.6782 0.472 -0.391 -0.791 51 59 43
12.5624 13.8839 67.7685 0.535 -0.332 -0.777 60 66 52
12.6778 13.9054 67.8598 0.425 -0.259 -0.868 56 59 50
12.8189 13.9065 67.9016 0.262 -0.163 -0.951 54 56 54
12.9864 13.8863 67.8916 0.265 -0.175 -0.948 57 59 58
13.8181 13.7872 67.8459 -0.152 -0.172 -0.973 50 55 50
14.3205 13.7226 67.8054 0.340 -0.574 -0.745 41 47 31
14.4898 13.6992 67.7872 0.331 -0.628 -0.704 38 45 30
15.5022 13.8001 68.3448 -0.194 -0.241 -0.951 58 70 57
15.6522 13.7928 68.3656 -0.170 -0.252 -0.953 59 74 60
16.1953 13.6880 68.2249 0.107 -0.370 -0.923 58 64 55
16.9737 13.6211 68.2535 0.346 -0.835 -0.428 88 90 78
17.1298 13.6068 68.2570 -0.104 -0.900 -0.424 80 82 69
17.9121 13.6623 68.6256 0.842 -0.421 -0.338 60 66 51
18.8958 13.5271 68.5218 0.299 -0.214 -0.930 42 67 46
19.0229 13.5392 68.5903 0.219 -0.085 -0.972 45 72 50
19.1526 13.5491 68.6531 0.207 -0.113 -0.972 41 68 46
19.6106 13.5109 68.6734 0.510 -0.158 -0.845 43 66 45
19.7666 13.4947 68.6713 0.324 -0.364 -0.873 50 66 45
20.0778 13.6021 69.0542 -0.065 -0.282 -0.957 51 65 44
21.9028 13.5938 69.5329 0.439 -0.642 -0.628 50 67 46
22.6719 13.3625 69.1041 0.417 -0.391 -0.821 51 70 48
23.8572 13.2720 69.1793 0.530 -0.256 -0.808 50 59 43
24.1070 13.4629 69.7766 0.179 -0.189 -0.966 62 71 55
24.6228 13.3441 69.5895 -0.217 -0.027 -0.976 65 76 57
24.7840 13.3164 69.5570 -0.149 -0.188 -0.971 65 76 57
25.5697 13.3673 69.9141 0.376 -0.481 -0.792 71 75 60
25.7737 13.2850 69.7420 0.157 -0.280 -0.947 67 70 56
27.2549 13.3262 70.2635 0.601 -0.474 -0.643 65 58 48
27.8299 13.2919 70.3266 0.581 -0.184 -0.793 60 50 39
28.3757 13.2966 70.4895 0.296 -0.611 -0.734 111 101 90
28.5051 13.3079 70.5564 0.304 -0.612 -0.730 122 112 101
28.6449 13.3042 70.5845 0.115 -0.612 -0.783 100 90 78
28.9149 13.3108 70.6770 0.419 -0.474 -0.775 76 69 50
29.0602 13.2989 70.6840 0.179 -0.334 -0.925 70 62 43
29.6691 13.4160 71.1756 0.127 -0.444 -0.887 92 85 66
31.1520 13.4664 71.7227 0.278 -0.433 -0.858 94 88 73
31.2792 13.4840 71.8065 0.329 -0.438 -0.837 91 85 70
33.0074 13.5994 72.6010 0.478 -0.458 -0.750 54 56 46
36.4416 13.6294 73.6282 0.445 -0.291 -0.847 30 36 29
36.8247 13.7063 73.9464 0.448 -0.293 -0.845 119 125 119
36.9449 13.7527 74.1079 0.303 -0.409 -0.861 122 127 120
37.4789 13.8045 74.3981 0.388 -0.529 -0.755 118 123 116
37.6145 13.8127 74.4579 0.206 -0.512 -0.834 123 128 121
37.7508 13.8187 74.5121 0.469 -0.536 -0.702 135 141 132
39.0754 14.0127 75.4133 0.456 -0.360 -0.814 120 125 121
45.9568 14.9817 79.9876 0.673 -0.370 -0.641 69 80 71
46.0981 15.0145 80.1170 0.673 -0.370 -0.641 45 53 45
46.2400 15.0392 80.2246 0.648 -0.392 -0.653 50 54 51
46.3824 15.0598 80.3205 0.586 -0.466 -0.663 47 48 49
46.5246 15.0891 80.4409 0.650 -0.527 -0.548 42 42 45
46.6680 15.0912 80.4862 0.586 -0.562 -0.584 42 43 44
47.2424 15.0656 80.5731 0.819 -0.471 -0.329 55 56 52
47.3850 15.1279 80.7848 0.825 -0.458 -0.332 55 56 51
49.8524 15.5311 82.5793 0.393 -0.868 -0.303 58 58 49
50.0075 15.6586 82.9749 0.659 -0.538 -0.526 57 57 49
50.1626 15.7719 83.3313 0.665 -0.487 -0.567 57 57 49
50.3122 15.8090 83.4750 0.665 -0.487 -0.567 53 52 47
50.4406 15.6115 82.9635 0.000 -0.871 -0.491 47 46 41
50.9007 15.8327 83.7024 0.416 -0.578 -0.702 43 40 35
51.0366 15.7375 83.4762 0.467 -0.098 -0.879 43 43 37
51.1833 15.7429 83.5316 0.436 -0.027 -0.900 50 51 45
52.2307 15.9105 84.2834 0.792 0.162 -0.589 72 83 75
57.7070 15.2283 83.9001 0.926 -0.177 -0.335 125 135 124
57.9856 15.2092 83.9237 0.218 -0.305 -0.927 109 121 99
58.4205 15.2295 84.0996 -0.023 -0.209 -0.978 106 112 98
58.5635 15.2306 84.1421 0.097 -0.329 -0.940 111 117 103
59.4576 15.6913 85.6632 -0.514 0.246 -0.822 108 112 98
63.4847 16.7888 89.8086 0.816 -0.500 -0.289 83 86 75
63.6941 16.9051 90.1880 0.787 -0.525 -0.324 76 79 67
-14.4275 16.7901 67.9141 -0.294 -0.159 -0.943 64 78 79
-14.1810 16.8265 68.0822 -0.065 -0.309 -0.949 56 70 73
-8.9432 16.3265 68.1463 -0.052 -0.135 -0.989 66 72 70
-6.9399 15.9989 67.7956 0.193 -0.157 -0.969 51 55 54
-5.6520 15.7115 67.3584 0.264 -0.700 -0.664 73 79 79
-5.3088 15.6907 67.3957 -0.128 -0.604 -0.787 62 71 70
-5.1257 15.6737 67.3993 -0.096 -0.598 -0.796 84 93 89
-3.8454 15.3786 66.9389 -0.173 -0.463 -0.869 54 58 57
-4.2725 15.7105 67.7351 0.064 -0.575 -0.816 49 51 52
-2.6814 15.4054 67.3329 -0.162 -0.350 -0.922 66 72 72
-2.0565 15.3042 67.2261 0.066 -0.297 -0.953 58 64 62
-1.9033 15.3026 67.2641 0.031 -0.283 -0.959 63 69 65
-1.1891 15.1457 67.0284 0.063 -0.506 -0.860 39 49 40
-1.0357 15.1435 67.0646 0.117 -0.520 -0.846 43 53 44
0.7152 14.9860 67.1126 0.370 -0.534 -0.760 46 54 56
5.2532 14.6274 67.3737 -0.176 -0.456 -0.873 43 52 35
5.7689 14.4753 67.0968 0.394 -0.131 -0.910 33 45 27
6.2121 14.4707 67.2062 0.375 -0.171 -0.911 57 71 47
6.3366 14.4852 67.2802 0.386 -0.207 -0.899 58 71 50
6.5095 14.4662 67.2755 0.242 -0.281 -0.929 58 72 51
7.0564 14.2872 66.9331 0.424 -0.443 -0.790 55 70 41
7.1787 14.3027 67.0095 0.425 -0.532 -0.732 54 69 37
7.1225 14.4439 67.3828 -0.005 -0.786 -0.618 56 71 39
7.2447 14.4602 67.4612 0.521 -0.700 -0.488 52 67 37
7.3571 14.4834 67.5561 0.525 -0.693 -0.494 52 66 37
9.8970 14.3203 67.8057 -0.405 -0.377 -0.833 44 71 34
10.1074 14.2704 67.7261 -0.405 -0.377 -0.833 45 70 38
10.5406 14.1597 67.5406 0.174 -0.592 -0.787 47 68 45
10.7110 14.1390 67.5305 0.148 -0.626 -0.765 48 69 48
11.1530 14.3522 68.2391 -0.698 0.249 -0.671 59 73 55
13.5020 13.9612 67.8086 -0.167 -0.123 -0.978 51 53 50
13.6584 13.9492 67.8187 -0.184 -0.135 -0.974 48 50 48
13.8399 13.9165 67.7785 -0.374 -0.279 -0.885 43 48 42
14.3732 13.8256 67.6749 0.223 -0.359 -0.906 42 51 32
14.5407 13.8034 67.6600 0.316 -0.480 -0.818 40 49 32
14.7704 13.7285 67.5168 0.568 -0.349 -0.746 47 55 40
15.2428 13.9274 68.1947 0.439 -0.346 -0.830 74 85 69
15.3935 13.9195 68.2144 -0.282 -0.152 -0.947 73 85 71
15.5489 13.9073 68.2235 -0.333 -0.183 -0.925 72 86 71
15.9533 13.8004 68.0404 0.152 -0.166 -0.974 67 79 65
16.2199 13.8137 68.1503 0.148 -0.065 -0.987 59 66 53
18.0858 13.6475 68.2061 0.171 -0.526 -0.833 66 73 57
18.7277 13.5683 68.1645 0.258 -0.030 -0.966 51 71 51
18.9685 13.6046 68.3308 0.353 -0.254 -0.900 50 76 53
19.0858 13.6261 68.4221 0.295 -0.223 -0.929 53 80 58
19.4851 13.6449 68.5839 0.724 -0.418 -0.549 49 74 52
19.6230 13.6465 68.6262 0.469 -0.348 -0.812 50 74 52
19.7735 13.6356 68.6375 0.362 -0.506 -0.782 55 72 50
20.0759 13.7525 69.0426 0.089 -0.066 -0.994 57 72 49
20.2256 13.7427 69.0568 0.089 -0.066 -0.994 54 69 46
22.6726 13.5102 69.0899 0.427 -0.381 -0.820 44 62 40
23.7982 13.4887 69.3403 0.391 -0.208 -0.896 54 63 46
23.9393 13.4853 69.3698 0.444 -0.357 -0.822 57 66 49
24.0520 13.5151 69.4827 0.384 -0.395 -0.835 62 71 54
25.6064 13.4721 69.7919 0.254 -0.502 -0.827 72 76 61
25.7811 13.4257 69.7123 0.177 -0.303 -0.937 67 71 56
27.2942 13.4248 70.1262 0.601 -0.427 -0.676 61 54 46
27.4320 13.4243 70.1626 0.354 -0.135 -0.926 58 51 43
28.2630 13.4142 70.3633 0.287 -0.597 -0.749 75 65 55
28.3973 13.4183 70.4116 0.287 -0.597 -0.749 110 100 90
28.6693 13.4218 70.4961 0.115 -0.612 -0.783 92 82 71
28.9217 13.4539 70.6540 0.434 -0.522 -0.734 80 72 53
29.0775 13.4265 70.6214 0.210 -0.320 -0.924 89 81 62
30.6814 13.4922 71.2434 0.173 -0.484 -0.858 81 74 56
31.1619 13.6067 71.6909 0.299 -0.644 -0.704 91 85 69
31.4382 13.6051 71.7626 0.256 -0.604 -0.755 84 78 62
33.0044 13.7658 72.6359 0.228 -0.550 -0.803 68 69 61
37.2519 13.8441 74.0199 0.399 -0.476 -0.784 110 113 106
37.3482 13.9571 74.3577 0.164 -0.545 -0.822 106 109 102
37.4879 13.9540 74.3876 0.164 -0.545 -0.822 120 125 118
37.6276 13.9509 74.4174 0.164 -0.545 -0.822 134 140 130
37.8974 13.9717 74.5487 0.509 -0.574 -0.641 117 123 113
38.6628 14.1771 75.3250 0.205 -0.237 -0.950 130 131 126
39.7905 14.1326 75.5126 0.112 -0.565 -0.817 82 86 85
45.6883 15.0871 79.7633 0.370 -0.766 -0.525 92 103 96
45.8311 15.0895 79.8091 0.575 -0.619 -0.535 60 72 62
45.9722 15.1204 79.9328 0.389 -0.667 -0.636 31 43 31
46.1146 15.1330 80.0069 0.397 -0.673 -0.624 31 39 30
46.2570 15.1465 80.0831 0.397 -0.673 -0.624 39 44 39
46.3996 15.1599 80.1593 0.397 -0.673 -0.624 40 41 42
46.5405 15.2179 80.3578 0.656 -0.517 -0.549 42 41 45
46.6841 15.2145 80.3879 0.712 -0.392 -0.582 41 42 44
46.8256 15.2794 80.6055 -0.040 -0.623 -0.781 44 46 45
47.5440 15.2836 80.8148 0.803 -0.537 -0.258 57 58 52
49.8692 15.6870 82.5650 0.405 -0.654 -0.639 54 54 46
50.0144 15.6854 82.6005 0.400 -0.683 -0.612 54 54 46
50.1677 15.7835 82.9130 -0.429 -0.399 -0.811 49 49 41
50.3096 15.7396 82.8311 -0.435 -0.393 -0.810 47 46 41
50.8996 15.8154 83.2021 0.741 -0.307 -0.598 41 42 36
51.9486 16.0211 84.0570 0.433 -0.335 -0.837 71 75 68
52.2476 16.0596 84.2454 0.464 -0.573 -0.676 74 84 80
53.3176 16.2918 85.1790 0.400 -0.798 -0.452 52 72 76
55.8011 16.7555 87.1388 0.734 -0.156 -0.661 22 36 45
55.9641 16.8053 87.3206 0.715 -0.190 -0.673 28 43 48
57.7334 15.3993 83.9363 0.942 -0.135 -0.308 130 141 129
58.0464 15.4776 84.2381 0.797 -0.292 -0.529 109 121 99
58.2006 15.1096 83.2674 0.335 -0.739 -0.584 111 119 104
58.3859 15.2303 83.6507 0.187 -0.450 -0.873 111 117 103
58.5683 15.3404 84.0039 0.156 -0.326 -0.932 115 121 107
59.5976 15.7810 85.5001 -0.611 -0.056 -0.789 88 92 78
63.5738 21.4624 102.2365 -0.526 -0.792 -0.310 106 107 91
-23.5713 19.2840 71.7494 -0.593 0.000 -0.805 43 59 58
-14.2608 17.1062 68.3491 -0.293 -0.264 -0.919 60 71 73
-7.8300 16.2173 67.6856 0.162 -0.493 -0.855 68 75 67
-7.3671 16.1336 67.5837 0.531 0.012 -0.848 69 76 68
-7.2417 16.1497 67.6625 0.531 0.012 -0.848 22 29 22
-7.1348 16.1762 67.7643 0.206 -0.255 -0.945 39 45 41
-6.9604 16.1654 67.7828 0.166 -0.264 -0.950 55 61 58
-5.6129 15.8432 67.2714 0.328 -0.658 -0.678 68 74 73
-5.2658 15.8201 67.3037 -0.111 -0.566 -0.817 52 61 61
-5.0719 15.7968 67.2934 -0.111 -0.566 -0.817 84 93 89
-2.7011 15.4804 67.0799 -0.234 -0.397 -0.888 58 62 61
-2.6370 15.5316 67.2376 0.079 -0.324 -0.943 73 77 76
-2.2747 15.4960 67.2399 -0.142 -0.145 -0.979 90 94 94
-2.0491 15.4517 67.1806 0.066 -0.297 -0.953 58 62 60
-1.9104 15.4588 67.2383 0.221 -0.030 -0.975 76 82 77
-1.7303 15.4412 67.2397 0.009 -0.170 -0.985 53 60 53
-0.6445 15.3300 67.2342 0.147 0.173 -0.974 40 49 45
2.9676 14.7385 66.6088 0.369 -0.371 -0.852 39 54 50
3.3466 14.8737 67.0835 0.464 0.094 -0.881 37 53 37
3.4063 14.9310 67.2569 0.369 -0.223 -0.902 32 49 31
5.7909 14.6088 67.0310 0.511 -0.421 -0.749 41 56 34
6.9660 14.4985 67.0524 0.415 -0.515 -0.750 54 70 41
7.0919 14.5118 67.1234 0.402 -0.519 -0.754 54 71 38
7.4051 14.5982 67.4463 0.525 -0.693 -0.494 55 72 40
8.4986 14.5415 67.5922 -0.481 0.056 -0.875 46 74 43
14.4262 13.8096 67.2199 0.408 -0.396 -0.822 64 73 54
15.2476 14.0711 68.1623 0.353 -0.449 -0.821 70 78 63
15.4586 14.0106 68.0546 -0.340 -0.223 -0.914 70 78 63
16.0226 13.8865 67.8701 -0.003 -0.519 -0.855 73 83 68
18.1203 13.7623 68.1074 0.155 -0.530 -0.833 63 70 54
18.8388 13.7426 68.2512 0.393 -0.298 -0.870 44 65 44
19.0740 13.7852 68.4326 0.245 -0.415 -0.876 52 76 54
19.2112 13.7875 68.4768 0.236 -0.426 -0.873 58 82 60
19.6012 13.8162 68.6627 0.203 -0.506 -0.838 61 83 61
19.6634 13.8935 68.8916 0.197 -0.059 -0.979 65 82 59
19.7206 13.9767 69.1352 -0.262 -0.139 -0.955 67 82 59
22.5086 13.6871 69.1096 0.276 -0.322 -0.906 55 73 51
22.6770 13.6540 69.0655 0.441 -0.360 -0.822 48 66 44
23.8022 13.6333 69.3186 0.376 -0.228 -0.898 58 67 50
23.9370 13.6374 69.3668 0.402 -0.201 -0.893 62 71 54
24.0645 13.6500 69.4363 0.180 -0.311 -0.933 67 76 59
24.1972 13.6566 69.4910 0.163 -0.418 -0.894 71 80 63
25.6319 13.5904 69.7048 0.241 -0.494 -0.836 89 93 78
25.7555 13.6083 69.7878 0.083 -0.223 -0.971 84 88 73
25.8836 13.6207 69.8571 0.605 -0.395 -0.691 74 78 63
28.5435 13.5579 70.4175 0.304 -0.581 -0.755 110 100 90
28.9439 13.5744 70.5729 0.475 -0.528 -0.704 79 68 50
29.3477 13.5863 70.7165 0.313 -0.609 -0.729 101 90 72
29.9043 13.5742 70.8368 0.248 -0.726 -0.641 103 96 78
29.9864 13.6604 71.0952 0.132 -0.512 -0.849 113 106 88
30.7182 13.5878 71.0981 0.174 -0.414 -0.893 84 77 59
31.1867 13.7219 71.5943 0.279 -0.634 -0.721 86 80 64
36.7328 13.9301 73.6912 0.453 -0.230 -0.861 114 119 113
37.3670 14.0801 74.2767 0.312 -0.162 -0.936 92 95 88
37.5031 14.0868 74.3323 0.300 -0.190 -0.935 123 126 117
37.6411 14.0882 74.3741 0.269 -0.260 -0.927 138 141 132
37.9160 14.0945 74.4671 0.504 -0.577 -0.642 122 125 116
38.0509 14.1049 74.5327 0.504 -0.589 -0.632 120 123 116
38.1831 14.1237 74.6207 0.504 -0.589 -0.632 106 109 102
46.1305 15.2635 79.9298 -0.042 -0.593 -0.804 29 36 26
46.2733 15.2682 79.9819 -0.024 -0.589 -0.808 35 40 34
46.5565 15.3437 80.2666 0.463 -0.721 -0.515 37 37 38
46.6993 15.3618 80.3555 -0.039 -0.876 -0.481 38 39 39
46.9872 15.3201 80.3207 -0.011 -0.875 -0.485 46 48 47
51.0736 16.0688 83.4959 0.694 -0.375 -0.615 43 47 40
51.5060 16.0175 83.4745 0.609 -0.066 -0.790 59 66 59
51.8210 16.1870 84.0254 0.516 -0.591 -0.620 66 72 66
58.0599 15.6109 84.1654 0.797 -0.319 -0.513 108 120 98
58.2055 15.2178 83.1289 0.333 -0.737 -0.588 116 124 109
58.3429 15.2074 83.1384 0.509 -0.198 -0.838 122 128 114
61.9551 16.6156 87.9889 0.742 0.002 -0.670 90 92 71
62.0997 16.6094 88.0117 0.067 -0.918 -0.391 96 100 77
-23.8587 19.5898 71.9922 -0.603 0.026 -0.797 43 59 56
-14.4955 17.1417 67.9046 -0.208 -0.268 -0.941 53 65 65
-14.5418 17.3267 68.3955 -0.312 -0.591 -0.744 54 64 66
-9.2230 16.7065 68.1721 -0.337 -0.183 -0.924 58 65 57
-8.9596 16.6488 68.0873 -0.337 -0.183 -0.924 53 60 52
-7.7991 16.3558 67.6092 0.099 -0.068 -0.993 59 67 56
-7.6240 16.3448 67.6275 0.099 -0.068 -0.993 66 74 63
-7.4161 16.3156 67.6054 0.522 0.011 -0.853 67 74 66
-7.2884 16.3307 67.6816 0.520 0.006 -0.854 22 29 21
-7.0993 16.3117 67.6821 0.151 -0.077 -0.986 40 47 39
-6.9312 16.3044 67.7083 0.151 -0.077 -0.986 53 60 52
-6.7431 16.2858 67.7095 -0.184 -0.471 -0.863 52 59 52
-5.5651 15.9698 67.1736 0.365 -0.641 -0.676 51 60 57
-5.2220 15.9487 67.2106 -0.132 -0.561 -0.818 48 53 55
-3.1031 15.6912 67.0931 -0.129 -0.464 -0.876 45 47 43
-2.6108 15.6684 67.1667 0.036 -0.306 -0.951 83 88 83
-2.0441 15.6006 67.1382 0.221 -0.045 -0.974 81 86 82
-1.9012 15.6053 67.1903 0.227 -0.044 -0.973 68 75 69
-0.9386 15.3870 66.8611 0.064 -0.552 -0.831 42 52 41
-0.3955 15.3291 66.8530 0.245 -0.616 -0.748 57 66 59
3.4015 15.0841 67.2319 0.341 -0.225 -0.913 40 58 37
6.0541 14.7767 67.1255 0.528 -0.461 -0.713 54 72 46
7.3794 14.6617 67.1774 0.038 -0.742 -0.669 56 74 48
7.6322 14.6882 67.3192 0.222 -0.827 -0.516 58 77 48
8.4297 14.7409 67.6826 -0.515 -0.014 -0.857 49 73 43
11.9337 14.4875 67.9577 0.818 0.277 -0.504 71 78 60
12.0423 14.5154 68.0638 0.818 0.309 -0.485 67 74 56
14.4399 14.1831 67.8193 0.264 -0.307 -0.915 78 87 68
14.6105 14.1583 67.7988 0.241 -0.259 -0.935 74 83 64
14.4998 14.3746 68.3573 -0.677 -0.298 -0.672 77 86 67
17.5844 13.8881 67.8823 0.289 -0.488 -0.823 77 84 68
17.7121 13.8993 67.9479 0.285 -0.490 -0.824 73 80 64
18.9666 13.9015 68.2995 0.713 -0.271 -0.647 77 94 74
19.7659 14.0801 69.0064 -0.344 -0.653 -0.675 74 89 66
19.9108 14.0755 69.0336 -0.014 -0.447 -0.894 74 89 66
20.0752 14.0510 69.0121 0.037 -0.413 -0.910 74 89 66
22.5318 13.8103 69.0335 0.178 -0.220 -0.959 63 81 59
22.7161 13.7593 68.9453 0.651 -0.104 -0.752 61 79 57
23.5415 13.7644 69.1866 0.344 -0.264 -0.901 91 100 83
23.6739 13.7711 69.2415 0.391 -0.222 -0.893 82 91 74
24.0651 13.7989 69.4250 0.383 -0.206 -0.901 71 80 63
24.6535 13.7564 69.4714 0.089 -0.411 -0.907 89 101 81
25.1057 13.7097 69.4686 0.185 -0.638 -0.747 73 85 65
25.2524 13.6986 69.4789 0.150 -0.680 -0.718 72 84 64
27.4705 13.6750 70.0257 0.388 -0.147 -0.910 84 77 69
28.8508 13.6627 70.3725 0.106 -0.170 -0.980 80 69 52
29.2765 13.6405 70.4294 0.360 -0.509 -0.782 93 82 64
29.4077 13.6492 70.4892 0.357 -0.516 -0.779 93 82 64
29.9325 13.6846 70.7302 0.305 -0.698 -0.648 94 86 69
30.7287 13.7263 71.0631 0.266 -0.447 -0.854 97 90 72
31.2048 13.8484 71.5268 0.563 -0.408 -0.719 82 76 60
31.5996 13.8795 71.7205 0.022 -0.476 -0.879 82 76 60
31.8955 13.8433 71.7032 0.061 -0.541 -0.839 104 101 86
32.0378 13.8347 71.7191 0.061 -0.541 -0.839 85 87 73
32.1661 13.8511 71.7990 0.055 -0.429 -0.902 77 79 65
33.3356 13.9824 72.4789 0.401 -0.306 -0.863 109 108 103
36.9674 14.2102 74.0999 0.299 -0.284 -0.911 114 119 112
37.0994 14.2277 74.1841 0.245 -0.348 -0.905 103 108 101
37.2363 14.2324 74.2345 0.253 -0.305 -0.918 105 108 101
37.3841 14.2074 74.2071 0.281 -0.112 -0.953 104 107 98
37.5144 14.2302 74.3052 0.370 -0.011 -0.929 108 111 102
37.6484 14.2432 74.3774 0.360 -0.021 -0.933 118 121 112
37.9473 14.1802 74.2881 0.639 -0.568 -0.518 124 127 118
46.2909 15.3621 79.8060 0.117 -0.764 -0.635 29 34 25
46.5741 15.4277 80.0626 0.172 -0.922 -0.348 31 32 28
47.4322 15.4733 80.4233 0.806 -0.233 -0.544 57 59 49
47.5751 15.5383 80.6397 0.723 -0.459 -0.516 57 58 49
47.7187 15.5711 80.7686 0.152 -0.415 -0.897 63 64 55
47.8624 15.5733 80.8142 0.093 -0.432 -0.897 64 66 56
48.2953 15.6765 81.2145 0.841 -0.389 -0.375 68 69 64
48.4402 15.7074 81.3386 0.887 -0.423 -0.188 61 62 56
48.5884 15.8455 81.7556 0.888 -0.419 -0.189 56 57 51
51.0921 16.2347 83.5052 0.708 -0.324 -0.627 43 47 41
52.1249 16.2914 83.9443 0.372 -0.577 -0.727 71 78 80
55.6806 17.0336 86.9453 0.834 -0.358 -0.421 26 45 60
57.4229 16.3996 85.6987 0.141 -0.897 -0.419 29 43 46
57.5647 15.5060 83.3041 0.928 -0.172 -0.331 70 79 76
57.8975 15.6485 83.7838 0.789 -0.339 -0.513 114 126 107
58.0543 15.6893 83.9383 0.722 -0.400 -0.565 112 124 102
-15.1512 17.3087 67.7034 0.445 -0.329 -0.833 84 99 94
-14.4633 17.4468 68.2671 -0.312 -0.591 -0.744 54 64 66
-14.1875 17.3882 68.1844 -0.302 -0.595 -0.745 62 70 73
-9.5474 16.8692 68.0580 -0.327 -0.311 -0.892 48 55 48
-9.3131 16.8273 68.0093 -0.207 -0.455 -0.866 38 45 38
-8.9513 16.8011 68.0381 -0.332 -0.162 -0.929 47 54 47
-7.8347 16.5309 67.6139 0.121 -0.107 -0.987 48 55 47
-7.6501 16.5146 67.6208 0.127 -0.087 -0.988 67 74 66
-7.4790 16.5058 67.6441 0.155 -0.084 -0.984 66 73 65
-7.3122 16.4993 67.6725 0.148 -0.088 -0.985 20 27 19
-7.0981 16.4664 67.6423 0.130 -0.405 -0.905 40 48 36
-6.8845 16.4335 67.6121 -0.040 -0.395 -0.918 53 61 49
-5.8764 16.1264 67.0583 0.076 -0.517 -0.852 52 60 47
-2.6410 15.8387 67.1711 0.024 -0.314 -0.949 91 97 89
-2.4415 15.8099 67.1480 -0.028 -0.289 -0.957 85 91 83
-2.2650 15.7947 67.1554 -0.219 -0.233 -0.948 32 37 29
-2.0589 15.7616 67.1226 0.241 -0.058 -0.969 80 86 77
-1.9122 15.7640 67.1697 0.242 -0.052 -0.969 54 61 52
-0.3504 15.4522 66.7556 0.246 -0.623 -0.743 50 60 49
-0.2087 15.4567 66.8070 0.319 -0.609 -0.726 43 54 42
-0.3422 15.6317 67.2440 0.479 -0.492 -0.727 51 61 52
1.4785 15.3308 66.9312 0.736 0.042 -0.676 30 40 31
5.8127 14.8910 66.9350 0.553 -0.526 -0.646 59 77 53
5.9378 14.9052 67.0078 0.563 -0.528 -0.636 53 68 45
6.0775 14.9093 67.0573 0.528 -0.461 -0.713 66 81 58
7.6961 14.7907 67.1825 0.222 -0.827 -0.516 64 79 57
7.7998 14.8204 67.2916 0.168 -0.835 -0.523 62 78 54
8.7342 14.7719 67.4178 -0.651 -0.298 -0.698 63 78 53
11.0689 14.7523 68.0084 -0.491 0.109 -0.864 81 89 70
14.2900 14.3378 67.7739 0.270 -0.312 -0.911 90 99 80
13.9380 14.7599 68.8201 -0.676 -0.280 -0.682 88 97 78
14.5124 14.5124 68.3081 -0.674 -0.303 -0.674 80 89 70
15.7112 14.0835 67.4768 0.293 -0.499 -0.815 95 95 83
15.9085 14.0329 67.3943 0.270 -0.290 -0.918 94 95 83
16.0609 14.0219 67.4065 0.268 -0.308 -0.913 89 91 78
17.3286 14.0132 67.7323 0.015 -0.572 -0.820 97 101 87
17.4709 14.0108 67.7650 0.298 -0.482 -0.824 108 112 98
17.6067 14.0143 67.8120 0.298 -0.482 -0.824 97 104 88
17.5618 14.3201 68.6280 0.198 -0.443 -0.874 90 97 81
19.6310 14.3661 69.3233 -0.196 -0.391 -0.900 74 89 66
20.0202 14.1131 68.7453 0.247 -0.488 -0.837 74 89 66
20.1916 14.0807 68.7047 0.281 -0.405 -0.870 74 89 66
20.5251 14.1694 69.0368 0.354 -0.192 -0.915 78 93 70
20.8420 13.9843 68.6230 0.485 -0.270 -0.832 79 93 71
22.5702 13.9164 68.9156 0.225 -0.352 -0.908 61 79 57
22.8820 13.7221 68.4751 0.586 -0.468 -0.661 65 83 61
28.8635 13.7970 70.3273 0.109 -0.103 -0.989 70 58 41
30.6048 13.8603 70.9789 0.289 -0.366 -0.885 100 93 75
30.7369 13.8685 71.0375 0.297 -0.320 -0.900 105 98 80
31.3491 13.9943 71.5472 0.303 -0.349 -0.887 69 63 47
31.6356 13.9746 71.5728 0.293 -0.370 -0.882 73 67 51
31.8404 13.8561 71.3082 0.366 -0.373 -0.853 81 75 59
31.9764 13.8577 71.3499 0.432 -0.398 -0.809 84 81 66
32.1770 13.9901 71.7639 0.287 -0.385 -0.877 78 80 66
36.9774 14.3568 74.0808 0.229 -0.325 -0.918 100 105 98
37.1164 14.3556 74.1159 0.229 -0.325 -0.918 94 99 92
37.2528 14.3615 74.1697 0.273 -0.325 -0.905 106 109 102
37.3940 14.3545 74.1895 0.299 -0.346 -0.889 111 114 105
37.5265 14.3715 74.2721 0.348 -0.377 -0.859 111 114 105
37.7929 14.4025 74.4295 0.360 -0.021 -0.933 112 115 104
37.9238 14.4255 74.5279 0.385 -0.034 -0.922 120 123 114
38.0602 14.4325 74.5846 0.385 -0.034 -0.922 126 129 120
38.7055 14.5878 75.1830 0.066 -0.304 -0.951 110 109 105
39.7058 14.5010 75.2237 0.353 -0.545 -0.760 104 108 107
39.8444 14.5025 75.2662 0.271 -0.474 -0.838 99 103 102
39.9827 14.5046 75.3098 0.271 -0.474 -0.838 97 101 100
40.1175 14.5202 75.3895 0.256 -0.479 -0.840 101 107 105
41.5812 14.8224 76.6115 0.623 -0.339 -0.705 110 116 114
41.7206 14.8264 76.6608 0.660 -0.370 -0.654 111 117 115
41.8637 14.8124 76.6624 0.422 -0.359 -0.833 111 117 115
43.1184 14.8499 77.1098 0.393 -0.217 -0.894 115 124 123
45.3228 15.2909 78.9122 0.603 -0.239 -0.761 104 111 117
47.7342 15.6744 80.6160 0.177 -0.414 -0.893 61 64 49
47.8776 15.6709 80.6461 0.177 -0.414 -0.893 62 65 50
48.6027 15.9390 81.5721 0.879 -0.358 -0.314 57 58 52
48.7504 16.0279 81.8537 0.857 -0.385 -0.342 53 54 48
50.8128 16.3547 83.3077 0.271 -0.319 -0.908 43 44 38
50.9593 16.3558 83.3510 0.271 -0.319 -0.908 43 45 39
51.1042 16.3427 83.3553 0.272 -0.361 -0.892 44 46 41
51.5479 16.3826 83.5857 0.525 -0.502 -0.687 59 65 61
57.4189 16.4791 85.4662 0.147 -0.875 -0.461 34 48 51
57.4184 15.5841 83.0415 0.822 -0.351 -0.449 34 42 44
57.7495 15.7256 83.5162 0.722 -0.418 -0.552 115 126 114
57.8988 15.7457 83.6118 0.643 -0.487 -0.591 112 123 105
58.5018 15.4467 82.9680 0.942 -0.271 -0.200 133 141 126
59.7993 16.2281 85.4426 -0.291 -0.172 -0.941 111 117 103
-13.5665 17.3115 67.6772 -0.212 -0.524 -0.825 64 73 76
-9.7520 16.9670 67.8019 0.552 -0.777 -0.302 47 53 49
-9.3209 16.9886 67.9790 -0.238 -0.471 -0.849 58 65 58
-7.8654 16.6176 67.3810 0.039 -0.511 -0.858 55 62 54
-7.7461 16.6374 67.4672 0.189 -0.481 -0.856 63 70 62
-7.5955 16.6399 67.5155 0.058 -0.482 -0.874 73 80 72
-7.4127 16.6244 67.5242 0.369 -0.392 -0.843 73 80 73
-7.2688 16.6306 67.5806 0.376 -0.416 -0.828 39 47 38
-7.0657 16.6036 67.5639 0.109 -0.456 -0.883 40 49 33
-6.8607 16.5753 67.5444 -0.034 -0.408 -0.912 47 56 39
-5.8632 16.2726 67.0041 0.010 -0.437 -0.900 56 65 45
-4.7460 16.1577 67.0026 -0.201 -0.564 -0.801 55 68 44
-4.5930 16.1573 67.0438 -0.213 -0.423 -0.881 73 88 57
-4.2877 16.1569 67.1269 0.599 -0.342 -0.724 46 60 34
-2.6131 15.9746 67.0979 0.033 -0.306 -0.952 91 98 84
-2.4242 15.9520 67.0891 -0.037 -0.302 -0.953 65 73 58
-2.0636 15.9166 67.0933 0.240 0.029 -0.970 77 84 70
-1.9025 15.9104 67.1211 0.207 -0.016 -0.978 55 63 50
-0.4732 15.7716 67.1415 0.801 -0.595 -0.065 55 66 49
1.2562 15.3401 66.4561 0.301 -0.423 -0.855 38 50 32
1.3944 15.3460 66.5103 0.701 -0.571 -0.428 44 55 38
1.5163 15.3624 66.5881 0.701 -0.542 -0.462 46 57 40
2.6489 15.4910 67.2470 -0.473 -0.403 -0.784 59 73 56
2.8858 15.4325 67.1548 -0.458 -0.377 -0.805 59 74 56
3.1582 15.3501 67.0080 -0.396 -0.474 -0.786 66 79 61
3.2315 15.3993 67.1606 0.051 -0.561 -0.827 65 78 60
3.4090 15.3793 67.1559 0.048 -0.557 -0.829 59 72 54
3.5847 15.3605 67.1536 -0.230 -0.495 -0.838 57 70 53
4.6033 15.1689 66.9186 0.402 -0.277 -0.872 56 79 56
4.7515 15.1676 66.9560 0.377 -0.322 -0.868 55 79 55
4.9081 15.1606 66.9802 0.340 -0.240 -0.909 54 78 56
5.3591 15.2534 67.3548 -0.457 -0.127 -0.880 62 81 59
5.8444 15.0177 66.8537 0.563 -0.516 -0.645 66 83 60
5.9892 15.0181 66.8947 0.598 -0.507 -0.620 61 76 53
6.0918 15.0481 67.0039 0.425 -0.306 -0.852 71 85 62
14.3244 14.4561 67.6806 0.265 -0.313 -0.912 93 102 83
14.8805 14.2205 67.1991 0.128 -0.261 -0.957 88 97 76
14.9921 14.2454 67.2971 0.070 -0.341 -0.937 87 96 77
15.7774 14.1717 67.3152 0.224 -0.469 -0.854 106 101 90
15.9189 14.1703 67.3506 0.269 -0.241 -0.933 106 101 90
15.9848 14.2365 67.5471 0.319 -0.343 -0.883 101 97 86
17.3503 14.1400 67.6638 0.205 -0.383 -0.901 103 107 93
17.4834 14.1461 67.7170 0.638 -0.376 -0.672 109 113 99
17.5915 14.1757 67.8265 0.601 -0.401 -0.691 101 108 92
20.5252 14.0286 68.2398 0.505 -0.580 -0.639 79 94 71
22.7896 13.9742 68.7180 0.540 -0.539 -0.646 67 85 63
24.8193 14.0228 69.4090 -0.121 -0.332 -0.935 77 89 69
25.3764 14.0164 69.5456 0.297 -0.490 -0.819 91 100 81
25.5182 14.0116 69.5717 0.295 -0.490 -0.820 81 85 70
25.6682 13.9960 69.5712 0.277 -0.634 -0.722 85 89 74
26.1935 14.0298 69.8071 0.403 -0.494 -0.771 80 84 69
27.9059 13.9461 70.0540 0.021 -0.354 -0.935 78 68 58
29.1357 13.9533 70.4128 0.019 -0.211 -0.977 91 80 62
30.4921 13.9760 70.8483 0.174 -0.500 -0.849 126 119 101
30.6189 13.9929 70.9287 0.289 -0.366 -0.885 107 100 82
30.7498 14.0031 70.9924 0.296 -0.363 -0.883 101 94 76
31.3729 14.1109 71.4548 0.292 -0.368 -0.883 68 62 46
31.8590 13.9805 71.2377 0.367 -0.376 -0.851 72 66 52
32.0037 13.9666 71.2400 0.408 -0.427 -0.807 72 70 55
36.9942 14.4850 74.0137 0.314 -0.384 -0.868 100 105 98
37.1272 14.5003 74.0917 0.337 -0.102 -0.936 93 98 91
37.2641 14.5050 74.1421 0.355 -0.062 -0.933 106 109 102
37.4057 14.4967 74.1590 0.382 -0.050 -0.923 110 113 104
37.5384 14.5134 74.2406 0.367 -0.043 -0.929 117 120 111
38.5743 14.7433 75.1457 0.039 -0.398 -0.916 114 115 110
38.7233 14.7131 75.1054 0.034 -0.329 -0.944 107 108 103
38.8627 14.7133 75.1444 -0.013 -0.338 -0.941 106 107 102
39.5878 14.6138 75.0764 0.591 -0.548 -0.592 115 119 118
39.7209 14.6344 75.1688 0.357 -0.521 -0.776 108 112 111
39.8513 14.6657 75.2891 0.522 -0.300 -0.798 105 109 108
43.1183 15.0822 77.3127 0.406 -0.691 -0.598 111 120 119
43.2686 15.0185 77.1825 0.509 -0.596 -0.622 110 119 118
45.0576 15.3895 78.6758 0.312 -0.278 -0.908 117 126 123
45.6146 15.5333 79.2167 0.333 -0.524 -0.784 92 101 100
45.7574 15.5287 79.2438 0.295 -0.539 -0.789 88 98 89
45.8981 15.5560 79.3561 0.184 -0.754 -0.631 78 89 74
47.3225 15.5522 79.7390 0.043 -0.143 -0.989 74 77 56
48.0366 15.8061 80.6201 0.436 -0.301 -0.848 64 67 48
48.1804 15.8310 80.7269 0.457 -0.252 -0.853 63 65 52
48.4712 15.9815 81.2124 0.827 -0.390 -0.404 59 60 54
48.9168 16.3095 82.2193 0.773 -0.553 -0.311 52 53 47
49.0658 16.3832 82.4588 0.773 -0.553 -0.311 53 54 48
50.9719 16.4678 83.2127 0.302 -0.366 -0.880 45 46 40
51.1164 16.4522 83.2106 0.305 -0.368 -0.879 50 52 47
52.3072 16.6028 83.9449 0.579 -0.143 -0.802 86 98 99
53.3836 16.8763 84.9788 0.680 -0.163 -0.715 48 73 80
55.2286 17.1773 86.2988 0.746 -0.506 -0.434 62 84 95
57.7459 15.8073 83.3023 0.142 -0.463 -0.875 121 132 120
57.8810 15.7864 83.2834 0.148 -0.390 -0.909 119 131 112
59.8061 16.3464 85.3234 -0.295 -0.099 -0.950 115 121 107
59.9624 16.3761 85.4464 -0.401 -0.209 -0.892 120 127 113
-16.5582 17.8488 67.8248 -0.066 -0.358 -0.931 48 66 66
-16.3424 17.8217 67.8117 -0.010 -0.331 -0.943 56 74 74
-16.1622 17.8122 67.8359 -0.007 -0.319 -0.948 76 94 94
-15.8155 17.7998 67.8987 -0.008 -0.407 -0.914 75 91 90
-10.7284 17.0585 67.3169 -0.006 -0.488 -0.873 58 72 72
-9.2727 17.1194 67.8819 0.295 -0.877 -0.378 35 42 35
-7.7248 16.7810 67.4025 0.190 -0.499 -0.846 63 70 62
-7.6112 16.8041 67.4959 0.031 -0.464 -0.885 62 69 61
-7.3997 16.7726 67.4697 0.369 -0.421 -0.829 67 74 66
-7.2582 16.7801 67.5290 0.369 -0.421 -0.829 58 65 55
-7.0253 16.7361 67.4755 0.044 -0.575 -0.817 57 67 46
-6.8070 16.7002 67.4395 -0.194 -0.390 -0.900 53 63 40
-5.6747 16.4061 66.9641 0.202 -0.141 -0.969 53 63 39
-5.5041 16.3960 66.9841 0.185 -0.154 -0.971 37 48 29
-5.0884 16.3326 66.9290 -0.175 -0.473 -0.863 39 51 33
-4.8994 16.3115 66.9247 -0.153 -0.477 -0.865 61 73 51
-4.2729 16.3015 67.0709 0.599 -0.342 -0.724 42 62 28
-4.0013 16.3209 67.1978 0.434 -0.314 -0.844 80 101 77
-3.1369 16.1688 67.0291 -0.036 -0.505 -0.863 32 49 24
-2.9724 16.1611 67.0537 -0.130 -0.379 -0.916 54 67 44
-2.7693 16.1301 67.0268 -0.068 -0.504 -0.861 83 91 71
-2.1699 16.0420 66.9561 -0.177 -0.591 -0.787 79 85 63
-2.0157 16.0399 66.9930 0.007 -0.565 -0.825 75 83 63
-1.8309 16.0191 66.9885 -0.006 -0.571 -0.821 54 62 45
3.2334 15.5483 67.1253 -0.032 -0.373 -0.927 67 80 62
3.4511 15.5014 67.0598 0.130 -0.552 -0.824 66 81 62
4.6181 15.3082 66.8642 0.042 -0.585 -0.810 68 80 60
5.6004 15.1338 66.6682 -0.198 -0.243 -0.950 75 88 68
5.9660 15.1832 66.9015 0.633 -0.468 -0.616 62 76 53
6.0971 15.1933 66.9648 0.430 -0.319 -0.845 71 86 63
6.6162 15.1346 66.9508 -0.141 -0.135 -0.981 74 90 65
7.6780 14.9958 66.8720 0.090 -0.729 -0.678 72 85 75
12.1485 14.8755 67.7842 -0.071 -0.967 -0.244 95 102 84
12.5518 14.8972 67.9537 0.184 -0.507 -0.842 101 106 85
15.4025 14.2784 67.0828 0.167 -0.234 -0.958 103 102 88
15.6616 14.2968 67.2036 0.238 -0.466 -0.853 113 104 95
15.8042 14.2944 67.2366 0.202 -0.510 -0.836 118 109 100
15.8540 14.3751 67.4664 0.433 -0.373 -0.820 119 109 100
16.0392 14.3347 67.4093 0.222 -0.598 -0.770 113 104 95
16.4218 14.2418 67.2662 0.262 -0.211 -0.942 104 95 86
17.0282 14.1974 67.3146 0.238 -0.147 -0.960 111 115 101
18.3175 14.2968 67.9370 -0.089 -0.434 -0.896 99 106 90
18.4750 14.2795 67.9339 0.042 -0.635 -0.772 94 101 85
20.8606 14.2617 68.5450 0.426 -0.465 -0.776 81 94 75
23.3245 14.1433 68.9082 0.420 -0.413 -0.808 104 115 98
23.4411 14.1685 69.0080 0.409 -0.363 -0.837 91 100 83
24.2396 14.2057 69.3282 0.189 -0.327 -0.926 80 89 72
25.3928 14.1464 69.4876 0.307 -0.457 -0.835 108 117 98
25.5277 14.1502 69.5351 0.307 -0.457 -0.835 91 95 80
25.6629 14.1537 69.5817 0.279 -0.483 -0.830 95 99 84
25.9117 14.1888 69.7445 -0.023 -0.384 -0.923 103 107 92
26.3405 13.9879 69.3247 0.346 -0.151 -0.926 86 88 74
26.4923 13.9683 69.3139 0.409 -0.254 -0.876 85 87 73
26.9967 14.0269 69.6103 0.361 -0.271 -0.893 74 67 59
27.1351 14.0252 69.6439 0.351 -0.258 -0.900 71 64 56
27.2702 14.0279 69.6886 0.403 -0.261 -0.877 61 54 46
27.7495 14.1255 70.0823 0.187 -0.434 -0.881 82 72 63
27.8910 14.1197 70.1060 0.175 -0.422 -0.889 85 75 65
28.0189 14.1334 70.1781 0.117 -0.438 -0.891 80 70 60
28.1609 14.1270 70.2000 0.117 -0.438 -0.891 70 60 50
28.6948 14.1504 70.4102 0.483 -0.374 -0.792 97 87 76
28.8849 14.0717 70.2517 -0.067 -0.433 -0.899 89 77 60
30.5108 14.1008 70.7787 0.174 -0.500 -0.849 128 121 103
30.7659 14.1323 70.9337 0.335 -0.353 -0.874 92 85 67
30.9471 14.0582 70.7850 0.163 -0.354 -0.921 71 64 46
31.2134 14.0705 70.8915 0.466 -0.244 -0.850 69 63 47
32.0403 14.0586 71.0879 0.197 -0.027 -0.980 84 82 67
34.8928 14.3881 72.7586 -0.009 -0.205 -0.979 107 115 104
35.0287 14.3922 72.8073 0.026 -0.403 -0.915 99 109 100
37.1418 14.6345 74.0401 0.335 -0.413 -0.847 96 101 94
37.2711 14.6601 74.1444 0.464 -0.234 -0.854 106 109 102
37.6738 14.6990 74.3597 0.256 0.100 -0.961 114 117 108
38.5951 14.8593 75.0438 0.013 -0.382 -0.924 109 110 105
38.9267 14.6871 74.6738 0.550 -0.166 -0.818 106 107 102
39.6088 14.7261 74.9668 0.603 -0.569 -0.559 107 111 110
39.7383 14.7596 75.0924 0.392 -0.556 -0.733 111 115 114
42.4534 15.0884 76.7231 0.244 -0.394 -0.886 127 136 135
43.6839 15.3048 77.6429 0.168 0.274 -0.947 107 116 115
43.8274 15.2857 77.6311 0.049 0.268 -0.962 118 127 126
43.9698 15.2732 77.6370 0.155 0.091 -0.984 120 129 128
44.1115 15.2660 77.6568 0.176 0.091 -0.980 119 128 127
44.2519 15.2688 77.7031 0.028 0.018 -0.999 115 124 123
44.5237 15.3573 78.0153 0.544 -0.590 -0.597 107 116 113
44.6628 15.3768 78.1059 0.649 -0.383 -0.657 107 116 113
45.0736 15.5184 78.5988 0.440 -0.466 -0.768 116 125 122
45.4924 15.6054 78.9479 0.625 -0.321 -0.711 106 113 118
45.6315 15.6498 79.1052 0.314 -0.584 -0.749 93 101 101
45.7733 15.6586 79.1677 0.205 -0.605 -0.769 76 86 77
48.1965 16.0083 80.7740 0.670 -0.255 -0.697 85 87 71
48.6332 16.1930 81.3897 0.845 -0.381 -0.376 76 77 71
48.9215 16.1745 81.4197 0.098 -0.492 -0.865 58 59 53
49.0669 16.1977 81.5221 0.044 -0.475 -0.879 57 58 52
49.2109 16.1876 81.5348 0.044 -0.475 -0.879 57 58 52
49.4989 16.1735 81.5763 0.603 -0.117 -0.789 55 56 50
49.6477 16.2424 81.8022 0.927 0.070 -0.368 53 54 48
49.7877 16.1750 81.6602 0.154 -0.879 -0.451 45 46 40
50.9927 16.6562 83.2825 0.052 -0.321 -0.946 46 47 42
51.1327 16.5983 83.1658 0.106 -0.201 -0.974 52 54 49
51.2850 16.6516 83.3508 0.396 -0.623 -0.674 58 63 59
57.5059 16.4799 84.6086 0.180 -0.388 -0.904 29 40 42
57.6227 15.9562 83.2374 0.115 -0.252 -0.961 79 86 83
57.7552 15.9270 83.1957 0.057 -0.184 -0.981 135 146 134
57.8935 15.9161 83.2049 0.090 -0.295 -0.951 137 148 130
59.8194 16.4810 85.2504 -0.347 -0.151 -0.926 116 122 108
59.9681 16.4917 85.3201 -0.445 -0.191 -0.875 122 128 114
64.0138 17.6302 89.4883 0.603 -0.715 -0.354 89 92 75
-25.2418 20.5208 72.0769 -0.717 -0.194 -0.669 56 81 75
-16.5347 17.9974 67.7571 -0.135 -0.419 -0.898 53 71 71
-16.3335 17.9774 67.7595 -0.066 -0.358 -0.931 63 81 81
-16.1345 17.9584 67.7638 -0.109 -0.432 -0.895 62 80 80
-15.8620 17.9023 67.6894 -0.024 -0.214 -0.977 64 82 82
-9.7008 17.1677 67.4340 0.241 -0.691 -0.682 64 71 65
-7.6562 16.8981 67.2804 0.481 -0.309 -0.820 58 66 55
-7.5354 16.9172 67.3647 0.190 -0.499 -0.846 59 66 58
-7.3811 16.9175 67.4083 0.161 -0.474 -0.866 56 63 55
-7.2039 16.9050 67.4237 0.165 -0.526 -0.835 66 73 62
-6.9888 16.8708 67.3921 0.058 -0.605 -0.794 75 84 61
-6.7948 16.8484 67.3861 -0.210 -0.393 -0.895 68 78 52
-5.8850 16.5927 66.9559 -0.087 -0.321 -0.943 66 77 46
-5.6846 16.5655 66.9389 0.202 -0.141 -0.969 58 69 39
-5.4936 16.5437 66.9334 -0.010 -0.346 -0.938 42 51 28
-5.3031 16.5219 66.9281 -0.020 -0.408 -0.913 62 74 53
-5.0546 16.4664 66.8488 -0.175 -0.473 -0.863 54 68 45
-4.8688 16.4471 66.8485 -0.153 -0.489 -0.859 59 72 47
-3.9912 16.4684 67.1480 0.434 -0.314 -0.844 68 95 64
-3.1230 16.3133 66.9745 -0.067 -0.491 -0.868 51 70 41
-2.9006 16.2707 66.9224 -0.056 -0.515 -0.855 69 81 56
-2.7038 16.2433 66.9037 -0.037 -0.597 -0.801 90 97 74
-2.5164 16.2214 66.8970 -0.059 -0.604 -0.795 73 78 56
-2.1403 16.1763 66.8807 -0.167 -0.612 -0.773 91 96 73
-1.7474 16.1203 66.8401 -0.167 -0.612 -0.773 70 79 61
1.4647 15.6955 66.5955 0.619 -0.231 -0.750 75 86 63
1.6043 15.7009 66.6484 0.000 -0.397 -0.918 71 83 60
3.0097 15.5531 66.6428 0.045 -0.771 -0.635 68 85 59
10.4000 14.9343 67.0357 -0.387 -0.872 -0.301 79 75 67
15.7152 14.5207 67.4022 0.335 0.023 -0.942 129 116 108
15.8687 14.5090 67.4133 0.433 -0.373 -0.820 129 116 108
15.9975 14.5194 67.4766 0.433 -0.373 -0.820 123 111 103
16.3714 14.5624 67.6945 0.018 0.336 -0.942 105 101 90
17.1575 14.3534 67.3548 0.243 -0.033 -0.969 112 115 101
17.2977 14.3526 67.3913 0.209 -0.130 -0.969 111 114 101
18.4311 14.3341 67.6553 -0.046 -0.249 -0.967 105 108 94
22.5374 14.2444 68.5509 0.292 -0.302 -0.907 75 91 70
24.4118 14.3149 69.2569 0.273 -0.438 -0.856 102 110 92
25.5343 14.2927 69.5078 0.566 -0.463 -0.682 99 102 88
25.7001 14.2567 69.4578 0.302 -0.508 -0.806 103 105 91
26.1083 14.2633 69.5882 -0.084 -0.295 -0.952 111 112 99
26.4761 14.1405 69.3624 0.326 -0.221 -0.919 90 90 77
27.0012 14.1722 69.5921 0.247 -0.317 -0.916 78 71 63
28.3460 14.2105 70.0658 0.411 -0.638 -0.651 54 45 34
28.4601 14.2446 70.1881 0.179 -0.411 -0.894 107 98 87
28.5958 14.2469 70.2318 0.477 -0.350 -0.806 111 102 91
28.7096 14.2821 70.3571 0.483 -0.374 -0.792 84 74 63
29.4614 14.1820 70.2980 0.461 -0.313 -0.830 71 61 42
29.5981 14.1822 70.3364 0.455 -0.305 -0.837 86 75 56
29.8593 14.2022 70.4617 0.470 -0.249 -0.847 82 73 54
30.3865 14.2356 70.6965 0.335 -0.511 -0.791 98 91 74
30.5296 14.2255 70.7091 0.174 -0.500 -0.849 103 97 80
30.6595 14.2372 70.7763 0.168 -0.487 -0.857 72 65 48
30.8023 14.2276 70.7901 0.262 -0.494 -0.829 82 75 58
30.9515 14.2068 70.7760 0.318 -0.255 -0.913 75 69 52
31.2223 14.2116 70.8634 0.447 -0.197 -0.873 65 59 44
31.8900 14.4879 71.7844 0.293 -0.383 -0.876 77 74 60
32.0305 14.4834 71.8114 0.076 -0.425 -0.902 78 80 66
32.1985 14.4282 71.7107 0.248 -0.288 -0.925 79 81 66
32.3445 14.4128 71.7098 0.197 -0.294 -0.935 78 80 65
35.1919 14.5005 72.7304 0.019 -0.418 -0.908 98 108 98
36.5114 14.6443 73.4786 0.649 -0.407 -0.643 112 117 111
36.6277 14.7012 73.6622 0.610 -0.447 -0.654 114 119 113
36.8997 14.7137 73.7709 0.672 -0.469 -0.573 117 122 116
37.1619 14.7538 73.9501 0.359 -0.678 -0.642 99 104 97
37.2958 14.7667 74.0215 0.315 -0.675 -0.667 105 108 101
37.7206 14.7408 74.0699 0.422 -0.089 -0.902 114 117 108
38.9424 14.8182 74.6136 0.457 -0.071 -0.886 107 108 102
39.4734 14.9008 74.9807 -0.264 -0.198 -0.944 90 95 92
39.6241 14.8585 74.9095 0.577 -0.588 -0.567 101 105 103
39.8849 14.9203 75.1463 0.624 -0.102 -0.775 114 119 116
40.5363 15.0972 75.7978 0.739 -0.250 -0.625 92 103 102
40.6688 15.1272 75.9146 0.070 -0.842 -0.535 89 101 99
43.8366 15.4671 77.6959 0.084 0.219 -0.972 119 128 127
43.9813 15.4382 77.6590 0.164 0.095 -0.982 119 128 127
44.1229 15.4328 77.6837 -0.064 -0.110 -0.992 119 128 127
44.2650 15.4225 77.6954 -0.085 -0.118 -0.989 114 123 122
44.4067 15.4143 77.7126 -0.078 -0.112 -0.991 102 111 108
44.5441 15.4451 77.8326 0.255 -0.320 -0.912 102 111 108
45.3676 15.7179 78.7874 0.625 -0.321 -0.711 92 99 104
45.6478 15.7742 79.0150 0.314 -0.584 -0.749 93 102 100
48.7909 16.2628 81.1858 0.659 0.074 -0.748 63 65 59
49.5152 16.3249 81.5516 0.595 -0.118 -0.795 56 57 51
49.6600 16.3304 81.6063 0.842 0.236 -0.486 53 54 48
49.8018 16.2934 81.5467 0.152 -0.891 -0.427 45 46 40
50.8612 16.7891 83.1607 0.718 -0.112 -0.687 39 40 35
51.0104 16.8150 83.2709 0.089 -0.275 -0.957 46 47 42
51.1499 16.7522 83.1423 0.064 -0.156 -0.986 53 56 50
55.2764 17.5318 86.3605 0.782 -0.314 -0.538 56 75 89
57.2512 16.6819 84.6408 0.468 -0.665 -0.582 29 44 47
57.9487 16.5997 84.6145 0.118 -0.438 -0.891 131 141 130
57.9102 16.0579 83.1596 0.142 -0.302 -0.943 132 143 125
58.4587 16.0037 83.1669 0.738 -0.483 -0.471 132 142 127
59.6347 16.4779 84.7558 0.817 -0.186 -0.546 109 115 101
59.8714 16.7137 85.4496 0.739 -0.545 -0.396 116 122 108
-16.7840 18.2019 67.7621 -0.187 -0.423 -0.887 72 89 90
-16.5208 18.1508 67.6995 0.008 -0.355 -0.935 58 76 78
-16.1053 18.1039 67.6900 -0.109 -0.432 -0.895 45 63 63
-15.8875 18.0751 67.6740 -0.113 -0.442 -0.890 54 72 72
-9.0011 17.2833 67.4791 0.306 -0.897 -0.318 44 51 43
-8.6691 17.2723 67.5418 -0.350 -0.657 -0.668 42 49 41
-8.4479 17.2360 67.5066 -0.340 -0.648 -0.681 36 41 34
-7.6464 17.0479 67.2297 0.481 -0.309 -0.820 60 64 55
-7.5114 17.0592 67.2968 0.046 -0.702 -0.711 75 79 69
-6.9429 17.0000 67.2972 0.058 -0.605 -0.794 81 91 65
-6.7650 16.9867 67.3110 -0.191 -0.358 -0.914 77 88 56
-5.8741 16.7404 66.9045 -0.087 -0.321 -0.943 66 80 46
-5.6800 16.7168 66.8955 -0.040 -0.365 -0.930 60 74 39
-5.4805 16.6899 66.8794 -0.010 -0.346 -0.938 48 58 30
-5.2823 16.6635 66.8643 -0.020 -0.408 -0.913 51 59 39
-5.0407 16.6118 66.7939 -0.159 -0.473 -0.867 68 79 56
