ply
format ascii 1.0
element vertex 876
property float x
property float y
property float z
property float nx
property float ny
property float nz
property uchar diffuse_red
property uchar diffuse_green
property uchar diffuse_blue
end_header
-10.3454 38.9599 61.9163 -0.389 -0.228 -0.893 76 68 65
-10.2184 38.9299 61.8508 -0.390 -0.241 -0.889 87 79 76
-9.9654 38.8699 61.7160 -0.619 -0.297 -0.727 170 162 159
-9.4284 38.7553 61.6266 -0.312 0.047 -0.949 73 72 63
-9.3106 38.7242 61.5159 -0.028 -0.073 -0.997 68 68 58
-9.1620 38.6977 61.5706 0.076 -0.079 -0.994 61 61 51
-9.0193 38.6702 61.5929 0.042 -0.098 -0.994 56 56 46
-8.8838 38.6417 61.5769 0.039 -0.115 -0.993 59 59 49
-8.8431 38.6006 61.0706 0.179 -0.177 -0.968 130 130 120
-8.6991 38.5735 61.1022 0.179 -0.177 -0.968 143 143 133
-8.5770 38.5436 61.0222 -0.340 -0.032 -0.940 143 143 132
-8.4546 38.5137 60.9444 -0.458 -0.026 -0.888 129 132 112
-8.2153 38.4980 61.4500 -0.539 -0.018 -0.842 129 132 111
-8.0970 38.4675 61.3489 -0.533 -0.064 -0.844 129 132 111
-8.0379 38.4303 60.9597 -0.122 -0.202 -0.972 129 132 111
-7.9283 38.3991 60.8216 -0.496 -0.036 -0.868 112 115 94
-7.8025 38.3699 60.7638 -0.452 -0.050 -0.890 118 121 100
-7.6804 38.3402 60.6887 -0.428 -0.045 -0.903 109 111 90
-7.4626 38.3206 61.0660 -0.030 -0.237 -0.971 88 88 70
-7.3250 38.2924 61.0616 0.010 -0.210 -0.978 69 64 52
-7.1922 38.2637 61.0344 -0.053 -0.216 -0.975 77 69 58
-7.0487 38.2361 61.0566 -0.204 -0.233 -0.951 85 76 67
-6.9190 38.2071 61.0149 -0.232 -0.136 -0.963 91 82 73
-6.7840 38.1786 60.9977 -0.220 -0.195 -0.956 96 87 78
-6.6507 38.1500 60.9728 -0.220 -0.195 -0.956 90 81 72
-6.5131 38.1218 60.9671 -0.161 -0.164 -0.973 81 72 63
-6.3737 38.0936 60.9691 -0.019 -0.153 -0.988 76 67 58
-6.2371 38.0653 60.9584 -0.047 -0.125 -0.991 76 63 55
-5.9752 38.0076 60.8881 -0.374 -0.192 -0.907 77 64 56
-2.8302 37.3525 60.6129 0.065 0.317 -0.946 80 71 62
-0.9293 36.9214 59.9057 0.074 -0.268 -0.961 72 66 54
-0.7202 36.8639 59.6728 0.061 -0.389 -0.919 61 52 45
-0.5704 36.8356 59.7042 0.102 -0.286 -0.953 55 46 37
-0.4007 36.8073 59.7982 0.087 -0.144 -0.986 49 42 32
0.1343 36.7220 60.1544 0.201 0.254 -0.946 42 38 32
0.4757 36.6361 59.8972 -0.337 0.291 -0.895 33 33 25
1.1720 36.5206 60.2920 -0.327 -0.466 -0.822 30 30 22
1.6547 36.4335 60.4565 0.169 -0.314 -0.934 27 28 22
7.3771 35.2417 59.9618 -0.448 0.076 -0.891 41 37 35
7.7509 35.2013 60.5058 -0.402 0.408 -0.820 43 38 34
7.8620 35.1733 60.4217 -0.354 0.338 -0.872 41 37 29
7.9661 35.1457 60.3213 0.229 -0.043 -0.973 43 36 26
8.0774 35.1178 60.2388 0.104 -0.197 -0.975 43 36 28
8.2141 35.0886 60.2164 0.076 -0.220 -0.973 44 37 29
8.3636 35.0588 60.2234 -0.181 -0.190 -0.965 54 47 39
8.5066 35.0293 60.2154 -0.247 -0.218 -0.944 69 62 54
8.6409 35.0003 60.1870 -0.247 -0.218 -0.944 78 69 60
8.9529 34.9398 60.2298 0.211 0.033 -0.977 61 49 37
9.1076 34.9096 60.2476 0.194 0.002 -0.981 73 61 49
9.1064 34.8881 59.9120 -0.038 0.133 -0.990 92 80 68
9.2513 34.8585 59.9085 -0.173 0.104 -0.979 92 80 68
9.3804 34.8298 59.8696 -0.144 0.014 -0.989 87 75 63
9.5266 34.8001 59.8689 0.000 -0.098 -0.995 83 71 59
9.6669 34.7708 59.8549 -0.031 -0.044 -0.999 83 73 63
10.1387 34.6797 59.9240 0.141 -0.362 -0.922 82 72 62
10.3121 34.6483 59.9816 0.163 -0.367 -0.916 84 74 64
10.5001 34.6159 60.0704 -0.122 -0.008 -0.992 85 75 65
11.5746 34.4036 60.1545 -0.011 -0.364 -0.931 84 74 62
11.8849 34.3426 60.1827 0.029 -0.392 -0.919 110 101 83
12.0421 34.3119 60.2009 0.029 -0.392 -0.919 125 117 98
12.3868 34.2684 60.6076 0.117 -0.065 -0.991 141 133 114
12.5466 34.2374 60.6285 0.117 -0.065 -0.991 133 122 104
12.7065 34.2064 60.6495 0.117 -0.065 -0.991 125 114 96
12.8573 34.1759 60.6513 -0.049 0.025 -0.998 118 110 91
13.3790 34.0599 60.4928 -0.004 -0.277 -0.961 95 90 68
13.5332 34.0292 60.5010 -0.004 -0.277 -0.961 110 104 82
14.1330 33.9268 60.7969 0.272 -0.027 -0.962 110 109 83
14.3109 33.8942 60.8500 0.158 -0.028 -0.987 107 110 81
14.5028 33.8605 60.9301 0.109 -0.338 -0.935 114 119 89
14.8362 33.7968 60.9894 0.125 -0.339 -0.932 112 117 87
15.0087 33.7454 60.7355 0.227 -0.137 -0.964 106 112 80
15.3543 33.6807 60.8175 0.272 -0.157 -0.949 101 112 77
15.7805 33.6284 61.3424 -0.430 -0.232 -0.872 95 107 71
15.9179 33.5986 61.3128 -0.430 -0.243 -0.870 91 101 66
16.1414 33.5432 61.1567 0.254 -0.141 -0.957 117 127 92
17.0121 33.3794 61.3524 0.088 -0.217 -0.972 106 104 83
17.2575 33.3407 61.5218 0.340 -0.448 -0.827 107 101 82
17.5028 33.2835 61.4060 0.229 -0.372 -0.900 94 88 66
18.2728 33.1453 61.6825 0.122 -0.459 -0.880 121 113 92
18.6129 33.0799 61.7360 0.179 -0.310 -0.934 136 128 107
18.7960 33.0460 61.7856 0.098 -0.261 -0.960 138 131 113
18.9788 33.0121 61.8340 -0.044 -0.217 -0.975 127 120 102
19.1492 32.9793 61.8599 0.082 -0.270 -0.959 108 99 82
19.3178 32.9465 61.8823 0.092 -0.263 -0.960 103 96 78
19.5652 32.8890 61.7687 0.183 0.023 -0.983 103 98 78
21.3686 32.5672 62.4408 0.340 -0.019 -0.940 85 78 52
21.5267 32.5351 62.4406 0.278 -0.071 -0.958 106 100 74
21.7522 32.4968 62.5537 0.328 -0.244 -0.912 108 101 73
21.9534 32.4606 62.6252 0.311 -0.250 -0.917 116 109 83
22.3822 32.3857 62.8100 0.328 -0.244 -0.912 137 129 108
22.5935 32.3485 62.8960 0.328 -0.244 -0.912 142 134 113
22.8924 32.2857 62.8616 0.116 -0.241 -0.964 141 133 112
23.1054 32.2482 62.9489 -0.100 0.088 -0.991 132 124 103
23.2940 32.2130 62.9954 0.169 -0.163 -0.972 125 117 96
23.5226 32.1739 63.1068 0.080 -0.238 -0.968 127 119 98
23.6833 32.1413 63.1066 0.108 -0.238 -0.965 127 119 98
23.0884 32.0681 60.1192 -0.195 0.433 -0.880 145 138 112
25.8422 31.7595 63.9659 0.228 -0.279 -0.933 142 136 112
27.5126 31.4402 64.2617 0.438 -0.571 -0.694 145 145 121
29.7063 31.1124 66.0617 0.562 -0.479 -0.675 121 115 91
26.9262 31.3899 61.6535 0.268 -0.020 -0.963 112 106 82
27.0448 31.3618 61.5913 0.203 0.056 -0.978 136 130 104
-31.1535 43.8913 70.5896 0.030 -0.654 -0.756 86 91 84
-31.0099 43.8609 70.5689 -0.075 -0.482 -0.873 30 37 29
-30.8681 43.8322 70.5685 0.010 -0.479 -0.878 30 37 29
-30.5839 43.7743 70.5630 0.081 -0.393 -0.916 33 34 28
-30.4082 43.7126 70.1705 -0.448 0.169 -0.878 33 32 27
-30.2559 43.6732 70.0418 -0.578 -0.254 -0.775 33 32 27
-30.1007 43.6305 69.8730 -0.377 0.221 -0.900 32 31 26
-29.8015 43.5556 69.6579 -0.568 0.098 -0.817 29 28 23
-23.6587 42.1190 66.7540 0.341 -0.483 -0.806 35 36 31
-23.2409 42.0290 66.6737 -0.389 0.001 -0.921 68 69 64
-23.1017 41.9968 66.6119 -0.447 0.055 -0.893 73 74 69
-22.9627 41.9618 66.5087 -0.604 0.056 -0.795 73 74 69
-22.8236 41.9326 66.4936 -0.748 0.074 -0.659 73 74 69
-22.6852 41.8963 66.3693 -0.770 0.144 -0.621 71 72 67
-22.4100 41.8210 66.0745 -0.632 0.151 -0.761 32 33 28
-21.7256 41.6472 65.5456 0.006 -0.620 -0.784 61 60 56
-21.0389 41.4963 65.3659 -0.655 -0.311 -0.689 106 98 95
-20.7673 41.4306 65.2046 -0.526 -0.106 -0.844 150 139 137
-20.6303 41.4005 65.1701 -0.385 0.157 -0.909 140 130 128
-20.4942 41.3690 65.1107 -0.387 0.151 -0.909 115 107 104
-16.5934 40.4738 63.5225 -0.161 -0.697 -0.699 107 104 99
-16.4572 40.4452 63.5073 -0.327 -0.567 -0.756 116 113 108
-15.5126 40.2405 63.3036 -0.325 -0.340 -0.882 213 213 205
-15.3784 40.2109 63.2674 -0.326 -0.297 -0.898 234 234 226
-15.2433 40.1818 63.2411 -0.312 -0.330 -0.891 154 154 146
-15.1091 40.1524 63.2066 -0.306 -0.326 -0.894 113 113 105
-14.9708 40.1247 63.2106 -0.240 -0.274 -0.931 101 101 93
-14.8731 40.0804 62.8438 -0.373 -0.094 -0.923 122 122 114
-14.7366 40.0523 62.8357 -0.350 -0.022 -0.937 129 129 121
-14.6046 40.0223 62.7872 -0.350 -0.022 -0.937 123 123 115
-14.4727 39.9924 62.7388 -0.416 -0.179 -0.892 114 114 106
-14.3422 39.9621 62.6799 -0.440 -0.192 -0.877 108 108 100
-14.1796 39.9433 62.8922 -0.406 -0.087 -0.910 105 105 97
-14.0484 39.9131 62.8366 -0.406 -0.087 -0.910 126 126 118
-13.9131 39.8843 62.8159 -0.207 -0.167 -0.964 131 131 123
-13.7802 39.8547 62.7756 -0.253 -0.327 -0.911 114 114 106
-13.6457 39.8257 62.7487 -0.253 -0.327 -0.911 73 68 62
-13.5123 39.7964 62.7134 -0.278 -0.332 -0.901 61 56 50
-13.4162 39.7554 62.3905 -0.081 -0.152 -0.985 66 61 55
-13.2842 39.7259 62.3488 -0.387 -0.084 -0.918 83 78 72
-13.1515 39.6967 62.3129 -0.354 -0.257 -0.899 84 79 73
-13.0199 39.6671 62.2696 -0.354 -0.257 -0.899 88 83 77
-12.8884 39.6376 62.2262 -0.354 -0.257 -0.899 95 90 84
-12.7637 39.6063 62.1342 0.022 -0.303 -0.953 101 94 87
-12.6214 39.5798 62.1696 -0.408 -0.251 -0.878 68 59 51
-12.5030 39.5469 62.0348 -0.302 -0.334 -0.893 81 72 63
-12.3694 39.5181 62.0091 -0.306 -0.323 -0.896 88 78 69
-12.2364 39.4892 61.9788 -0.312 -0.327 -0.892 83 73 64
-12.1045 39.4600 61.9420 -0.513 -0.143 -0.846 96 86 77
-11.9722 39.4310 61.9073 -0.413 -0.103 -0.905 104 94 85
-11.8375 39.4025 61.8896 -0.120 -0.242 -0.963 115 105 96
-11.7113 39.3721 61.8158 -0.119 -0.300 -0.947 122 112 103
-11.5765 39.3437 61.7994 -0.117 -0.263 -0.958 125 116 109
-11.3017 39.2880 61.7979 -0.611 -0.047 -0.790 107 98 91
-10.9234 39.1973 61.5859 -0.455 -0.239 -0.858 72 63 56
-10.7947 39.1677 61.5329 -0.443 -0.249 -0.861 72 63 56
-10.6638 39.1386 61.4937 -0.348 -0.201 -0.916 72 63 56
-10.5329 39.1096 61.4551 -0.351 -0.191 -0.916 87 79 76
-10.3235 39.0951 61.8739 -0.369 -0.001 -0.929 85 77 74
-10.1971 39.0650 61.8057 -0.419 -0.202 -0.885 90 82 79
-10.0626 39.0363 61.7837 -0.304 0.092 -0.948 75 67 64
-9.9321 39.0070 61.7399 -0.285 0.091 -0.954 49 41 38
-9.8012 38.9777 61.6980 -0.285 0.091 -0.954 77 69 66
-9.6705 38.9485 61.6561 -0.285 0.091 -0.954 90 82 79
-9.5370 38.9197 61.6294 -0.239 0.127 -0.963 73 67 62
-9.4045 38.8908 61.5977 -0.315 0.120 -0.941 73 72 63
-9.2785 38.8608 61.5315 -0.276 0.139 -0.951 68 68 58
-9.1342 38.8338 61.5633 -0.096 -0.087 -0.992 61 61 51
-8.9933 38.8061 61.5760 0.018 -0.140 -0.990 56 56 46
-8.8573 38.7777 61.5623 0.039 -0.115 -0.993 62 62 52
-8.8196 38.7353 61.0417 0.156 -0.149 -0.977 137 137 127
-8.6781 38.7079 61.0604 0.177 -0.124 -0.976 139 139 129
-8.5505 38.6787 61.0085 -0.350 -0.004 -0.937 119 119 108
-8.4289 38.6486 60.9273 -0.458 -0.026 -0.888 125 128 108
-8.1898 38.6338 61.4308 -0.539 -0.018 -0.842 125 128 107
-8.1543 38.5927 60.9221 -0.132 -0.153 -0.979 125 128 107
-8.0104 38.5655 60.9509 -0.129 -0.116 -0.985 125 128 107
-7.9005 38.5342 60.8149 -0.487 -0.025 -0.873 123 126 105
-7.7775 38.5046 60.7436 -0.452 -0.050 -0.890 125 128 107
-7.6551 38.4749 60.6700 -0.428 -0.045 -0.903 111 113 92
-7.4404 38.4556 61.0323 -0.030 -0.237 -0.971 87 87 69
-7.3017 38.4276 61.0329 0.010 -0.210 -0.978 75 70 58
-7.1666 38.3992 61.0166 -0.027 -0.238 -0.971 71 63 52
-7.0248 38.3714 61.0312 -0.177 -0.188 -0.966 63 54 45
-6.7559 38.3144 60.9916 -0.190 -0.182 -0.965 67 58 49
-6.6218 38.2858 60.9705 -0.190 -0.182 -0.965 73 64 55
-6.4711 38.2588 61.0229 -0.013 0.098 -0.995 82 73 64
-6.3457 38.2294 60.9626 -0.017 -0.112 -0.994 88 79 70
-6.2118 38.2008 60.9401 -0.047 -0.125 -0.991 91 78 70
-6.0843 38.1717 60.8896 -0.247 -0.061 -0.967 90 77 69
-5.9383 38.1441 60.9194 -0.531 0.004 -0.847 90 77 69
-5.3203 37.9220 59.4634 -0.384 0.123 -0.915 76 61 54
-5.1551 37.8961 59.5770 0.006 0.399 -0.917 78 63 56
-4.7028 37.8887 60.8374 -0.192 -0.363 -0.912 81 66 59
-4.5821 37.8592 60.7617 -0.023 -0.258 -0.966 96 81 74
-4.4461 37.8307 60.7468 -0.010 -0.246 -0.969 84 69 62
-4.4287 37.7952 60.2677 0.083 -0.345 -0.935 87 72 65
-4.2802 37.7676 60.3048 -0.156 -0.401 -0.903 99 85 77
-2.6775 37.4596 60.5485 0.172 -0.016 -0.985 92 83 74
-1.0257 37.0548 59.4905 0.232 0.153 -0.961 72 66 54
-0.8513 37.0271 59.6039 0.093 -0.398 -0.913 66 59 49
-0.5864 37.0004 60.0084 0.320 0.047 -0.946 60 53 45
-0.4321 36.9721 60.0519 0.338 0.023 -0.941 62 53 44
0.0431 36.8869 60.2165 0.349 -0.094 -0.932 44 40 31
0.2048 36.8584 60.2800 0.349 -0.094 -0.932 31 28 21
0.3743 36.8299 60.3666 0.313 -0.177 -0.933 30 30 22
0.5106 36.8012 60.3489 0.100 0.016 -0.995 32 32 24
0.6610 36.7724 60.3749 -0.003 -0.110 -0.994 37 37 29
0.8027 36.7437 60.3734 -0.117 0.027 -0.993 63 63 55
0.9398 36.7149 60.3578 -0.281 0.203 -0.938 57 57 49
1.2212 36.6573 60.3477 -0.135 0.016 -0.991 39 39 31
1.3663 36.6285 60.3557 0.033 -0.006 -0.999 27 28 22
1.5415 36.5995 60.4529 0.259 0.016 -0.966 27 28 22
1.6756 36.5706 60.4271 0.168 -0.295 -0.941 27 28 22
1.9972 36.4572 59.7025 -0.637 -0.443 -0.631 20 21 15
7.1247 35.4615 60.3300 0.065 -0.114 -0.991 23 22 20
7.2551 35.4326 60.2925 -0.000 -0.112 -0.994 26 25 23
7.3900 35.4036 60.2657 -0.433 0.149 -0.889 32 31 29
7.4138 35.3793 59.9735 -0.383 0.106 -0.917 40 36 34
7.9135 35.3111 60.4676 -0.525 0.381 -0.761 41 36 29
8.0103 35.2837 60.3502 -0.448 0.346 -0.824 43 36 26
8.1355 35.2550 60.3001 -0.221 -0.083 -0.972 44 37 29
8.2564 35.2266 60.2402 -0.214 -0.167 -0.962 49 42 34
8.3921 35.1974 60.2151 -0.214 -0.167 -0.962 59 52 44
8.6740 35.1387 60.1892 0.235 0.254 -0.938 83 74 65
9.1293 35.0488 60.2237 0.175 -0.009 -0.985 78 66 54
9.1415 35.0260 59.9188 -0.058 0.166 -0.984 100 88 76
9.2821 34.9967 59.9056 -0.058 0.166 -0.984 109 97 85
9.4122 34.9679 59.8688 -0.055 0.060 -0.997 115 103 91
9.5514 34.9386 59.8524 0.069 -0.075 -0.995 121 109 97
9.6977 34.9090 59.8517 0.003 -0.082 -0.997 117 107 97
10.3193 34.7882 59.9267 0.163 -0.367 -0.916 84 74 64
10.5303 34.7548 60.0655 -0.122 -0.008 -0.992 84 74 64
11.1163 34.6355 60.0553 0.029 -0.331 -0.943 107 97 85
11.2715 34.6052 60.0708 0.029 -0.331 -0.943 98 88 76
11.4268 34.5748 60.0863 0.029 -0.331 -0.943 102 92 80
11.5919 34.5437 60.1221 0.032 -0.305 -0.952 111 101 89
11.7481 34.5132 60.1385 0.046 -0.336 -0.941 114 105 91
11.9104 34.4823 60.1677 0.264 -0.207 -0.942 95 86 68
12.0860 34.4506 60.2239 0.264 -0.207 -0.942 94 86 67
12.5800 34.3776 60.6294 0.122 -0.178 -0.976 109 98 80
12.7386 34.3467 60.6475 0.082 -0.187 -0.979 106 98 79
12.8913 34.3162 60.6532 -0.049 0.025 -0.998 97 89 70
13.3962 34.2012 60.4606 0.046 -0.177 -0.983 86 81 59
13.5475 34.1708 60.4632 -0.019 -0.170 -0.985 80 75 53
13.6909 34.1409 60.4498 0.038 -0.186 -0.982 101 96 74
14.6936 33.9708 60.9414 0.161 -0.345 -0.925 124 131 100
15.0418 33.9061 61.0286 0.140 -0.357 -0.923 110 115 85
15.0186 33.8882 60.6897 0.277 -0.177 -0.944 100 106 74
15.3494 33.8249 60.7434 0.300 -0.068 -0.952 97 108 72
16.5029 33.6217 61.1974 0.111 -0.095 -0.989 132 128 105
16.6637 33.5901 61.2118 0.035 -0.118 -0.992 117 111 91
16.8316 33.5580 61.2389 0.048 -0.133 -0.990 99 96 75
17.0219 33.5240 61.3072 0.102 -0.221 -0.970 104 103 82
17.1531 33.4947 61.2658 0.015 -0.172 -0.985 107 102 82
17.6858 33.3956 61.3962 0.255 -0.343 -0.904 104 96 75
18.1228 33.3227 61.6289 0.171 -0.308 -0.936 125 117 96
18.2985 33.2897 61.6665 0.162 -0.311 -0.936 122 114 93
18.4654 33.2573 61.6877 0.180 -0.311 -0.933 131 123 102
18.6403 33.2243 61.7231 0.163 -0.277 -0.947 135 127 108
18.8246 33.1904 61.7748 0.157 -0.290 -0.944 147 140 122
19.0027 33.1571 61.8148 0.165 -0.278 -0.946 145 138 120
19.1832 33.1235 61.8585 0.176 -0.278 -0.944 112 105 87
19.3666 33.0896 61.9071 0.235 -0.299 -0.925 96 89 71
20.3761 32.8935 62.0301 0.236 -0.133 -0.963 54 52 31
20.5424 32.8609 62.0462 0.258 -0.119 -0.959 55 54 34
21.5592 32.6812 62.4355 0.274 0.013 -0.962 131 124 100
21.7252 32.6484 62.4484 0.345 -0.244 -0.906 122 115 89
21.9380 32.6114 62.5395 0.345 -0.244 -0.906 130 123 97
22.1598 32.5736 62.6449 0.262 -0.229 -0.938 148 140 117
22.3597 32.5377 62.7129 0.252 -0.230 -0.940 141 133 112
23.1449 32.3949 62.9548 -0.023 0.212 -0.977 128 120 99
23.6433 32.2959 62.9828 -0.039 -0.015 -0.999 121 113 92
23.1569 32.2069 60.1724 -0.195 0.433 -0.880 129 122 96
25.8684 31.9101 63.9492 0.260 -0.245 -0.934 135 129 105
24.7132 31.9564 61.1380 0.468 -0.118 -0.876 133 125 104
24.9213 31.9032 60.9711 0.398 -0.239 -0.886 140 135 113
27.4410 31.6017 64.0953 0.431 -0.555 -0.712 132 132 108
26.9473 31.5372 61.6309 0.340 -0.074 -0.937 102 96 72
27.0934 31.5062 61.6096 0.203 0.056 -0.978 135 129 103
27.2784 31.4712 61.6461 0.203 0.056 -0.978 133 128 99
30.3882 31.0995 65.5083 0.359 -0.408 -0.839 131 126 97
-31.5370 44.1124 70.4623 -0.017 -0.468 -0.884 139 148 142
-31.2552 44.0560 70.4707 -0.029 -0.461 -0.887 140 147 139
-31.1157 44.0292 70.4908 -0.025 -0.456 -0.890 117 124 116
-30.9750 44.0015 70.5010 -0.025 -0.456 -0.890 61 68 60
-30.8319 43.9715 70.4850 -0.040 -0.444 -0.895 47 54 46
-30.5502 43.9159 70.5051 0.081 -0.393 -0.916 32 33 27
-30.2214 43.8128 69.9704 -0.578 -0.254 -0.775 31 30 25
-23.6322 42.2874 67.1383 0.400 -0.120 -0.909 39 40 35
-23.4919 42.2507 67.0162 -0.384 -0.031 -0.923 50 51 46
-23.2124 42.1676 66.6285 -0.403 0.053 -0.914 74 75 70
-23.0732 42.1354 66.5688 -0.396 0.061 -0.916 78 79 74
-22.7957 42.0671 66.3911 -0.603 0.062 -0.795 52 53 48
-22.6573 42.0318 66.2833 -0.603 0.062 -0.795 47 48 43
-22.5195 41.9953 66.1574 -0.650 0.128 -0.749 47 48 43
-21.8326 41.8256 65.7068 -0.743 0.042 -0.668 56 55 51
-21.6993 41.7805 65.4404 0.006 -0.620 -0.784 56 55 51
-21.5600 41.7563 65.4982 -0.141 -0.630 -0.763 62 61 57
-21.4213 41.7299 65.5222 -0.528 -0.413 -0.742 67 66 62
-21.2849 41.6970 65.4448 -0.543 -0.448 -0.710 75 74 70
-21.0138 41.6288 65.2478 -0.659 -0.387 -0.645 73 65 62
-20.6067 41.5312 65.0251 -0.266 -0.043 -0.963 96 86 84
-20.4701 41.5011 64.9888 -0.266 -0.043 -0.963 121 113 110
-20.1980 41.4392 64.8873 -0.454 0.026 -0.891 110 101 99
-20.0684 41.3990 64.6828 -0.317 0.300 -0.900 100 94 90
-18.0373 40.9460 64.0615 -0.146 0.143 -0.979 122 119 113
-17.9005 40.9175 64.0480 -0.133 0.086 -0.987 97 97 88
-17.6323 40.8563 63.9457 -0.258 0.080 -0.963 102 102 92
-17.4964 40.8272 63.9214 -0.265 0.085 -0.960 144 144 134
-16.8539 40.6584 63.3538 0.065 -0.280 -0.958 124 121 116
-16.5806 40.6023 63.3411 -0.023 -0.204 -0.979 123 120 115
-16.4388 40.5772 63.3918 -0.297 -0.597 -0.745 124 121 116
-16.3041 40.5479 63.3615 -0.297 -0.597 -0.745 136 133 128
-15.7622 40.4324 63.2741 -0.166 -0.353 -0.921 175 175 167
-15.6255 40.4041 63.2645 -0.249 -0.308 -0.918 138 138 130
-15.4890 40.3758 63.2530 -0.326 -0.297 -0.898 93 93 85
-15.3545 40.3464 63.2215 -0.332 -0.300 -0.894 57 57 49
-15.2207 40.3168 63.1832 -0.312 -0.330 -0.891 120 120 112
-15.0865 40.2873 63.1496 -0.306 -0.326 -0.894 132 132 124
-14.9470 40.2602 63.1646 -0.240 -0.274 -0.931 121 121 113
-14.8471 40.2163 62.8195 -0.373 -0.094 -0.923 97 97 89
-14.7171 40.1855 62.7531 -0.300 -0.014 -0.954 95 95 87
-14.5836 40.1563 62.7201 -0.415 0.010 -0.910 95 95 87
-14.4488 40.1275 62.6978 -0.360 -0.133 -0.923 95 95 87
-14.3176 40.0974 62.6454 -0.408 -0.151 -0.900 96 96 88
-14.1528 40.0799 62.8752 -0.406 -0.083 -0.910 81 81 73
-14.0217 40.0496 62.8195 -0.406 -0.083 -0.910 53 53 45
-13.8877 40.0203 62.7879 -0.180 -0.138 -0.974 56 56 48
-13.7526 39.9915 62.7660 -0.169 -0.140 -0.976 90 90 82
-13.6571 39.9492 62.4305 -0.253 -0.262 -0.931 138 133 127
-13.5220 39.9207 62.4125 -0.134 -0.196 -0.971 135 130 124
-13.3808 39.8942 62.4411 -0.224 -0.015 -0.975 120 115 109
-13.2478 39.8649 62.4064 -0.245 -0.065 -0.967 103 98 92
-13.1197 39.8342 62.3359 -0.348 -0.137 -0.927 78 73 67
-12.9952 39.8024 62.2396 -0.365 -0.217 -0.905 75 70 64
-12.8642 39.7727 62.1926 -0.386 -0.192 -0.902 71 66 60
-12.7388 39.7415 62.1065 0.004 -0.314 -0.950 70 63 56
-12.6020 39.7136 62.1024 0.034 -0.298 -0.954 89 80 72
-12.4726 39.6836 62.0460 -0.275 -0.137 -0.951 76 67 58
-12.3407 39.6543 62.0080 -0.328 -0.181 -0.927 70 60 51
-12.2084 39.6252 61.9735 -0.441 0.031 -0.897 74 64 55
-12.0804 39.5950 61.9096 -0.441 0.031 -0.897 103 93 84
-11.9450 39.5667 61.8965 -0.388 -0.055 -0.920 110 100 91
-11.8140 39.5374 61.8545 -0.148 -0.204 -0.968 101 91 82
-11.6874 39.5070 61.7840 -0.132 -0.250 -0.959 81 71 62
-11.5539 39.4783 61.7586 -0.167 -0.215 -0.962 100 91 84
-10.9036 39.3312 61.5304 -0.460 -0.246 -0.853 136 127 120
-10.7730 39.3020 61.4897 -0.412 -0.289 -0.864 105 96 89
-10.6429 39.2728 61.4460 -0.397 -0.348 -0.849 83 74 67
-10.5102 39.2440 61.4183 -0.351 -0.191 -0.916 86 78 75
-10.3015 39.2303 61.8329 -0.251 0.012 -0.968 95 87 84
-10.1689 39.2012 61.8000 -0.225 0.080 -0.971 108 100 97
-10.0352 39.1724 61.7740 -0.242 0.139 -0.960 117 109 106
-9.9035 39.1433 61.7366 -0.242 0.139 -0.960 97 89 86
-9.7718 39.1141 61.6992 -0.242 0.139 -0.960 79 71 68
-9.6403 39.0850 61.6619 -0.242 0.139 -0.960 73 65 62
-9.5099 39.0556 61.6184 -0.252 0.127 -0.959 81 75 71
-9.3786 39.0265 61.5800 -0.252 0.127 -0.959 85 83 75
-9.2472 38.9974 61.5425 -0.276 0.139 -0.951 84 84 74
-9.1060 38.9699 61.5577 -0.097 -0.091 -0.991 84 84 74
-8.9672 38.9419 61.5592 0.015 -0.110 -0.994 84 84 74
-8.8309 38.9136 61.5476 0.039 -0.115 -0.993 84 84 74
-8.7934 38.8703 61.0263 0.160 -0.037 -0.986 135 135 125
-8.6510 38.8432 61.0504 0.160 -0.037 -0.986 132 132 122
-8.5162 38.8149 61.0349 -0.142 -0.012 -0.990 129 129 118
-8.3919 38.7851 60.9665 -0.340 0.019 -0.940 125 128 108
-8.2571 38.7568 60.9514 -0.245 0.015 -0.969 125 128 107
-8.1276 38.7278 60.9097 -0.084 0.032 -0.996 125 128 107
-7.9806 38.7011 60.9541 -0.146 -0.129 -0.981 125 128 107
-7.8360 38.6740 60.9853 -0.171 -0.130 -0.977 133 136 115
-7.7525 38.6392 60.7233 -0.452 -0.050 -0.890 137 140 119
-7.6299 38.6095 60.6514 -0.428 -0.045 -0.903 124 126 105
-7.4182 38.5905 60.9987 -0.030 -0.237 -0.971 100 100 82
-7.2780 38.5628 61.0068 -0.027 -0.219 -0.975 64 59 47
-7.1445 38.5342 60.9830 -0.027 -0.238 -0.971 77 69 58
-6.9982 38.5070 61.0183 0.048 -0.091 -0.995 92 83 74
-6.4361 38.3954 61.0470 -0.060 0.210 -0.976 83 74 65
-6.2988 38.3671 61.0387 -0.050 0.196 -0.979 79 70 61
-6.1708 38.3379 60.9896 -0.127 0.187 -0.974 86 73 65
-6.1563 38.2980 60.4508 0.061 -0.222 -0.973 86 73 65
-6.0145 38.2704 60.4660 0.061 -0.222 -0.973 86 73 65
-5.9071 38.2397 60.3342 -0.279 0.178 -0.943 86 73 65
-5.7847 38.2104 60.2675 -0.347 0.210 -0.914 86 73 65
-5.6539 38.1818 60.2366 -0.353 0.174 -0.919 86 73 65
-5.5197 38.1536 60.2197 -0.063 0.201 -0.978 86 73 65
-5.3980 38.1243 60.1514 -0.323 0.243 -0.915 86 73 65
-4.6873 38.0238 60.7804 -0.192 -0.363 -0.912 84 69 62
-4.5616 37.9946 60.7250 -0.023 -0.258 -0.966 75 60 53
-4.4213 37.9664 60.7272 -0.067 -0.168 -0.983 84 69 62
-4.2795 37.9383 60.7352 -0.037 -0.154 -0.987 93 78 71
-4.1430 37.9098 60.7219 -0.106 -0.147 -0.983 98 84 77
-4.1395 37.8731 60.1966 -0.170 -0.368 -0.914 96 84 75
-3.6310 37.7580 60.0165 -0.609 -0.433 -0.665 114 104 94
-3.5210 37.7284 59.9087 -0.591 -0.489 -0.642 101 91 81
-3.1928 37.6747 60.0932 0.196 -0.246 -0.949 77 67 57
-2.4325 37.5363 60.3143 0.093 -0.597 -0.797 66 57 48
-0.9724 37.1900 59.5668 -0.227 0.414 -0.882 72 66 54
-0.8252 37.1619 59.5910 0.255 0.280 -0.926 65 58 48
-0.6743 37.1339 59.6265 0.236 0.231 -0.944 60 53 45
-0.2562 37.0796 60.0666 0.427 0.005 -0.904 52 45 35
0.3941 36.9664 60.3329 0.274 -0.104 -0.956 41 41 33
0.5335 36.9377 60.3251 0.096 0.034 -0.995 40 40 32
1.1143 36.8229 60.3621 -0.136 0.014 -0.991 35 35 27
1.3997 36.7654 60.3636 -0.018 0.021 -1.000 36 37 31
1.5758 36.7366 60.4632 0.238 0.017 -0.971 36 37 31
1.7093 36.7077 60.4354 0.136 -0.317 -0.939 36 37 31
1.7943 36.6503 59.8480 -0.434 -0.168 -0.885 36 37 29
1.9109 36.6217 59.7744 -0.429 -0.173 -0.886 36 37 31
2.0259 36.5931 59.6968 -0.437 -0.163 -0.885 37 38 32
7.4402 35.5412 60.3098 -0.362 0.138 -0.922 33 32 30
7.6607 35.5088 60.4875 -0.226 -0.652 -0.724 35 31 29
7.7988 35.4795 60.4674 -0.238 -0.621 -0.747 35 30 25
7.9609 35.4493 60.5040 -0.525 0.381 -0.761 36 31 24
8.0471 35.4221 60.3612 -0.480 0.328 -0.813 44 37 27
8.1601 35.3939 60.2825 -0.235 -0.100 -0.967 50 43 35
8.2903 35.3650 60.2446 -0.363 -0.278 -0.889 60 53 45
8.4108 35.3365 60.1841 -0.450 -0.290 -0.844 62 55 47
8.5333 35.3079 60.1286 -0.450 -0.290 -0.844 61 54 46
8.6756 35.2785 60.1192 -0.228 -0.186 -0.956 64 55 46
8.8587 35.2473 60.2030 0.131 -0.108 -0.985 68 58 48
9.0161 35.2171 60.2272 0.131 -0.108 -0.985 70 58 46
9.1775 35.1640 59.9276 -0.261 -0.172 -0.950 107 95 83
9.3226 35.1344 59.9243 -0.320 -0.155 -0.935 115 103 91
9.4433 35.1061 59.8665 -0.257 -0.212 -0.943 106 94 82
9.5765 35.0771 59.8367 -0.257 -0.212 -0.943 97 85 73
9.7260 35.0474 59.8430 -0.188 -0.131 -0.973 82 72 62
10.2174 34.9557 59.9550 0.106 -0.053 -0.993 83 73 63
10.3961 34.9243 60.0238 -0.015 -0.088 -0.996 74 64 54
10.5449 34.8945 60.0268 0.012 -0.063 -0.998 59 49 39
10.6941 34.8646 60.0304 0.012 -0.063 -0.998 47 37 25
10.8434 34.8347 60.0340 0.012 -0.063 -0.998 56 46 34
11.1359 34.7751 60.0278 0.016 -0.109 -0.994 71 61 49
11.2852 34.7452 60.0307 -0.043 -0.127 -0.991 82 72 60
11.4427 34.7147 60.0510 -0.005 -0.194 -0.981 89 79 67
11.9790 34.6409 60.5543 0.090 -0.055 -0.994 104 94 81
12.1440 34.6098 60.5871 -0.010 -0.065 -0.998 120 113 95
12.3050 34.5789 60.6112 0.021 -0.072 -0.997 107 99 80
12.4572 34.5485 60.6166 0.021 -0.072 -0.997 92 84 65
12.6043 34.5185 60.6113 0.118 -0.186 -0.975 92 84 65
12.7641 34.4876 60.6320 0.100 -0.205 -0.974 89 81 62
12.9204 34.4569 60.6450 0.019 -0.119 -0.993 80 72 53
13.0737 34.4264 60.6517 0.019 -0.119 -0.993 79 73 51
13.2199 34.3963 60.6437 -0.048 -0.102 -0.994 88 82 60
13.3727 34.3658 60.6489 -0.057 -0.092 -0.994 87 82 60
13.4311 34.3413 60.4642 0.012 -0.225 -0.974 87 82 60
13.5728 34.3115 60.4475 -0.010 -0.199 -0.980 87 82 60
13.7233 34.2812 60.4484 0.020 -0.219 -0.976 88 83 61
14.2050 34.1880 60.5093 0.185 -0.178 -0.966 80 84 55
14.3584 34.1574 60.5149 0.179 -0.176 -0.968 81 86 56
14.5269 34.1258 60.5497 0.194 -0.168 -0.966 80 85 55
14.6983 34.0939 60.5897 0.194 -0.168 -0.966 75 80 50
16.1963 33.8284 61.1322 0.145 -0.158 -0.977 93 104 70
16.3593 33.7968 61.1514 0.162 -0.163 -0.973 119 125 95
16.6929 33.7329 61.2028 0.116 -0.213 -0.970 129 123 104
17.0393 33.6679 61.2763 0.102 -0.221 -0.970 122 121 100
17.1670 33.6389 61.2284 0.013 -0.171 -0.985 125 119 100
17.4034 33.6015 61.3805 0.225 -0.353 -0.908 127 120 101
18.1379 33.4677 61.5938 0.231 -0.254 -0.939 133 125 104
18.8337 33.3364 61.7291 0.237 -0.137 -0.962 98 91 73
19.0249 33.3021 61.7926 0.223 -0.115 -0.968 98 91 73
19.2066 33.2686 61.8384 0.223 -0.115 -0.968 98 91 73
19.3851 33.2352 61.8783 0.243 -0.156 -0.957 105 98 80
20.4034 33.0390 62.0167 0.236 -0.133 -0.963 109 107 86
20.5706 33.0064 62.0343 0.264 -0.124 -0.956 94 93 73
21.2526 32.8931 62.3924 0.333 0.002 -0.943 78 71 45
21.6151 32.8252 62.4702 0.300 -0.025 -0.954 113 105 82
21.8073 32.7903 62.5269 0.281 -0.046 -0.958 118 111 85
22.0009 32.7552 62.5854 0.281 -0.046 -0.958 119 112 86
22.7200 32.6192 62.7222 -0.096 -0.277 -0.956 137 129 108
24.4135 32.2872 62.8705 -0.249 0.161 -0.955 113 105 82
29.0986 31.5063 65.2887 0.504 -0.509 -0.697 93 87 63
27.1759 31.6474 61.6784 0.283 -0.011 -0.959 107 101 75
30.4514 31.2506 65.5448 0.247 -0.426 -0.870 146 141 112
30.7007 31.2082 65.6619 0.085 -0.499 -0.862 153 149 122
-31.3438 44.2083 70.2208 0.283 -0.526 -0.802 138 148 139
-31.2110 44.1875 70.3063 0.260 -0.559 -0.787 140 147 139
-30.7970 44.1116 70.4138 -0.040 -0.444 -0.895 34 41 33
-30.6561 44.0837 70.4218 -0.035 -0.452 -0.891 19 24 17
-30.5127 44.0534 70.4023 0.010 -0.380 -0.925 27 28 22
-30.3748 44.0288 70.4476 -0.098 -0.537 -0.838 33 30 25
-23.4632 42.3910 66.9891 -0.387 -0.042 -0.921 50 51 46
-23.1839 42.3061 66.5840 -0.317 -0.138 -0.938 74 75 70
-23.0448 42.2728 66.5101 -0.407 0.013 -0.913 79 80 75
-22.9059 42.2407 66.4516 -0.525 0.034 -0.851 66 67 62
-22.7672 42.2083 66.3885 -0.606 0.053 -0.794 52 53 48
-22.6291 42.1711 66.2568 -0.633 0.009 -0.774 45 46 41
-21.9436 41.9893 65.6377 -0.689 0.092 -0.719 55 54 50
-21.8063 41.9579 65.5852 -0.712 -0.094 -0.696 55 54 50
-21.5340 41.8891 65.3881 -0.155 -0.631 -0.760 58 57 53
-21.1230 41.7974 65.2634 -0.654 -0.390 -0.649 76 72 69
-20.9882 41.7621 65.1488 -0.654 -0.390 -0.649 74 66 63
-20.5793 41.6689 64.9963 -0.268 -0.048 -0.962 94 84 82
-19.2184 41.3647 64.5749 0.008 0.068 -0.998 99 96 91
-18.0103 41.0832 64.0391 -0.138 -0.221 -0.965 88 85 79
-17.8728 41.0552 64.0355 -0.181 -0.339 -0.923 83 83 74
-16.2857 40.6796 63.2488 -0.297 -0.597 -0.745 113 110 105
-15.7358 40.5689 63.2511 -0.198 -0.255 -0.946 76 76 68
-15.6002 40.5401 63.2305 -0.198 -0.255 -0.946 94 94 86
-15.4632 40.5120 63.2249 -0.275 -0.232 -0.933 108 108 100
-15.3269 40.4835 63.2105 -0.275 -0.210 -0.938 121 121 113
-15.1929 40.4539 63.1748 -0.284 -0.214 -0.935 121 121 113
-15.0587 40.4245 63.1407 -0.284 -0.214 -0.935 133 133 125
-14.9236 40.3954 63.1154 -0.282 -0.201 -0.938 134 134 126
-14.8139 40.3554 62.8604 -0.372 0.199 -0.907 119 119 111
-14.6832 40.3248 62.8001 -0.372 0.199 -0.907 113 113 105
-14.5527 40.2942 62.7398 -0.372 0.199 -0.907 111 111 103
-14.4214 40.2640 62.6870 -0.323 0.006 -0.946 107 107 99
-14.2934 40.2325 62.6072 -0.347 -0.114 -0.931 104 104 96
-14.1281 40.2156 62.8411 -0.411 -0.154 -0.898 115 115 107
-13.9978 40.1850 62.7793 -0.385 -0.166 -0.908 128 128 120
-13.8618 40.1565 62.7642 -0.171 -0.143 -0.975 141 141 133
-13.7267 40.1277 62.7421 -0.169 -0.140 -0.976 147 147 139
-13.6335 40.0841 62.3900 -0.277 -0.280 -0.919 120 115 109
-13.4982 40.0557 62.3739 -0.120 -0.193 -0.974 106 101 95
-13.3493 40.0319 62.4624 -0.469 0.269 -0.841 96 91 85
-13.0933 39.9701 62.3182 -0.335 0.232 -0.913 70 65 59
-12.9656 39.9392 62.2461 -0.333 0.222 -0.916 86 81 75
-12.8346 39.9095 62.1987 -0.141 0.320 -0.937 107 102 96
-12.7013 39.8805 62.1688 -0.141 0.320 -0.937 124 117 110
-12.5726 39.8501 62.1065 -0.270 0.212 -0.939 114 105 97
-12.4478 39.8187 62.0185 -0.262 0.183 -0.947 130 121 112
-12.3143 39.7899 61.9918 -0.317 0.118 -0.941 124 114 105
-12.1853 39.7599 61.9343 -0.269 0.124 -0.955 99 89 80
-12.0508 39.7314 61.9148 -0.323 0.328 -0.888 111 101 92
-11.9064 39.7055 61.9615 -0.112 0.089 -0.990 108 98 89
-11.7773 39.6755 61.9060 -0.044 0.102 -0.994 85 75 66
-10.8815 39.4655 61.4889 -0.455 -0.239 -0.858 57 48 41
-10.7531 39.4358 61.4355 -0.412 -0.289 -0.864 83 74 67
-10.6232 39.4065 61.3914 -0.397 -0.327 -0.858 102 93 86
-10.4823 39.3795 61.4123 -0.323 -0.178 -0.930 100 92 89
-10.2733 39.3666 61.8273 -0.251 0.012 -0.968 103 95 92
-10.1390 39.3379 61.8046 -0.212 0.077 -0.974 109 101 98
-10.0096 39.3082 61.7535 -0.065 0.014 -0.998 112 104 101
-9.8739 39.2798 61.7388 -0.068 0.007 -0.998 88 80 77
-9.7373 39.2515 61.7293 -0.068 0.007 -0.998 75 67 64
-9.6080 39.2219 61.6787 -0.204 0.046 -0.978 77 69 66
-9.4775 39.1925 61.6357 -0.247 0.065 -0.967 91 85 81
-9.3405 39.1644 61.6279 -0.413 0.036 -0.910 63 61 54
-9.2982 39.1197 61.1142 -0.342 0.178 -0.923 70 70 62
-9.1640 39.0913 61.0961 -0.200 0.042 -0.979 82 82 72
-9.0318 39.0626 61.0675 -0.211 0.055 -0.976 91 91 81
-8.9069 39.0327 61.0009 0.145 -0.058 -0.988 90 90 80
-8.7653 39.0056 61.0214 0.153 -0.050 -0.987 138 138 128
-8.6229 38.9785 61.0449 0.153 -0.050 -0.987 130 130 118
-8.4935 38.9494 61.0021 -0.107 -0.013 -0.994 123 123 110
-8.3654 38.9201 60.9532 -0.340 0.003 -0.940 125 128 108
-8.2258 38.8926 60.9617 -0.091 0.082 -0.993 125 128 107
-7.9557 38.8360 60.9326 -0.146 -0.129 -0.981 125 128 107
-7.8229 38.8075 60.9074 -0.114 -0.164 -0.980 133 136 115
-7.7240 38.7743 60.7201 -0.473 -0.030 -0.881 137 140 119
-7.6046 38.7441 60.6327 -0.428 -0.045 -0.903 124 126 105
-7.3930 38.7258 60.9792 -0.020 -0.223 -0.975 100 100 82
-7.2552 38.6978 60.9759 -0.027 -0.219 -0.975 65 60 48
-7.1088 38.6708 61.0119 0.189 -0.150 -0.970 74 66 55
-6.9547 38.6446 61.0823 0.154 -0.109 -0.982 85 76 67
-6.8098 38.6173 61.1095 0.137 -0.088 -0.987 92 83 74
-6.5378 38.5605 61.0819 -0.105 0.086 -0.991 85 76 67
-6.3972 38.5325 61.0881 -0.053 0.105 -0.993 78 69 60
-6.2574 38.5045 61.0903 -0.087 0.143 -0.986 74 65 56
-6.1346 38.4747 61.0187 -0.197 0.142 -0.970 82 69 61
-6.1326 38.4326 60.4265 -0.254 0.184 -0.950 82 69 61
-6.0046 38.4037 60.3826 -0.287 0.186 -0.940 82 69 61
-5.8760 38.3748 60.3414 -0.255 0.176 -0.951 82 69 61
-5.7529 38.3455 60.2775 -0.240 0.189 -0.952 86 73 65
-5.6189 38.3172 60.2598 -0.063 0.201 -0.978 86 73 65
-5.4841 38.2890 60.2453 -0.063 0.201 -0.978 86 73 65
-4.6593 38.1598 60.7733 -0.217 -0.285 -0.934 88 73 66
-4.5261 38.1311 60.7475 -0.203 -0.281 -0.938 99 84 77
-4.1195 38.0455 60.6973 -0.186 -0.309 -0.933 70 56 48
-3.6280 37.8914 59.9166 -0.611 -0.474 -0.634 104 94 84
-3.1713 37.8095 60.0626 0.196 -0.246 -0.949 79 69 59
-0.8719 37.3594 60.2586 -0.147 0.446 -0.883 77 69 58
-0.7419 37.3306 60.2224 -0.147 0.446 -0.883 72 66 54
0.2529 37.1311 60.2394 0.235 -0.159 -0.959 48 45 38
1.0377 36.9286 59.6116 -0.073 -0.186 -0.980 49 49 41
1.1883 36.9002 59.6399 0.147 -0.215 -0.966 36 37 31
1.9241 36.7577 59.7237 -0.253 -0.224 -0.941 37 38 32
2.0421 36.7290 59.6550 -0.436 -0.164 -0.885 37 38 32
2.1647 36.7004 59.5999 -0.436 -0.164 -0.885 31 30 26
2.3039 36.6718 59.5930 -0.286 0.048 -0.957 27 26 24
2.4612 36.6432 59.6369 -0.087 0.050 -0.995 27 26 24
7.8481 35.5933 60.1615 0.054 -0.283 -0.958 41 36 29
8.0294 35.5626 60.2442 0.056 -0.467 -0.883 50 43 33
8.1703 35.5332 60.2315 -0.248 -0.307 -0.919 56 49 41
8.3000 35.5043 60.1925 -0.264 -0.317 -0.911 48 41 33
8.4201 35.4758 60.1314 -0.450 -0.290 -0.844 47 40 32
8.5425 35.4472 60.0759 -0.450 -0.290 -0.844 46 39 31
8.6941 35.4175 60.0878 -0.228 -0.186 -0.956 53 44 35
8.8827 35.3862 60.1842 0.179 -0.255 -0.950 69 59 49
9.0233 35.3568 60.1701 0.196 -0.281 -0.940 84 72 60
9.1426 35.3284 60.1077 0.214 -0.291 -0.933 93 81 69
9.1940 35.3028 59.8924 -0.272 -0.032 -0.962 88 76 64
9.3383 35.2734 59.8874 -0.301 -0.138 -0.944 81 69 57
9.4682 35.2445 59.8502 -0.301 -0.138 -0.944 78 66 54
9.6084 35.2153 59.8361 -0.188 -0.142 -0.972 77 65 53
9.7560 35.1856 59.8383 0.003 -0.112 -0.994 82 72 62
10.2496 35.0943 59.9546 0.113 -0.057 -0.992 87 77 67
10.4058 35.0641 59.9742 0.113 -0.057 -0.992 82 72 62
10.5777 35.0332 60.0276 -0.030 -0.061 -0.998 73 63 53
10.7216 35.0036 60.0197 -0.018 -0.078 -0.997 67 57 45
10.8749 34.9735 60.0318 -0.028 -0.074 -0.997 72 62 50
11.1831 34.9133 60.0589 0.066 0.050 -0.997 78 68 56
11.3130 34.8843 60.0206 -0.123 0.019 -0.992 88 78 66
11.4578 34.8547 60.0139 -0.081 0.005 -0.997 90 80 68
11.8510 34.8117 60.5298 0.158 -0.050 -0.986 84 74 62
12.0094 34.7811 60.5493 0.090 -0.055 -0.994 82 72 59
12.1838 34.7496 60.6015 -0.086 -0.141 -0.986 91 84 65
12.3292 34.7196 60.5931 -0.086 -0.141 -0.986 106 98 79
12.4810 34.6893 60.5976 -0.067 -0.164 -0.984 120 112 93
12.6222 34.6596 60.5802 0.064 -0.277 -0.959 131 123 104
12.7790 34.6290 60.5948 0.053 -0.275 -0.960 121 113 94
12.9366 34.5983 60.6106 0.019 -0.311 -0.950 101 93 74
13.0952 34.5675 60.6282 -0.008 -0.299 -0.954 89 83 61
13.2701 34.5144 60.3749 -0.178 -0.497 -0.849 87 82 60
13.4136 34.4846 60.3623 -0.178 -0.497 -0.849 87 82 60
13.5622 34.4544 60.3598 -0.166 -0.484 -0.859 93 88 66
13.7421 34.4224 60.4197 -0.001 -0.196 -0.981 94 89 67
14.0481 34.3824 60.7291 0.233 -0.115 -0.966 91 89 66
14.1104 34.3575 60.5539 -0.047 0.171 -0.984 83 84 58
14.2527 34.3276 60.5377 -0.030 0.146 -0.989 70 74 44
14.3919 34.2980 60.5151 0.119 0.057 -0.991 50 55 25
14.5553 34.2668 60.5400 0.149 -0.019 -0.989 38 41 14
14.7265 34.2350 60.5795 0.127 -0.021 -0.992 37 40 12
14.8813 34.2043 60.5870 0.108 0.013 -0.994 66 69 40
15.0554 34.1723 60.6313 0.202 -0.129 -0.971 96 101 71
16.5105 33.9106 61.0844 0.215 -0.428 -0.878 126 124 101
16.7176 33.8759 61.1852 0.108 -0.200 -0.974 139 133 113
17.2006 33.7815 61.2274 0.029 -0.169 -0.985 126 120 100
17.4100 33.7464 61.3298 0.193 -0.371 -0.908 125 118 99
17.7174 33.6843 61.3288 0.137 -0.251 -0.958 102 94 73
19.2438 33.4125 61.8427 0.303 -0.092 -0.948 110 103 85
19.3162 33.3876 61.6956 0.224 -0.148 -0.963 105 98 80
19.4992 33.3540 61.7433 0.224 -0.148 -0.963 105 98 80
19.6850 33.3202 61.7955 0.161 -0.184 -0.970 103 98 79
19.8616 33.2871 61.8312 0.161 -0.184 -0.970 99 94 74
20.6060 33.1512 62.0348 0.281 -0.093 -0.955 116 115 94
20.8947 33.1088 62.2602 0.227 -0.072 -0.971 97 95 73
21.1006 33.0731 62.3423 0.311 -0.074 -0.947 79 73 50
21.2919 33.0385 62.3990 0.306 -0.060 -0.950 74 67 41
21.4974 33.0027 62.4791 0.280 -0.114 -0.953 82 75 49
21.6706 32.9695 62.5040 0.272 -0.086 -0.958 101 94 68
21.8470 32.9360 62.5339 0.278 -0.054 -0.959 111 104 78
22.0562 32.8997 62.6185 0.197 -0.055 -0.979 109 102 76
22.2348 32.8660 62.6512 0.170 -0.049 -0.984 119 111 88
22.3898 32.8342 62.6440 0.033 -0.056 -0.998 139 131 110
22.5593 32.8012 62.6610 0.018 -0.051 -0.999 147 139 118
23.4722 32.6302 62.8482 0.137 -0.383 -0.913 144 136 115
24.4060 32.4566 63.0585 0.142 0.175 -0.974 115 107 84
24.5248 32.4279 62.9905 -0.078 0.166 -0.983 108 100 77
27.2020 31.7943 61.6632 0.238 -0.020 -0.971 101 95 69
30.4792 31.4052 65.5294 0.194 -0.414 -0.889 145 140 111
30.6864 31.3673 65.5849 0.099 -0.494 -0.864 152 148 121
-31.1847 44.3356 70.3283 0.001 -0.447 -0.895 138 148 139
-31.0434 44.3071 70.3278 -0.040 -0.444 -0.895 141 148 140
-30.9028 44.2793 70.3353 -0.040 -0.444 -0.895 128 135 127
-30.7620 44.2515 70.3428 -0.040 -0.444 -0.895 20 27 19
-30.6211 44.2236 70.3495 -0.035 -0.452 -0.891 22 27 20
-30.4796 44.1951 70.3500 0.014 -0.380 -0.925 26 27 21
-30.3383 44.1670 70.3548 -0.098 -0.537 -0.838 33 30 25
-23.4346 42.5323 66.9768 -0.391 -0.141 -0.910 50 51 46
-23.1554 42.4455 66.5540 -0.317 -0.138 -0.938 74 75 70
-23.0164 42.4135 66.4995 -0.407 0.013 -0.913 79 80 75
-22.8775 42.3805 66.4291 -0.505 -0.009 -0.863 66 67 62
-22.7388 42.3483 66.3702 -0.583 0.031 -0.812 53 54 49
-22.6006 42.3121 66.2554 -0.618 0.024 -0.786 41 42 37
-22.4627 42.2765 66.1461 -0.618 0.031 -0.785 35 36 31
-22.3251 42.2408 66.0364 -0.618 0.031 -0.785 36 37 32
-22.0517 42.1654 65.7549 -0.696 0.091 -0.712 50 49 45
-21.5088 42.0192 65.2441 -0.109 -0.590 -0.800 52 51 47
-20.8234 41.8706 65.0988 -0.443 -0.332 -0.833 67 57 55
-19.7371 41.6202 64.6618 -0.025 0.009 -1.000 72 69 64
-19.6000 41.5915 64.6470 0.000 0.029 -1.000 72 69 64
-19.4614 41.5648 64.6638 -0.015 0.031 -0.999 72 69 64
-19.3252 41.5348 64.6280 -0.076 0.180 -0.981 76 73 68
-19.1883 41.5057 64.6079 -0.093 0.175 -0.980 79 76 71
-18.7777 41.4183 64.5419 -0.229 0.032 -0.973 83 80 75
-18.6459 41.3839 64.4340 0.067 0.268 -0.961 66 63 58
-16.1179 40.7906 63.2703 -0.454 -0.160 -0.876 116 113 108
-15.9870 40.7592 63.2010 -0.456 -0.156 -0.876 120 117 112
-15.7229 40.6981 63.0908 -0.559 0.210 -0.802 86 86 78
-15.5953 40.6653 62.9934 -0.559 0.210 -0.802 95 95 87
-15.4633 40.6350 62.9415 -0.530 0.259 -0.807 114 114 106
-15.2990 40.6207 63.2026 -0.362 0.033 -0.931 126 126 118
-15.1655 40.5909 63.1623 -0.405 0.063 -0.912 125 125 117
-15.0341 40.5601 63.1020 -0.405 0.063 -0.912 130 130 122
-14.9350 40.5145 62.7472 -0.027 -0.148 -0.989 124 124 116
-14.7970 40.4873 62.7550 -0.303 -0.194 -0.933 105 105 97
-14.6570 40.4608 62.7783 -0.457 -0.324 -0.828 75 75 67
-14.5309 40.4282 62.6795 -0.514 -0.351 -0.783 92 92 84
-14.2729 40.3660 62.5381 -0.514 -0.351 -0.783 145 145 137
-14.1441 40.3350 62.4675 -0.514 -0.351 -0.783 143 143 135
-13.8361 40.2926 62.7396 -0.171 -0.143 -0.975 124 124 116
-13.7020 40.2634 62.7095 -0.147 -0.129 -0.981 110 110 102
-13.6125 40.2179 62.3287 -0.275 -0.286 -0.918 102 97 91
-13.4733 40.1909 62.3441 -0.120 -0.193 -0.974 78 73 67
-13.3385 40.1624 62.3248 -0.135 -0.165 -0.977 74 69 63
-13.0654 40.1064 62.3113 -0.347 0.286 -0.893 115 110 104
-12.9441 40.0733 62.1919 -0.409 0.315 -0.856 112 107 101
-12.8145 40.0432 62.1360 -0.435 0.253 -0.864 107 102 96
-12.6816 40.0141 62.1038 -0.235 0.234 -0.943 105 98 91
-12.5499 39.9847 62.0637 -0.235 0.234 -0.943 97 88 80
-12.2924 39.9242 61.9442 -0.231 0.216 -0.949 67 57 48
-12.1623 39.8944 61.8946 -0.088 0.166 -0.982 83 73 64
-12.0163 39.8692 61.9532 -0.323 0.328 -0.888 74 64 55
-11.8816 39.8407 61.9347 -0.299 0.125 -0.946 85 75 66
-11.7564 39.8096 61.8533 -0.046 0.129 -0.991 82 72 63
-11.6293 39.7792 61.7866 -0.019 0.117 -0.993 66 56 47
-11.4857 39.7531 61.8255 -0.257 0.012 -0.966 45 36 29
-11.2275 39.6934 61.7187 -0.638 -0.099 -0.763 54 45 38
-10.8583 39.5999 61.4545 -0.498 -0.154 -0.854 112 103 96
-10.7332 39.5694 61.3814 -0.455 -0.239 -0.858 132 123 116
-10.6033 39.5401 61.3383 -0.413 -0.280 -0.867 147 138 131
-10.3730 39.5330 61.8827 -0.323 0.013 -0.946 139 131 128
-10.2444 39.5031 61.8263 -0.247 0.023 -0.969 123 115 112
-10.1102 39.4743 61.8026 -0.230 0.051 -0.972 101 93 90
-9.9805 39.4446 61.7535 -0.065 0.014 -0.998 86 78 75
-9.8441 39.4164 61.7424 -0.067 -0.008 -0.998 56 48 45
-9.7073 39.3882 61.7337 -0.067 -0.002 -0.998 62 54 51
-9.5788 39.3583 61.6790 -0.204 0.046 -0.978 90 82 79
-9.4480 39.3290 61.6373 -0.247 0.065 -0.967 123 117 113
-9.3164 39.2998 61.6003 -0.409 0.009 -0.912 115 114 106
-9.2680 39.2554 61.1205 -0.278 0.122 -0.953 117 117 109
-9.1382 39.2262 61.0789 -0.208 -0.073 -0.975 122 122 112
-9.0037 39.1979 61.0624 -0.149 -0.044 -0.988 126 126 116
-8.8766 39.1684 61.0071 0.151 -0.072 -0.986 99 99 89
-8.7343 39.1414 61.0309 0.151 -0.072 -0.986 142 142 132
-8.5918 39.1144 61.0547 0.151 -0.072 -0.986 126 126 114
-8.4615 39.0854 61.0162 -0.115 -0.049 -0.992 114 115 102
-8.3200 39.0582 61.0339 -0.165 -0.130 -0.978 125 128 108
-8.1912 39.0289 60.9884 -0.092 0.118 -0.989 125 128 107
-8.0566 39.0006 60.9716 -0.418 -0.041 -0.907 125 128 107
-7.9054 38.9747 61.0350 -0.457 -0.107 -0.883 125 128 107
-7.7989 38.9422 60.8820 -0.114 -0.164 -0.980 133 136 115
-7.6986 38.9090 60.7018 -0.473 -0.030 -0.881 137 140 119
-7.5794 38.8786 60.6141 -0.428 -0.045 -0.903 124 126 105
-7.3687 38.8609 60.9555 -0.129 -0.178 -0.976 100 100 82
-7.2325 38.8327 60.9449 -0.027 -0.219 -0.975 67 62 50
-7.0852 38.8059 60.9853 0.191 -0.161 -0.968 71 63 52
-6.9304 38.7800 61.0588 0.206 -0.114 -0.972 75 66 57
-6.7839 38.7530 61.0930 0.206 -0.114 -0.972 77 68 59
-6.6429 38.7252 61.1020 -0.049 0.097 -0.994 83 74 65
-6.5091 38.6965 61.0781 -0.066 0.112 -0.992 78 69 60
-6.3775 38.6676 61.0444 -0.039 0.123 -0.992 71 62 53
-6.2392 38.6395 61.0407 -0.202 0.307 -0.930 67 58 49
-6.1136 38.6099 60.9813 -0.238 0.275 -0.932 75 62 54
-6.1285 38.5649 60.3175 -0.107 0.291 -0.951 75 62 54
-5.9959 38.5365 60.2939 -0.107 0.291 -0.951 75 62 54
-5.8564 38.5088 60.2996 -0.040 0.223 -0.974 76 63 55
-5.7211 38.4807 60.2876 -0.040 0.223 -0.974 86 73 65
-5.5838 38.4527 60.2836 -0.058 0.213 -0.975 86 73 65
-4.9905 38.3447 60.4427 -0.230 -0.345 -0.910 86 71 64
-4.1034 38.1806 60.6440 -0.214 -0.317 -0.924 63 49 42
-3.9936 38.1117 59.9964 -0.565 -0.513 -0.646 70 60 50
-3.8615 38.0832 59.9709 -0.556 -0.510 -0.656 78 68 58
-3.7468 38.0536 59.8804 -0.613 -0.478 -0.629 85 75 65
-1.0916 37.5537 60.3647 -0.163 -0.374 -0.913 77 69 56
-0.8073 37.4968 60.3712 -0.206 -0.353 -0.912 77 69 58
-0.5724 37.4054 59.7606 -0.214 0.501 -0.839 60 53 45
0.1539 37.2964 60.2775 0.334 0.053 -0.941 48 44 35
0.7180 37.1821 60.2673 0.098 -0.417 -0.903 53 53 45
0.8692 37.1536 60.2953 -0.052 -0.361 -0.931 60 60 52
1.1420 37.0961 60.2602 0.031 -0.112 -0.993 60 60 52
1.0494 37.0639 59.5553 -0.070 -0.189 -0.979 53 53 45
1.2097 37.0357 59.6130 0.147 -0.215 -0.966 36 37 31
1.3471 37.0073 59.6015 0.131 -0.440 -0.888 36 37 31
1.4891 36.9788 59.6038 0.264 -0.342 -0.902 36 37 31
2.0608 36.8648 59.6206 -0.436 -0.164 -0.885 36 37 31
2.1833 36.8362 59.5656 -0.436 -0.164 -0.885 31 30 26
2.3364 36.8077 59.5980 0.040 -0.436 -0.899 27 26 24
2.4937 36.7792 59.6417 -0.105 0.008 -0.994 27 26 24
7.7615 35.7602 60.2268 -0.194 -0.676 -0.711 41 36 31
7.8631 35.7321 60.1214 0.054 -0.283 -0.958 47 42 35
8.0300 35.7020 60.1705 0.056 -0.467 -0.883 57 50 40
8.1812 35.6724 60.1820 -0.248 -0.307 -0.919 63 56 48
8.3161 35.6433 60.1552 -0.248 -0.307 -0.919 50 43 35
8.4407 35.6146 60.1048 -0.285 -0.258 -0.923 48 41 33
8.5747 35.5855 60.0761 -0.334 -0.278 -0.900 49 42 34
8.7159 35.5562 60.0643 -0.239 -0.169 -0.956 51 42 33
8.9000 35.5253 60.1501 0.179 -0.255 -0.950 61 51 41
9.0638 35.4951 60.1891 0.179 -0.255 -0.950 66 54 42
9.2207 35.4412 59.8802 -0.272 -0.032 -0.962 82 70 58
9.3563 35.4121 59.8557 -0.304 -0.052 -0.951 89 77 65
9.4777 35.3836 59.7996 -0.281 -0.027 -0.959 94 82 70
9.6120 35.3546 59.7724 -0.272 -0.032 -0.962 94 82 70
9.7598 35.3250 59.7753 -0.102 -0.118 -0.988 83 73 63
10.2809 35.2328 59.9523 0.097 -0.058 -0.994 85 75 65
10.4386 35.2027 59.9751 0.086 -0.079 -0.993 84 74 64
10.6058 35.1721 60.0182 -0.030 -0.061 -0.998 82 72 62
10.7488 35.1426 60.0083 -0.018 -0.078 -0.997 83 73 61
10.8963 35.1129 60.0080 -0.018 -0.078 -0.997 91 81 69
11.2053 35.0527 60.0368 0.060 0.028 -0.998 82 72 60
11.3522 35.0230 60.0348 0.000 -0.026 -1.000 83 73 61
11.5006 34.9931 60.0355 0.000 -0.026 -1.000 85 75 63
11.8829 34.9517 60.5278 0.158 -0.050 -0.986 90 80 68
12.0556 34.9204 60.5771 -0.075 -0.148 -0.986 96 86 73
12.2170 34.8897 60.6021 -0.220 -0.347 -0.912 103 96 77
12.3516 34.8604 60.5711 -0.118 -0.162 -0.980 105 98 79
12.5057 34.8300 60.5804 -0.065 -0.177 -0.982 107 99 80
12.6435 34.8005 60.5560 0.079 -0.253 -0.964 115 107 88
12.7932 34.7703 60.5560 0.066 -0.268 -0.961 111 103 84
12.9618 34.7391 60.5943 0.076 -0.272 -0.959 102 94 75
12.9860 34.7158 60.3387 -0.168 -0.394 -0.904 93 87 65
13.2842 34.6556 60.3366 -0.165 -0.399 -0.902 87 82 60
14.1544 34.4975 60.5751 -0.027 0.170 -0.985 96 96 70
14.3004 34.4674 60.5658 -0.027 0.170 -0.985 85 88 59
14.4467 34.4373 60.5573 0.107 0.120 -0.987 70 75 45
14.7676 34.3754 60.5945 0.058 0.097 -0.994 53 56 29
14.9231 34.3447 60.6030 0.063 0.111 -0.992 78 81 52
15.0821 34.3137 60.6181 0.202 -0.129 -0.971 104 109 79
15.7830 34.1856 60.7988 0.142 -0.244 -0.959 106 118 82
16.6986 34.0219 61.0865 0.226 -0.430 -0.874 128 122 103
16.8771 33.9893 61.1335 0.196 -0.410 -0.891 133 129 110
17.0190 33.9592 61.1125 0.067 -0.228 -0.971 124 120 100
17.2489 33.9231 61.2535 0.140 0.127 -0.982 127 119 100
17.9761 33.7912 61.4562 0.255 0.107 -0.961 97 89 68
18.5359 33.6909 61.6282 0.169 -0.089 -0.982 84 76 57
19.2557 33.5585 61.8023 0.229 -0.118 -0.966 99 92 74
19.3278 33.5333 61.6547 0.261 -0.184 -0.948 105 98 80
19.6830 33.4672 61.7311 0.232 -0.193 -0.953 104 99 79
20.6384 33.2964 62.0302 0.281 -0.093 -0.955 122 121 100
20.9283 33.2544 62.2572 0.227 -0.072 -0.971 114 112 89
21.1443 33.2180 62.3565 0.316 -0.081 -0.945 97 91 66
21.3340 33.1837 62.4103 0.311 -0.074 -0.947 92 85 59
21.5278 33.1490 62.4705 0.280 -0.114 -0.953 101 94 68
21.7179 33.1145 62.5239 0.241 -0.076 -0.967 105 99 73
22.0901 33.0462 62.6156 0.187 -0.065 -0.980 119 113 87
22.2745 33.0121 62.6578 0.177 -0.054 -0.983 107 101 77
22.4211 32.9810 62.6368 0.033 -0.056 -0.998 127 119 98
22.5908 32.9481 62.6540 0.018 -0.051 -0.999 145 137 116
22.7615 32.9150 62.6727 -0.064 -0.114 -0.991 140 132 111
23.7238 32.7403 62.9379 0.397 -0.129 -0.909 123 115 94
23.9779 32.7001 63.0891 0.493 -0.147 -0.858 110 102 81
24.6195 32.5891 63.3423 -0.165 0.283 -0.945 103 95 72
24.7571 32.5586 63.3035 -0.160 0.263 -0.951 101 95 69
25.0315 32.5163 63.4825 0.201 -0.169 -0.965 111 105 79
25.1883 32.4840 63.4736 0.191 -0.158 -0.969 137 131 105
26.1133 32.0631 60.2260 0.637 -0.388 -0.666 94 90 65
27.8959 31.8264 61.9213 0.063 -0.417 -0.907 141 136 107
28.0643 31.7933 61.9314 0.312 -0.180 -0.933 144 140 113
30.6164 31.5315 65.4264 0.209 -0.444 -0.871 153 149 122
32.7627 31.1451 66.0631 -0.452 -0.157 -0.878 87 87 61
-31.1457 44.4713 70.2165 0.074 -0.456 -0.887 138 148 140
-31.0084 44.4467 70.2569 -0.040 -0.444 -0.895 138 146 138
-30.8678 44.4190 70.2644 -0.040 -0.444 -0.895 133 141 133
-30.7272 44.3912 70.2718 -0.040 -0.444 -0.895 23 31 23
-30.5862 44.3633 70.2774 -0.035 -0.452 -0.891 36 42 35
-30.4452 44.3353 70.2829 -0.023 -0.458 -0.888 29 30 24
-30.3039 44.3071 70.2858 -0.113 -0.512 -0.852 33 31 26
-30.1486 44.2638 70.1222 -0.253 -0.369 -0.894 32 31 26
-23.5455 42.6994 66.9340 -0.067 -0.559 -0.826 39 40 35
-23.4059 42.6718 66.9413 -0.067 -0.559 -0.826 49 50 45
-23.2662 42.6443 66.9484 0.034 -0.626 -0.779 62 63 58
-23.1269 42.5910 66.6078 0.213 -0.578 -0.788 73 74 69
-22.8492 42.5194 66.3958 -0.541 -0.045 -0.840 66 67 62
-22.7104 42.4884 66.3531 -0.649 -0.117 -0.751 52 53 48
-22.5723 42.4514 66.2294 -0.658 -0.114 -0.745 39 40 35
-22.1599 42.3431 65.8868 -0.446 -0.029 -0.894 33 34 29
-22.0225 42.3098 65.8103 -0.444 -0.012 -0.896 49 48 44
-21.8864 42.2717 65.6651 -0.608 -0.052 -0.792 55 54 50
-21.7516 42.2306 65.4776 -0.699 -0.101 -0.708 55 54 50
-19.9841 41.8147 64.6620 -0.527 0.117 -0.841 59 54 50
-19.8495 41.7824 64.5914 -0.026 -0.003 -1.000 64 60 55
-19.7112 41.7557 64.6070 0.024 -0.056 -0.998 62 60 55
-19.5732 41.7283 64.6119 0.024 -0.056 -0.998 63 61 56
-19.4352 41.7009 64.6167 0.024 -0.056 -0.998 65 63 58
-19.2971 41.6734 64.6194 0.025 -0.044 -0.999 72 70 65
-19.1621 41.6421 64.5636 -0.107 0.115 -0.988 79 77 72
-19.0230 41.6156 64.5840 -0.092 0.158 -0.983 87 85 80
-18.8841 41.5887 64.5981 -0.162 0.244 -0.956 101 98 93
-18.7493 41.5573 64.5398 -0.229 0.032 -0.973 104 101 96
-18.6120 41.5285 64.5246 -0.104 0.061 -0.993 103 100 95
-16.0921 40.9265 63.2399 -0.454 -0.149 -0.878 104 101 96
-15.2722 40.7574 63.1844 -0.334 0.052 -0.941 125 125 117
