ply
format ascii 1.0
element vertex 875
property float x
property float y
property float z
property float nx
property float ny
property float nz
property uchar diffuse_red
property uchar diffuse_green
property uchar diffuse_blue
end_header
-16.9731 17.9576 69.8224 -0.471 0.211 -0.857 94 103 108
-12.4896 16.9714 67.7903 -0.298 -0.033 -0.954 92 99 105
-11.7726 16.8297 67.7458 -0.038 -0.143 -0.989 85 93 95
0.9547 14.2636 66.0778 -0.034 -0.653 -0.757 69 69 67
1.9301 14.0749 66.0891 -0.225 -0.367 -0.903 78 83 90
5.2161 13.4048 65.5260 0.084 -0.217 -0.972 79 84 77
12.0554 12.1835 67.3988 -0.277 -0.340 -0.899 72 73 68
12.2981 12.1241 67.1825 -0.309 -0.501 -0.808 67 69 64
13.0137 11.9880 67.2332 -0.007 -0.398 -0.917 75 80 76
13.1570 11.9608 67.2439 -0.007 -0.398 -0.917 75 80 76
15.1395 11.6138 67.9101 0.055 -0.054 -0.997 102 107 109
15.2876 11.5865 67.9356 0.033 -0.037 -0.999 101 106 109
37.3151 7.8742 77.8554 -0.771 0.060 -0.634 33 46 37
40.9927 7.2371 79.2067 -0.647 0.181 -0.741 122 133 122
41.1656 7.2048 79.2294 0.204 -0.790 -0.578 95 109 86
42.3170 7.0598 80.6103 0.696 -0.329 -0.638 29 44 35
-24.9642 19.8511 73.1002 -0.221 0.128 -0.967 72 91 102
-21.6352 19.0147 69.8635 -0.054 -0.210 -0.976 54 63 62
-21.4886 18.9861 69.8615 -0.054 -0.210 -0.976 54 63 62
-18.8419 18.5114 70.5281 0.041 0.388 -0.921 102 107 103
-14.8992 17.6448 68.8069 -0.154 -0.318 -0.935 66 67 69
-13.0595 17.2384 67.9689 -0.196 -0.114 -0.974 85 93 95
-12.9081 17.2050 67.9011 -0.147 -0.082 -0.986 94 102 105
-12.7634 17.1759 67.8848 -0.158 -0.083 -0.984 99 106 112
-12.6182 17.1465 67.8640 -0.158 -0.083 -0.984 99 106 112
-12.4720 17.1164 67.8346 -0.196 -0.057 -0.979 99 106 112
-11.8892 16.9967 67.7238 -0.060 -0.143 -0.988 71 79 82
-11.7470 16.9692 67.7246 -0.038 -0.143 -0.989 83 91 93
-9.8310 16.5545 66.9978 0.196 -0.052 -0.979 47 49 48
-0.9572 14.8081 66.5995 -0.051 -0.288 -0.956 55 57 54
1.6792 14.2657 66.0798 -0.190 -0.383 -0.904 40 48 55
4.4598 13.7222 66.0183 -0.023 -0.510 -0.860 43 55 53
5.2410 13.5390 65.4814 0.032 -0.256 -0.966 85 90 83
9.2100 12.8072 66.1424 -0.151 -0.551 -0.820 70 69 64
13.1724 12.0972 67.1536 -0.071 -0.395 -0.916 66 68 63
13.3190 12.0704 67.1812 -0.082 -0.374 -0.924 73 75 70
15.4266 11.6956 67.7668 0.101 -0.223 -0.970 90 98 97
16.3748 11.5352 68.1718 -0.036 0.324 -0.946 84 97 90
16.8052 11.4521 68.1789 0.144 0.107 -0.984 84 94 96
17.6489 11.3188 68.6981 0.063 -0.253 -0.965 99 109 111
17.9365 11.2629 68.6977 0.054 -0.212 -0.976 99 110 113
18.0829 11.2351 68.7079 0.090 -0.260 -0.961 99 110 113
22.1063 10.5094 69.6537 -0.427 -0.114 -0.897 77 87 86
33.4323 8.5970 74.5361 0.397 -0.617 -0.680 54 68 69
33.9115 8.5281 74.9468 0.302 -0.708 -0.639 52 66 67
40.3186 7.5454 79.3971 -0.139 -0.580 -0.802 36 47 38
40.5999 7.4651 78.9589 0.381 -0.076 -0.922 25 36 33
40.8229 7.4293 79.0883 -0.134 -0.334 -0.933 16 26 21
-34.0349 22.0541 77.8278 0.226 -0.949 -0.220 151 192 212
-25.3347 20.0294 72.2865 0.547 -0.170 -0.820 153 196 213
-25.4417 20.1088 73.2552 -0.320 0.001 -0.947 164 205 217
-24.9483 20.0045 73.1142 -0.138 -0.046 -0.989 87 107 114
-21.2085 19.0901 70.0052 -0.139 -0.602 -0.786 58 70 68
-21.0634 19.0623 70.0113 -0.170 -0.563 -0.809 58 69 67
-18.0701 18.5080 70.4547 0.369 -0.225 -0.902 66 72 68
-14.8656 17.7815 68.7321 -0.211 -0.343 -0.915 66 67 69
-14.5713 17.7219 68.6917 0.171 -0.491 -0.854 79 80 82
-8.4996 16.4097 66.4895 -0.323 -0.401 -0.858 75 76 71
1.7039 14.3998 66.0162 0.136 0.050 -0.989 39 48 46
13.9120 12.0984 67.1562 -0.195 -0.107 -0.975 69 74 70
17.0178 11.5660 68.3221 0.283 -0.151 -0.947 85 92 98
17.5571 11.4881 68.7650 0.046 -0.247 -0.968 86 94 97
17.6908 11.4596 68.7237 0.014 -0.237 -0.971 90 98 101
17.8203 11.4310 68.6659 0.086 -0.264 -0.961 92 101 103
17.9654 11.4031 68.6711 0.083 -0.250 -0.965 96 106 107
19.8873 11.0414 68.8600 0.130 -0.597 -0.791 81 93 89
22.2781 10.6229 69.6159 -0.392 -0.099 -0.915 76 88 86
33.4056 8.7498 74.3654 0.399 -0.647 -0.649 53 69 69
36.3972 8.4412 78.8617 0.695 -0.594 -0.405 41 52 56
40.1114 7.7403 79.1974 -0.910 -0.141 -0.390 38 49 43
42.7627 7.3545 81.3286 0.727 -0.450 -0.519 44 57 50
-42.1325 24.0687 82.2857 -0.651 0.079 -0.754 66 81 85
-39.5911 23.4670 80.5497 -0.727 0.003 -0.686 95 131 152
-38.0683 23.0856 79.1751 -0.593 -0.261 -0.762 154 192 213
-25.4830 20.2871 73.4838 -0.409 0.057 -0.911 164 205 219
-24.9211 20.1532 73.0855 -0.149 -0.069 -0.986 86 107 113
-20.7758 19.1639 70.1284 0.078 -0.120 -0.990 64 74 73
-20.6323 19.1369 70.1430 0.078 -0.120 -0.990 61 71 70
-20.4971 19.1140 70.1966 0.062 -0.123 -0.991 63 72 69
-19.6634 18.9666 70.4278 0.032 0.278 -0.960 61 66 62
-19.2260 18.8830 70.4498 0.029 -0.041 -0.999 67 72 68
-18.8394 18.8256 70.7339 0.085 0.435 -0.897 102 106 105
-17.6031 18.5670 70.4354 -0.262 -0.500 -0.825 88 98 100
-17.2280 18.4658 69.9806 -0.730 -0.117 -0.673 80 91 95
-16.0818 18.1430 68.3733 0.086 -0.403 -0.911 86 90 92
-14.8284 17.9158 68.6328 -0.263 -0.447 -0.855 51 52 54
-11.9828 17.3053 67.7024 -0.167 -0.038 -0.985 57 64 71
-8.4623 16.5350 66.3115 -0.252 -0.429 -0.868 41 44 37
-8.3232 16.5087 66.3227 -0.236 -0.450 -0.861 54 57 50
1.4498 14.5875 65.9450 0.215 0.009 -0.977 38 57 45
5.1912 13.8508 65.7804 0.041 -0.061 -0.997 60 65 58
9.9489 12.9964 66.8939 -0.331 -0.854 -0.400 57 56 51
12.3355 12.5307 66.8565 0.044 -0.393 -0.919 52 55 48
17.2035 11.6787 68.3515 0.388 -0.164 -0.907 87 92 96
17.5363 11.6257 68.5378 0.156 -0.092 -0.984 83 88 92
17.6802 11.5978 68.5387 0.149 -0.081 -0.986 79 84 88
17.8301 11.5702 68.5635 0.149 -0.081 -0.986 74 82 83
17.9768 11.5425 68.5754 -0.004 -0.178 -0.984 76 85 84
19.9349 11.1825 68.8999 -0.032 0.110 -0.993 84 96 92
-43.3931 24.5774 83.7087 -0.789 0.266 -0.554 15 32 39
-42.3930 24.2826 82.1410 -0.789 0.272 -0.552 65 80 85
-42.2955 24.2745 82.3100 -0.676 0.092 -0.731 69 84 89
-39.5569 23.6269 80.5042 -0.729 0.130 -0.672 120 160 177
-39.1297 23.5014 79.8410 -0.642 -0.440 -0.629 128 172 188
-38.1369 23.2529 78.9738 -0.659 -0.451 -0.602 155 198 217
-33.0811 22.1757 77.4845 -0.571 -0.619 -0.540 158 200 222
-32.8815 22.1294 77.3666 -0.440 -0.644 -0.626 158 200 224
-24.8061 20.2631 72.7187 -0.843 -0.111 -0.526 86 106 111
-23.0643 19.8253 71.1665 -0.220 -0.359 -0.907 61 69 71
-22.9052 19.7916 71.1232 -0.193 -0.338 -0.921 63 71 73
-22.7518 19.7606 71.1035 -0.143 -0.342 -0.929 63 71 73
-22.6004 19.7304 71.0913 -0.143 -0.342 -0.929 64 72 74
-22.4402 19.6961 71.0422 -0.207 -0.339 -0.918 58 66 68
-19.6627 19.1237 70.5263 -0.070 -0.032 -0.997 58 63 59
-19.5105 19.0927 70.5032 -0.138 -0.090 -0.986 57 59 56
-19.3685 19.0669 70.5306 -0.175 -0.077 -0.982 70 72 69
-18.3289 18.8626 70.4933 0.148 -0.650 -0.746 94 100 100
-17.5485 18.6957 70.2534 -0.207 -0.177 -0.962 86 96 98
-16.0821 18.2988 68.5060 0.116 0.082 -0.990 87 91 92
-15.7905 18.2407 68.4827 0.183 -0.381 -0.906 68 68 68
-13.8770 17.9159 69.2114 -0.780 -0.002 -0.626 93 103 104
-11.5408 17.3704 67.7789 0.000 -0.328 -0.945 86 96 97
-2.2769 15.5395 67.2788 -0.787 0.455 -0.417 102 105 97
-0.8984 15.1599 65.5342 -0.108 -0.104 -0.989 55 57 54
0.4877 14.8921 65.5555 -0.051 -0.591 -0.805 47 51 45
9.3132 13.2201 66.2048 0.337 -0.266 -0.903 47 46 42
9.4607 13.1947 66.2561 0.362 -0.288 -0.886 48 46 42
13.4082 12.4842 67.1282 0.152 -0.330 -0.931 75 77 74
16.6998 11.8944 67.8973 -0.017 -0.185 -0.983 81 90 88
17.1184 11.8483 68.4463 0.120 -0.165 -0.979 88 93 97
17.3975 11.7921 68.4137 0.062 -0.225 -0.972 89 94 98
17.5562 11.7652 68.4750 -0.214 -0.049 -0.976 77 82 86
17.6953 11.7370 68.4568 -0.202 -0.062 -0.977 67 72 76
17.8427 11.7094 68.4721 0.024 -0.177 -0.984 59 67 68
17.9771 11.6809 68.4359 -0.293 -0.275 -0.915 59 69 68
25.1275 10.4543 70.9568 0.164 -0.301 -0.939 66 74 77
30.0847 9.5783 72.3063 0.197 -0.544 -0.816 64 79 86
30.4381 9.5184 72.4425 0.406 -0.533 -0.743 56 69 74
30.6164 9.4884 72.5136 0.339 -0.565 -0.752 68 81 86
31.8930 9.3744 74.6008 0.006 -0.875 -0.484 70 88 88
33.5954 9.0685 74.9856 0.474 -0.636 -0.609 58 76 78
-42.9271 24.6185 83.0460 -0.791 0.231 -0.567 49 64 69
-41.9329 24.3486 81.8814 -0.744 0.088 -0.663 65 80 85
-39.5137 23.7834 80.4360 -0.686 0.275 -0.673 144 184 202
-39.0859 23.6565 79.7710 -0.616 -0.295 -0.731 150 195 213
-38.2386 23.5440 80.5588 0.098 -0.650 -0.754 157 199 221
-33.3448 22.3834 77.3720 0.056 -0.930 -0.364 146 184 203
-33.2360 22.3722 77.5219 -0.727 -0.428 -0.538 156 197 217
-33.0314 22.3238 77.3903 -0.717 -0.425 -0.553 159 200 222
-32.8354 22.2786 77.2825 -0.404 -0.645 -0.649 157 199 223
-25.0571 20.4972 73.1740 -0.863 -0.113 -0.493 128 153 161
-22.8710 19.9334 71.0640 -0.193 -0.338 -0.921 78 86 88
-21.8584 19.7022 70.5396 -0.610 0.199 -0.767 74 84 85
-21.9697 19.7982 71.6668 -0.696 0.455 -0.555 73 85 83
-20.7343 19.4566 70.1247 -0.184 -0.012 -0.983 62 73 69
-18.2934 19.0020 70.4188 -0.166 -0.694 -0.701 94 100 100
-17.5080 18.8317 70.1494 -0.088 -0.080 -0.993 88 98 100
-17.3531 18.7987 70.1043 -0.262 -0.311 -0.913 63 74 78
-17.1957 18.7641 70.0442 -0.329 -0.313 -0.891 58 69 73
-11.0554 17.4011 67.4561 -0.279 -0.230 -0.932 58 67 66
-2.2495 15.6867 67.3877 -0.787 0.455 -0.417 85 88 77
0.5178 15.0327 65.6197 0.224 -0.378 -0.898 52 61 50
2.8099 14.3987 62.7579 0.064 0.011 -0.998 8 251 247
9.1899 13.3807 66.1046 0.347 -0.277 -0.896 54 56 46
9.4920 13.3320 66.2553 0.442 -0.436 -0.784 53 54 46
16.7328 12.0338 67.8893 -0.069 -0.227 -0.972 84 93 92
16.9518 12.0122 68.2055 0.240 -0.183 -0.953 82 90 92
17.1389 11.9877 68.3859 0.137 -0.187 -0.973 85 90 94
17.2927 11.9606 68.4277 0.176 -0.144 -0.974 87 92 98
17.4506 11.9338 68.4856 -0.092 -0.313 -0.945 85 90 96
17.6056 11.9067 68.5313 -0.320 -0.387 -0.864 55 60 66
17.7427 11.8783 68.5044 -0.217 -0.316 -0.924 36 41 45
17.8807 11.8500 68.4816 -0.217 -0.316 -0.924 42 50 52
18.0079 11.8210 68.4167 -0.400 -0.315 -0.861 63 73 74
22.1988 11.0133 68.5081 -0.146 -0.520 -0.841 90 102 102
28.6925 10.0155 72.4963 -0.614 -0.434 -0.659 65 75 76
33.2950 9.2066 73.7815 0.514 -0.553 -0.655 58 74 74
-42.9474 24.8024 83.1314 -0.798 0.183 -0.574 52 67 72
-41.0614 24.2933 81.0236 0.577 -0.326 -0.749 66 81 85
-39.4696 23.9396 80.3658 -0.685 0.275 -0.675 146 187 208
-39.0191 23.8031 79.6427 -0.623 -0.281 -0.730 150 196 216
-33.6042 22.5893 77.2483 0.151 0.731 -0.666 148 186 205
-22.5404 20.0178 71.0071 -0.164 -0.705 -0.690 74 82 84
-18.7653 19.1612 69.1853 -0.153 -0.614 -0.774 80 85 81
-18.0671 19.0884 70.1118 -0.258 -0.381 -0.888 89 98 97
-17.6486 19.0155 70.2339 -0.377 0.352 -0.857 73 82 82
-17.4777 18.9733 70.1016 -0.048 -0.111 -0.993 90 100 103
-17.3165 18.9365 70.0208 -0.080 -0.160 -0.984 75 86 92
-15.5751 18.4824 68.3098 -0.170 -0.185 -0.968 74 80 80
-15.0588 18.4080 68.6908 0.236 -0.180 -0.955 60 65 68
0.3806 15.1556 64.9402 0.072 0.026 -0.997 70 79 65
4.8573 14.3395 65.7239 0.014 -0.081 -0.997 68 85 72
17.1643 12.1274 68.3453 0.157 -0.184 -0.970 79 84 88
17.4677 12.0730 68.4115 -0.083 -0.306 -0.948 73 78 84
17.6187 12.0457 68.4410 -0.233 -0.315 -0.920 47 52 58
17.7560 12.0173 68.4159 -0.233 -0.315 -0.920 33 38 41
18.0274 11.9604 68.3535 -0.407 -0.304 -0.861 47 57 58
18.1852 11.8585 67.3033 0.013 -0.242 -0.970 67 77 78
22.1890 11.1523 68.3537 -0.047 -0.490 -0.871 80 92 92
28.2094 10.2506 72.2976 -0.086 -0.521 -0.849 64 75 72
34.2831 9.2501 74.9347 0.409 -0.064 -0.910 47 61 61
34.4604 9.2192 74.9875 0.404 -0.070 -0.912 48 62 62
-43.3319 25.0895 83.6755 -0.783 -0.181 -0.595 25 40 47
-42.9740 24.9892 83.2320 -0.798 -0.094 -0.595 55 70 75
-40.9475 24.4535 81.1908 0.546 -0.406 -0.733 66 81 86
-35.8368 22.8209 71.9953 -0.259 0.191 -0.947 155 201 224
-33.6366 22.7695 77.3932 0.310 0.714 -0.627 150 188 207
-21.7150 20.0362 71.3848 -0.619 0.513 -0.594 54 64 63
-18.0525 19.2389 70.1488 -0.276 -0.312 -0.909 93 101 102
-17.6144 19.1550 70.1649 -0.273 -0.085 -0.958 71 79 81
-17.4599 19.1221 70.1237 -0.273 -0.085 -0.958 88 97 101
-15.8313 18.6756 68.2523 0.076 -0.488 -0.870 74 84 85
-15.6985 18.6545 68.3193 -0.330 -0.266 -0.906 80 90 91
-14.3226 18.2807 66.7888 0.261 -0.131 -0.956 62 70 73
-14.3903 18.4629 69.2164 -0.657 -0.636 -0.404 67 75 78
-11.0033 17.6792 67.4064 -0.217 -0.019 -0.976 57 59 58
-6.2515 16.6619 66.0476 -0.161 -0.009 -0.987 84 89 49
1.1492 15.2256 66.0596 -0.433 -0.035 -0.901 57 69 52
17.5057 12.2139 68.4221 -0.221 -0.199 -0.955 77 82 85
17.6524 12.1862 68.4340 -0.236 -0.180 -0.955 58 63 66
17.7890 12.1577 68.4057 -0.236 -0.180 -0.955 51 56 59
18.0489 12.0998 68.2979 -0.417 -0.296 -0.859 52 62 60
18.2117 11.9965 67.2693 0.013 -0.242 -0.970 58 69 66
26.6557 10.5994 70.7532 0.336 -0.520 -0.785 86 98 94
27.1398 10.5134 70.8678 -0.123 0.126 -0.984 88 101 94
28.8168 10.2805 72.2010 -0.192 -0.490 -0.850 43 53 52
30.0783 9.9922 71.5776 0.382 -0.769 -0.513 63 71 91
32.8377 9.7276 75.4738 0.720 -0.528 -0.451 74 85 89
-43.2882 25.2520 83.6092 -0.775 -0.250 -0.581 36 51 58
-41.0916 24.6515 81.1743 0.519 0.005 -0.854 54 71 80
-38.8736 24.0908 79.3553 -0.648 -0.206 -0.733 153 200 225
-33.6928 22.8616 76.2317 -0.406 0.115 -0.907 157 200 220
-33.4752 22.8071 76.0601 -0.029 0.320 -0.947 155 196 214
-33.3730 22.8980 77.6105 0.088 0.760 -0.644 147 185 204
-33.3507 22.9228 78.0177 -0.171 0.738 -0.653 157 195 216
-25.2644 20.9552 72.4565 -0.423 -0.416 -0.805 154 193 215
-21.7351 20.2061 71.5631 -0.659 0.429 -0.618 60 71 67
-21.5190 20.1430 71.2683 -0.667 0.461 -0.585 59 70 66
-19.2739 19.5986 69.7499 -0.845 -0.031 -0.533 59 65 61
-18.0201 19.3795 70.0908 -0.276 -0.312 -0.909 96 104 107
-17.8782 19.3538 70.1178 -0.426 -0.279 -0.861 76 84 86
-17.7295 19.3243 70.1089 0.180 0.085 -0.980 66 71 74
-17.5774 19.2928 70.0804 -0.323 -0.230 -0.918 70 79 82
-15.7937 18.8089 68.1557 -0.305 -0.137 -0.942 91 102 104
-15.6697 18.7934 68.2767 -0.136 -0.080 -0.987 98 109 111
-15.0979 18.7511 69.2381 -0.398 0.689 -0.605 59 68 73
-14.7366 18.6472 68.7662 -0.488 0.720 -0.494 59 68 73
-14.4865 18.5475 68.0498 -0.368 -0.148 -0.918 61 70 75
-8.2884 17.1675 65.5812 0.240 -0.247 -0.939 59 59 50
-7.0544 16.9481 65.8644 -0.363 -0.318 -0.876 97 94 87
-6.7917 16.9187 66.1664 0.762 -0.034 -0.646 85 83 69
1.1961 15.3881 66.4536 -0.512 -0.168 -0.843 69 80 63
6.0920 14.3369 65.0478 -0.517 -0.324 -0.792 63 78 53
10.1112 13.6272 66.0381 -0.280 -0.638 -0.717 52 69 44
15.7271 12.5469 66.1823 0.009 -0.373 -0.928 70 80 72
17.8282 12.2988 68.4200 -0.066 0.161 -0.985 66 72 70
24.7261 11.0207 69.2793 0.436 -0.441 -0.785 72 79 85
27.7568 10.5426 70.8255 0.217 -0.522 -0.825 62 72 71
40.0176 8.6524 77.6933 0.747 -0.324 -0.580 24 36 26
-41.1645 24.8230 80.9845 0.009 0.141 -0.990 54 71 80
-41.0258 24.8010 81.0524 0.238 -0.357 -0.903 54 71 82
-40.9335 24.7965 81.2345 0.660 -0.063 -0.749 56 73 81
-41.0306 24.8629 81.8840 0.472 -0.442 -0.762 58 72 81
-33.7895 23.0334 76.1059 0.117 0.495 -0.861 158 200 224
-25.1452 21.1439 73.2284 -0.857 -0.029 -0.514 143 172 184
-17.5472 19.4344 70.0335 -0.098 -0.493 -0.864 70 79 82
-17.4192 19.4173 70.1395 -0.075 -0.482 -0.873 85 95 101
-14.1022 18.6553 68.5301 -0.010 -0.476 -0.880 65 76 80
-13.9665 18.6334 68.5914 0.765 -0.490 -0.418 75 84 89
-8.5707 17.3924 65.9547 0.094 -0.045 -0.995 69 70 64
-7.0279 17.0837 65.8308 -0.262 -0.406 -0.875 92 92 84
-0.6390 15.7794 64.9623 -0.295 -0.455 -0.840 88 93 79
-0.4805 15.8049 65.7299 0.002 0.190 -0.982 80 90 73
-0.2023 15.7508 65.7285 0.009 0.194 -0.981 81 92 75
-0.0675 15.7147 65.5932 -0.267 0.169 -0.949 80 91 74
0.0709 15.6866 65.5763 -0.256 0.317 -0.913 77 88 71
1.1919 15.4841 65.7835 -0.542 -0.370 -0.754 77 88 71
6.2475 14.4406 64.9416 -0.175 0.319 -0.931 72 86 61
8.9522 14.0289 66.4912 -0.227 -0.763 -0.605 52 73 48
9.1872 13.9608 66.1842 -0.247 0.202 -0.948 53 73 46
9.3163 13.9305 66.1122 -0.140 -0.002 -0.990 53 73 45
9.4411 13.8991 66.0144 -0.082 -0.087 -0.993 53 73 45
9.5755 13.8705 65.9809 -0.103 -0.264 -0.959 52 74 46
9.7061 13.8410 65.9240 -0.123 -0.267 -0.956 50 73 44
11.9034 13.4566 66.5023 -0.100 -0.302 -0.948 59 74 51
12.0489 13.4304 66.5294 -0.134 -0.344 -0.929 59 75 50
12.1940 13.4040 66.5543 0.050 -0.347 -0.936 62 76 52
13.1975 13.2164 66.6536 0.059 -0.193 -0.979 58 61 54
15.6088 12.7097 66.1283 -0.308 -0.140 -0.941 72 79 72
15.7485 12.6825 66.1280 0.009 -0.373 -0.928 60 70 62
17.8585 12.4392 68.3990 0.023 0.150 -0.988 64 71 65
17.6135 12.3746 66.8680 0.265 -0.545 -0.795 58 68 60
20.5490 11.8335 67.2637 -0.289 -0.105 -0.952 59 71 66
23.2964 11.4779 69.6924 0.091 -0.735 -0.672 72 84 84
24.7411 11.1619 69.2082 0.436 -0.441 -0.785 72 79 85
31.2093 10.1910 73.0997 -0.176 -0.727 -0.663 69 80 86
31.4513 10.1606 73.3269 0.340 -0.200 -0.919 68 79 83
37.5312 9.2781 77.3961 -0.747 -0.349 -0.566 23 36 27
-41.1347 24.9857 80.9502 0.048 0.187 -0.981 54 71 79
-33.9588 23.2010 75.7411 0.479 -0.033 -0.877 157 201 226
-33.7340 23.1765 75.9965 0.455 -0.030 -0.890 158 200 223
-25.2374 21.2215 71.9346 -0.075 -0.173 -0.982 164 197 219
-25.0769 21.1875 71.8969 0.083 -0.073 -0.994 162 192 215
-25.1006 21.2850 73.1334 -0.850 0.003 -0.527 144 172 185
-23.5216 20.8698 71.6872 -0.169 0.448 -0.878 86 102 102
-20.1001 20.0560 69.6989 -0.109 -0.361 -0.926 62 68 64
-15.7885 19.1206 68.3918 -0.177 0.332 -0.927 88 99 101
-14.0778 18.7978 68.5175 -0.158 -0.499 -0.852 71 80 85
-0.6120 15.9162 64.9662 -0.574 -0.261 -0.776 81 86 72
-0.1750 15.8882 65.7242 -0.138 0.471 -0.871 81 92 75
5.7536 14.7959 66.5095 -0.184 0.127 -0.975 81 84 68
9.4789 14.0384 66.0566 0.085 -0.292 -0.953 49 72 44
20.1067 12.0512 67.0769 0.054 -0.023 -0.998 70 81 75
20.4072 11.9974 67.1377 -0.127 -0.541 -0.831 68 79 73
20.5616 11.9707 67.1819 -0.165 -0.499 -0.851 62 73 67
20.8027 11.9131 67.0379 -0.488 -0.400 -0.776 72 88 75
20.9409 11.8855 67.0271 -0.328 -0.180 -0.927 72 88 74
21.0634 11.8569 66.9637 -0.314 -0.177 -0.933 72 88 74
24.7561 11.3030 69.1371 0.436 -0.441 -0.785 67 75 78
31.2093 10.3392 72.9915 -0.139 -0.761 -0.634 62 73 74
31.4089 10.3095 73.1119 -0.101 -0.787 -0.608 60 71 73
42.1857 8.7591 80.3348 0.671 -0.484 -0.562 40 62 44
-33.1781 23.3591 77.6665 -0.202 -0.886 -0.417 157 195 217
-26.3245 21.6019 72.1243 -0.561 -0.482 -0.673 161 199 218
-25.9544 21.5109 71.8763 -0.584 -0.452 -0.674 162 199 216
-25.5446 21.4430 72.0286 -0.690 -0.137 -0.711 161 198 214
-25.0553 21.3372 71.8877 0.083 -0.073 -0.994 165 191 214
-24.9725 21.3408 72.1440 0.745 0.054 -0.664 173 198 219
-20.8747 20.3788 69.9827 -0.476 -0.720 -0.504 73 79 75
-20.7522 20.3636 70.0945 -0.409 -0.782 -0.469 72 78 74
-20.0698 20.1971 69.6530 -0.055 -0.313 -0.948 61 67 63
-19.9091 20.2146 70.2855 -0.728 -0.052 -0.683 53 58 54
-19.5389 20.1145 69.9188 0.250 0.251 -0.935 52 58 54
-17.3706 19.6454 69.2948 -0.651 -0.566 -0.505 77 85 89
-17.2365 19.6244 69.3600 -0.438 -0.699 -0.565 84 94 100
-16.5374 19.4366 68.6845 0.233 0.266 -0.935 82 93 99
-11.2100 18.2148 66.2504 0.229 -0.339 -0.912 52 54 53
-11.0676 18.1857 66.2304 0.205 -0.396 -0.895 52 52 52
-10.4834 18.0544 65.9990 -0.232 -0.246 -0.941 55 57 56
-9.9436 17.9656 66.2078 -0.410 -0.592 -0.694 63 63 63
-9.5435 17.9059 66.4411 -0.073 -0.026 -0.997 71 71 71
-8.3798 17.6392 65.9119 -0.055 -0.138 -0.989 67 68 62
-6.0241 17.2142 66.3338 -0.098 0.148 -0.984 86 93 56
-4.6374 16.9961 67.0003 -0.873 -0.352 -0.336 65 70 61
-4.4897 16.9478 66.7453 -0.873 -0.347 -0.342 76 81 75
-0.0361 15.9398 64.8847 -0.218 0.435 -0.874 81 92 75
0.1262 15.9625 65.5892 -0.134 0.106 -0.985 81 92 75
4.4364 15.2478 67.1801 0.983 0.093 -0.161 4 248 252
5.4020 14.9332 65.5273 0.882 -0.267 -0.388 89 85 70
7.9970 14.4840 66.2385 -0.122 0.257 -0.959 84 85 67
10.6030 13.9521 65.9036 -0.224 -0.580 -0.783 73 82 66
10.7526 13.9277 65.9635 -0.278 -0.562 -0.779 73 82 64
10.8760 13.8964 65.8684 -0.538 -0.483 -0.690 68 78 61
12.6638 13.5949 66.4628 -0.016 -0.414 -0.910 60 67 57
15.6653 12.9825 66.0791 -0.288 -0.104 -0.952 61 68 61
17.7916 12.5784 66.1934 0.215 -0.199 -0.956 56 68 56
20.2868 12.1624 67.0852 0.110 0.017 -0.994 59 68 63
20.4285 12.1350 67.0860 -0.143 -0.537 -0.831 56 65 60
20.7095 12.0798 67.0787 -0.423 -0.384 -0.821 46 60 48
20.9673 12.0232 66.9932 -0.365 -0.581 -0.728 65 84 65
26.7110 11.2065 70.8763 0.154 -0.472 -0.868 41 47 43
28.1031 10.9173 70.6314 0.154 -0.383 -0.911 58 68 67
28.7871 10.8340 71.2755 -0.167 -0.486 -0.858 41 49 51
29.6421 10.6012 70.4083 -0.057 -0.398 -0.916 48 62 55
30.8088 10.4580 71.4916 0.568 -0.449 -0.690 41 55 56
41.9046 8.9568 79.9897 0.631 -0.662 -0.406 33 54 35
-41.5722 25.4707 81.6822 -0.743 -0.285 -0.605 54 68 77
-40.8403 25.3496 81.9491 0.033 -0.066 -0.997 63 80 93
-34.2618 23.6580 76.6918 0.232 0.184 -0.955 160 205 226
-33.8313 23.5138 75.9220 0.030 0.484 -0.874 161 204 224
-26.9514 21.9320 72.8018 -0.824 -0.186 -0.534 159 200 222
-21.7641 20.6623 69.4706 0.038 -0.631 -0.775 72 78 78
-21.5692 20.7086 70.5384 -0.127 -0.623 -0.772 73 78 74
-21.1695 20.5434 69.4262 0.253 0.026 -0.967 73 79 75
-21.0289 20.5180 69.4503 0.243 0.020 -0.970 69 75 71
-19.4538 20.2243 69.6053 -0.506 -0.073 -0.859 56 62 58
-16.5360 19.5945 68.8034 0.196 0.317 -0.928 82 92 101
-8.6369 17.8346 65.9355 -0.124 -0.081 -0.989 66 67 61
-8.4939 17.8034 65.8920 -0.042 -0.152 -0.988 66 67 61
-8.3537 17.7756 65.8846 -0.069 -0.145 -0.987 68 69 63
-6.1321 17.3669 66.1733 0.150 0.218 -0.964 93 98 65
7.3972 14.7886 66.7970 0.533 -0.138 -0.835 77 77 61
12.1930 13.8557 66.7773 0.022 -0.112 -0.993 71 86 60
15.9812 13.0658 66.0882 -0.018 -0.373 -0.928 55 65 57
16.6940 12.9317 66.1437 -0.076 -0.263 -0.962 63 70 62
20.6112 12.2465 67.1026 -0.088 0.172 -0.981 36 47 40
20.8246 12.1864 66.8650 -0.515 -0.424 -0.745 44 61 45
20.9748 12.1596 66.8954 -0.306 -0.598 -0.741 58 75 56
21.1066 12.1315 66.8637 -0.306 -0.598 -0.741 72 89 71
26.5695 11.3790 70.7808 -0.265 -0.433 -0.862 42 47 41
38.6177 9.6697 78.7872 0.845 -0.280 -0.456 35 49 36
39.9721 9.4162 78.9084 0.742 -0.488 -0.459 13 29 18
42.2676 9.3305 83.4812 0.844 -0.353 -0.404 20 35 30
43.0561 8.9210 80.2255 -0.403 0.169 -0.899 28 38 34
-43.9023 26.2525 83.6256 -0.692 -0.242 -0.680 39 53 65
-40.7279 25.4818 81.7111 0.500 -0.051 -0.865 77 94 107
-38.0879 24.6021 77.1560 -0.884 0.064 -0.462 149 195 221
-35.1690 24.0620 77.4887 -0.062 -0.888 -0.456 157 201 226
-34.4427 23.8656 76.8013 0.304 0.181 -0.935 158 200 222
-27.5744 22.1356 71.8842 -0.373 -0.091 -0.924 159 200 222
-27.4098 22.0997 71.8362 -0.348 -0.061 -0.936 159 200 222
-27.3131 22.1376 72.5399 0.110 -0.296 -0.949 160 201 221
-27.2930 22.1705 72.9966 0.162 0.033 -0.986 162 200 221
-27.2457 22.1909 73.3637 -0.659 -0.587 -0.470 162 200 221
-25.9061 21.8078 71.8381 -0.452 -0.064 -0.890 164 201 217
-25.0439 21.6527 71.9905 -0.325 -0.281 -0.903 168 194 216
-24.4060 21.6131 73.0366 0.707 -0.071 -0.704 87 109 106
-21.0446 20.6842 69.6101 0.258 -0.107 -0.960 66 72 68
-20.8884 20.6503 69.5661 0.025 0.013 -1.000 63 69 65
-20.5288 20.6100 69.9320 -0.318 -0.267 -0.910 57 63 59
-20.3509 20.5638 69.7885 -0.378 -0.130 -0.916 56 63 56
-19.3874 20.3440 69.3827 -0.667 -0.291 -0.686 54 63 58
-17.9038 20.0458 69.2572 0.168 -0.273 -0.947 77 85 88
-16.6713 19.7755 68.8731 0.052 0.408 -0.911 91 102 108
-15.6430 19.5694 68.7936 0.605 -0.254 -0.755 83 94 96
-10.8698 18.4273 66.1239 -0.173 -0.183 -0.968 39 39 37
-8.4646 17.9359 65.8225 -0.090 -0.100 -0.991 78 77 72
-8.3230 17.9062 65.7949 -0.097 -0.111 -0.989 67 66 61
-6.1150 17.5223 66.3519 0.248 0.218 -0.944 74 77 55
-5.9729 17.4917 66.3156 -0.030 -0.267 -0.963 77 81 57
-5.8403 17.4814 66.5074 -0.244 -0.458 -0.855 65 71 46
-1.4950 16.5269 65.1338 -0.158 -0.274 -0.949 65 65 55
16.7075 13.0663 66.0583 -0.125 -0.267 -0.955 54 61 54
16.9505 13.0073 65.9104 -0.359 -0.235 -0.903 62 69 61
18.4418 12.7892 66.7989 0.204 -0.438 -0.876 60 70 59
18.5646 12.7598 66.7296 0.239 -0.408 -0.881 57 69 57
21.0953 12.2662 66.7034 -0.442 -0.302 -0.845 64 81 63
22.6335 12.1480 68.9442 -0.283 -0.278 -0.918 79 90 82
26.6370 11.5248 70.8594 -0.192 -0.480 -0.856 42 47 41
28.6631 11.1848 71.5231 -0.062 -0.179 -0.982 48 57 54
32.1599 10.6062 72.7703 0.576 -0.192 -0.795 42 53 55
33.6705 10.3406 73.1145 -0.672 -0.349 -0.653 52 64 62
41.0773 9.5233 80.8237 0.844 -0.353 -0.404 18 33 28
43.1092 9.0810 80.2318 -0.403 0.169 -0.899 28 37 33
-42.0012 25.9578 82.3878 0.135 -0.440 -0.888 57 71 81
-41.0902 25.6661 80.9954 -0.697 -0.072 -0.714 50 67 75
-40.6811 25.6394 81.6352 0.482 -0.049 -0.875 84 101 114
-40.5131 25.6068 81.6353 -0.018 -0.153 -0.988 60 77 108
-29.1425 22.6966 73.1177 -0.415 -0.288 -0.863 156 198 222
-28.7953 22.6180 72.9815 -0.558 -0.258 -0.789 156 198 222
-27.5383 22.3207 72.3365 -0.294 0.041 -0.955 161 202 224
-27.3720 22.2842 72.2854 -0.295 0.066 -0.953 161 202 224
-27.2942 22.2900 72.5389 -0.271 -0.591 -0.760 163 204 226
-27.3507 22.3605 73.2619 -0.605 -0.512 -0.610 166 204 225
-26.8614 22.2567 73.1551 0.020 -0.834 -0.552 173 211 232
-26.2259 22.0359 71.9735 0.004 -0.031 -1.000 176 215 232
-20.8659 20.7958 69.5561 0.308 -0.443 -0.842 63 69 65
-20.7388 20.7783 69.6435 0.100 -0.492 -0.865 63 69 65
-17.1113 20.0225 69.0208 -0.182 0.384 -0.905 100 111 113
-15.6045 19.7027 68.6911 0.538 -0.414 -0.734 79 89 90
-12.8345 19.0594 67.4131 0.398 -0.375 -0.837 53 59 57
-12.4506 19.0143 67.7702 0.624 -0.176 -0.761 61 62 60
-11.1071 18.6025 65.9393 0.139 -0.572 -0.808 37 37 35
-8.4432 18.0784 65.8572 0.111 -0.135 -0.985 105 102 97
-8.2974 18.0431 65.7734 -0.153 -0.097 -0.983 83 82 77
-7.0334 17.7863 65.6358 0.395 -0.216 -0.893 62 61 54
-5.8136 17.6185 66.4742 -0.196 -0.475 -0.858 60 65 44
0.9964 16.1390 64.5696 -0.033 0.257 -0.966 85 78 75
4.1209 15.6309 65.7677 -0.753 0.498 -0.431 94 253 155
7.3058 15.0894 66.7020 0.421 -0.438 -0.794 80 75 70
11.2764 14.1331 64.4555 -0.264 0.070 -0.962 89 93 81
16.7611 13.2065 66.1363 -0.153 -0.021 -0.988 66 73 66
23.4070 12.0391 67.6333 -0.108 -0.462 -0.880 67 71 70
38.3867 9.9895 78.0646 0.825 -0.332 -0.457 31 47 34
42.4047 9.3717 80.0367 0.740 -0.378 -0.556 58 81 61
43.1623 9.2411 80.2381 -0.403 0.169 -0.899 26 35 30
-41.0589 25.8286 80.9575 -0.693 0.009 -0.721 46 63 71
-40.6595 25.7375 80.7963 0.566 -0.396 -0.723 83 100 110
-40.7247 25.7983 81.3681 0.509 -0.345 -0.789 83 100 108
-40.6648 25.8091 81.6348 0.482 -0.049 -0.875 80 98 111
-40.4864 25.7723 81.6091 -0.018 -0.153 -0.988 62 80 111
-40.3117 25.7370 81.5926 -0.050 -0.128 -0.991 84 107 139
-34.6058 24.1597 76.0226 0.449 0.410 -0.794 159 201 225
-33.1381 23.9415 76.8161 0.748 0.477 -0.462 184 216 230
-26.3442 22.2100 71.9249 0.225 -0.311 -0.924 176 214 233
-25.0562 21.9816 72.1831 0.757 -0.584 -0.293 153 180 202
-24.7320 21.9606 72.6813 0.475 -0.410 -0.778 106 136 138
-23.6542 21.6952 72.0155 0.244 -0.193 -0.950 96 112 112
-22.7839 21.4331 70.9103 -0.786 0.452 -0.422 61 70 70
-16.9011 20.1107 68.7752 -0.020 -0.113 -0.993 101 115 116
-16.7366 20.0693 68.6630 -0.020 -0.171 -0.985 100 114 115
-16.5970 20.0448 68.6938 -0.048 -0.152 -0.987 95 109 110
-15.5820 19.8472 68.6887 0.532 -0.422 -0.734 74 83 82
-12.7194 19.2175 67.8128 0.653 -0.177 -0.736 56 58 54
-11.3912 18.8222 66.1829 -0.190 -0.249 -0.950 59 58 55
-11.2499 18.7941 66.1747 -0.165 -0.268 -0.949 61 60 56
-8.4179 18.2160 65.8412 0.111 -0.135 -0.985 71 68 63
-8.2791 18.1902 65.8544 0.086 -0.149 -0.985 59 56 51
-8.0249 18.1718 66.2220 0.392 -0.205 -0.897 70 65 61
-7.1630 17.9764 65.8900 -0.004 -0.380 -0.925 69 65 61
-1.3066 16.7582 64.9299 -0.226 -0.183 -0.957 73 68 62
-1.1666 16.7394 65.0302 -0.141 -0.349 -0.927 79 74 68
11.2265 14.2460 64.0027 -0.457 -0.292 -0.840 89 88 80
17.2836 13.2252 65.8499 -0.220 -0.350 -0.911 63 70 61
22.4918 12.4546 68.7097 0.005 -0.764 -0.645 51 63 53
31.1605 11.1082 72.7127 0.484 -0.548 -0.682 57 63 61
31.3184 11.0789 72.7282 0.563 -0.386 -0.731 48 55 55
31.5207 10.9866 72.0997 0.453 -0.177 -0.874 52 62 64
42.4196 9.5325 79.9650 0.744 -0.372 -0.555 27 50 30
43.0091 9.4344 80.1602 -0.350 0.146 -0.925 24 37 28
-41.2906 26.0623 81.1528 -0.725 -0.022 -0.688 46 63 72
-41.0243 25.9898 80.9118 -0.701 0.003 -0.713 47 64 72
-40.6631 25.9493 81.2557 0.427 -0.386 -0.817 68 85 93
-40.6401 25.9756 81.6139 0.446 -0.028 -0.895 66 84 98
-40.4542 25.9357 81.5695 -0.014 -0.139 -0.990 61 79 110
-40.2863 25.9031 81.5699 -0.050 -0.128 -0.991 96 120 151
-30.1910 23.2600 73.6402 0.018 -0.440 -0.898 160 202 226
-29.9580 23.1933 73.3915 -0.163 -0.217 -0.962 160 202 226
-27.3165 22.5796 72.2218 -0.249 -0.176 -0.952 191 229 249
-26.2835 22.3406 71.7754 0.196 -0.330 -0.923 178 215 234
-26.1025 22.2960 71.6660 0.128 0.011 -0.992 164 201 219
-23.9631 21.8685 71.5272 -0.843 -0.151 -0.517 89 110 111
-16.9919 20.2619 68.5907 -0.247 -0.214 -0.945 100 114 114
-15.7450 20.0496 68.9380 -0.463 0.610 -0.643 74 83 82
-8.3919 18.3527 65.8149 0.121 -0.178 -0.977 80 77 72
-1.2804 16.8928 64.8997 -0.193 -0.304 -0.933 72 69 62
-1.1412 16.8708 64.9580 -0.151 -0.348 -0.925 79 76 69
0.3691 16.5555 64.7027 0.001 -0.380 -0.925 73 69 66
1.0604 16.4261 64.7593 -0.414 -0.292 -0.862 74 64 63
3.4865 16.2064 67.6813 0.409 0.009 -0.913 252 255 13
5.1503 15.5937 64.3178 0.099 -0.672 -0.734 81 73 72
5.8919 15.3874 63.5943 -0.166 -0.225 -0.960 82 74 72
14.1397 13.9934 66.0090 0.067 -0.403 -0.913 104 102 87
14.2874 13.9679 66.0452 -0.190 -0.519 -0.834 98 99 83
14.5716 13.9143 66.0642 -0.107 -0.531 -0.841 99 100 86
15.4215 13.8600 67.3515 -0.326 -0.440 -0.837 92 94 83
15.5555 13.8308 67.3147 -0.326 -0.440 -0.837 92 94 83
22.7041 12.5708 68.8058 -0.278 -0.276 -0.920 54 66 57
22.8625 12.5438 68.8492 -0.438 -0.186 -0.879 54 66 57
28.8713 11.5919 71.3491 0.402 -0.204 -0.892 65 74 71
29.0637 11.5644 71.4637 0.419 -0.223 -0.880 63 72 71
31.7483 11.1698 72.9366 0.371 -0.555 -0.745 56 66 67
43.0506 9.5950 80.1431 -0.396 0.211 -0.894 25 37 29
-42.3451 26.5949 82.9218 -0.082 -0.406 -0.910 44 60 75
-40.6310 26.1486 81.6313 0.100 -0.206 -0.973 57 75 88
-40.4154 26.0964 81.5134 -0.117 -0.190 -0.975 59 78 108
-39.9265 25.9676 81.1291 -0.747 -0.031 -0.664 170 205 232
-33.4478 24.3368 76.8910 0.413 0.405 -0.816 20 51 71
-30.5222 23.4940 73.7678 -0.374 -0.257 -0.891 161 202 226
-30.3835 23.4713 73.8160 -0.323 -0.275 -0.905 161 202 225
-30.1613 23.4095 73.6031 -0.522 -0.319 -0.791 161 203 225
-29.2747 23.2040 73.2251 -0.400 -0.396 -0.826 173 213 234
-26.2591 22.4892 71.7554 0.229 -0.275 -0.934 144 179 198
-25.0533 22.2544 71.7492 0.769 -0.568 -0.292 100 129 146
-24.7646 22.2532 72.3738 0.743 -0.438 -0.507 135 165 175
-23.9046 21.9983 71.3738 -0.817 -0.114 -0.565 91 112 114
-15.4025 20.1164 68.7503 -0.357 -0.829 -0.430 91 100 99
-12.3989 19.3573 66.7511 -0.200 -0.019 -0.980 60 62 57
-11.6810 19.2100 66.6615 -0.260 0.042 -0.965 71 70 68
-11.3958 19.1527 66.6392 -0.292 -0.001 -0.956 71 70 66
-7.9584 18.4256 65.9627 -0.262 0.141 -0.955 74 69 65
-7.8166 18.3958 65.9365 -0.292 0.097 -0.951 87 82 78
-6.9553 18.1952 65.5583 0.160 0.239 -0.958 60 58 53
-6.1188 18.0322 65.5516 -0.123 -0.201 -0.972 50 50 40
-5.9808 18.0081 65.5828 0.004 -0.247 -0.969 45 45 34
-5.8422 17.9828 65.6006 -0.052 -0.079 -0.996 35 38 22
-4.1941 17.7718 66.8416 -0.903 0.117 -0.413 40 39 34
-3.8871 17.5864 65.4112 -0.051 0.076 -0.996 38 39 33
-1.2522 17.0371 64.9838 -0.157 -0.039 -0.987 75 75 67
-1.1146 17.0072 64.9480 -0.160 -0.289 -0.944 75 75 67
0.3961 16.6915 64.6949 0.016 -0.372 -0.928 70 66 63
1.5253 16.5172 65.2069 0.263 -0.623 -0.737 71 63 61
5.2649 15.7872 65.1642 0.191 -0.651 -0.735 84 76 74
5.3137 15.7009 64.2902 -0.447 -0.385 -0.807 83 75 73
6.5719 15.5783 65.6759 0.351 -0.796 -0.493 83 78 75
7.0616 15.4349 65.1264 0.110 0.099 -0.989 84 80 77
13.3863 14.3073 66.2723 -0.011 0.274 -0.962 105 101 89
14.1526 14.1268 65.9127 0.074 -0.247 -0.966 106 104 89
16.2096 13.8163 66.9253 0.176 -0.374 -0.910 88 91 75
29.2230 11.6804 71.3799 0.214 -0.319 -0.923 68 73 76
33.0219 11.0822 72.9677 -0.083 -0.915 -0.394 44 55 49
-40.5749 26.2649 81.1172 0.320 -0.470 -0.823 53 69 78
-40.5908 26.3088 81.5718 0.028 -0.256 -0.966 53 71 85
-33.9438 24.5657 76.5336 -0.101 -0.147 -0.984 155 196 214
-33.7620 24.5246 76.4688 -0.228 -0.227 -0.947 158 196 215
-33.6690 24.5235 76.6587 0.201 -0.592 -0.781 38 72 92
-33.5332 24.5033 76.7269 0.103 -0.612 -0.784 40 71 91
-33.3870 24.4783 76.7655 0.103 -0.612 -0.784 17 48 68
-32.9830 24.3775 76.5164 -0.028 -0.981 -0.190 173 205 221
-26.2373 22.6391 71.7445 0.286 -0.225 -0.932 97 130 147
-26.0723 22.6024 71.6928 0.089 0.086 -0.992 96 129 148
-25.7585 22.5373 71.6461 -0.418 0.123 -0.900 92 123 143
-25.5921 22.4997 71.5873 -0.593 -0.103 -0.799 43 74 94
-24.9988 22.3871 71.6169 0.740 -0.600 -0.304 114 141 157
-21.0524 21.4254 69.4413 0.230 0.103 -0.968 42 48 48
-15.8322 20.3586 68.8517 -0.419 -0.863 -0.282 72 82 81
-15.6700 20.3177 68.7467 -0.545 -0.800 -0.251 73 82 81
-14.3322 19.9495 67.5400 -0.376 0.083 -0.923 68 78 79
-14.1088 19.8563 66.9838 0.225 -0.401 -0.888 59 69 70
-11.3517 19.2728 66.4493 -0.019 -0.201 -0.979 79 78 76
-10.5841 19.0687 65.8363 0.225 0.219 -0.949 94 93 91
-8.4691 18.6388 65.6230 -0.575 0.141 -0.806 83 80 75
-7.2033 18.3777 65.4536 0.302 -0.189 -0.934 60 55 51
-6.9301 18.3331 65.5477 0.325 -0.228 -0.918 61 60 52
-6.3695 18.2187 65.4857 -0.135 0.296 -0.946 57 57 49
-5.8162 18.1197 65.5802 -0.105 -0.142 -0.984 40 42 27
-5.2566 18.0062 65.5264 0.069 -0.174 -0.982 93 98 78
-4.3120 17.9504 66.9495 -0.966 -0.207 -0.153 35 34 30
-4.1675 17.9107 66.8196 -0.903 0.126 -0.410 34 33 28
-3.8774 17.8168 66.4014 0.482 0.081 -0.873 35 34 29
-1.2271 17.1666 64.8923 -0.405 -0.303 -0.863 66 63 56
1.1155 16.6995 64.7566 -0.351 -0.331 -0.876 72 62 60
1.2428 16.6555 64.5423 0.355 -0.636 -0.686 74 68 64
1.3822 16.6315 64.5766 0.440 -0.540 -0.718 81 78 73
1.5484 16.6476 65.1152 -0.099 -0.542 -0.834 84 76 74
2.3858 16.4934 65.2090 0.981 0.014 -0.192 41 238 239
3.4029 16.5181 67.6856 0.802 0.021 -0.597 108 252 167
3.7003 16.4731 67.8281 -0.368 0.780 -0.506 137 247 138
5.3417 15.8357 64.2777 -0.371 -0.396 -0.840 74 66 63
11.6538 14.6140 64.3255 -0.034 -0.212 -0.977 71 66 60
11.7937 14.5882 64.3402 0.051 -0.228 -0.972 70 65 59
17.1074 13.7928 66.9779 -0.069 -0.535 -0.842 95 99 85
17.2216 13.7607 66.8672 -0.017 -0.358 -0.934 94 100 88
17.3641 13.7334 66.8709 -0.042 -0.379 -0.924 93 99 87
21.4075 13.1012 68.5779 0.029 -0.732 -0.681 47 63 51
22.9579 12.8300 68.9113 0.054 0.391 -0.919 51 69 55
23.1114 12.8026 68.9377 -0.276 0.345 -0.897 51 70 56
29.2686 11.8269 71.3911 0.228 -0.333 -0.915 75 81 81
33.1004 11.1989 72.6868 -0.086 -0.913 -0.398 44 55 48
41.8045 10.1113 79.4049 0.046 0.778 -0.626 63 82 64
-40.5947 26.4495 81.2060 -0.229 -0.526 -0.819 52 68 77
-34.4903 24.8173 76.3296 0.441 0.389 -0.809 160 201 221
-33.6156 24.6680 76.5553 0.191 -0.586 -0.787 38 73 92
-33.4922 24.6535 76.6588 0.137 -0.590 -0.796 32 63 83
-26.2108 22.7867 71.7170 0.286 -0.225 -0.932 103 134 152
-26.0575 22.7561 71.7074 0.089 0.086 -0.992 130 161 181
-24.9394 22.5168 71.4657 0.741 -0.598 -0.307 129 156 170
-24.3315 22.4496 72.0217 -0.837 -0.068 -0.543 57 84 100
-24.0891 22.3697 71.6635 -0.866 -0.074 -0.495 80 104 112
-23.8371 22.2840 71.2622 -0.822 -0.070 -0.564 88 112 114
-23.7004 22.2623 71.3145 -0.674 -0.547 -0.496 91 113 111
-12.6245 19.6844 66.6559 -0.692 0.040 -0.721 69 73 67
-12.5031 19.6756 66.8169 -0.264 -0.002 -0.964 70 72 67
-12.3427 19.6305 66.6647 0.280 -0.097 -0.955 67 68 63
-11.7124 19.4572 66.1087 -0.578 -0.260 -0.773 81 77 74
-11.3254 19.4105 66.4205 -0.019 -0.201 -0.979 79 78 76
-10.5892 19.2396 66.1155 -0.061 0.081 -0.995 89 88 86
-10.4519 19.2159 66.1477 -0.071 0.060 -0.996 88 87 83
-10.1783 19.1699 66.2252 0.058 -0.436 -0.898 100 99 97
-8.8868 18.8900 65.9081 -0.382 0.143 -0.913 83 81 76
-7.4500 18.5584 65.3350 0.158 0.018 -0.987 76 71 67
-7.1764 18.5124 65.4122 0.218 -0.010 -0.976 78 73 69
-7.0389 18.4885 65.4433 0.201 0.035 -0.979 94 90 85
-5.2306 18.1428 65.5040 0.069 -0.174 -0.982 114 119 100
-3.8533 17.9692 66.5291 0.412 0.254 -0.875 28 27 22
-2.7211 17.5983 64.8797 0.095 0.472 -0.876 54 53 43
-1.2032 17.2897 64.7299 -0.057 -0.294 -0.954 53 50 43
4.1773 16.3931 66.3503 -0.067 0.646 -0.760 8 240 245
4.3321 16.3777 66.5102 -0.213 0.653 -0.727 17 241 236
4.4811 16.3568 66.5989 -0.170 0.679 -0.714 47 239 217
5.7368 15.8621 63.8602 0.093 -0.337 -0.937 71 63 61
7.1650 15.7322 65.4702 0.499 -0.446 -0.743 69 64 61
14.0198 14.4763 66.2947 -0.248 -0.107 -0.963 110 108 93
14.6834 14.3309 66.1138 -0.183 -0.361 -0.914 115 114 98
17.2492 13.8988 66.8380 -0.033 -0.381 -0.924 104 110 99
17.3961 13.8722 66.8590 -0.054 -0.380 -0.923 104 110 100
19.9890 13.3372 66.5160 -0.167 -0.307 -0.937 54 68 53
20.1284 13.3096 66.5104 0.195 -0.046 -0.980 46 62 50
20.2783 13.2833 66.5414 0.195 -0.046 -0.980 41 54 44
20.4304 13.2573 66.5795 -0.048 0.089 -0.995 40 53 43
23.4219 12.8870 68.8807 -0.443 -0.343 -0.828 52 70 54
41.9117 10.1479 78.1850 -0.179 0.749 -0.638 33 54 39
41.9804 10.1172 77.9960 -0.217 0.744 -0.632 35 52 41
42.1940 10.0854 78.1020 -0.321 0.704 -0.633 29 40 35
-32.3799 24.5195 75.7759 -0.731 -0.520 -0.441 161 197 213
-29.6968 23.7648 73.2764 -0.521 -0.309 -0.796 170 206 222
-29.5078 23.7176 73.1631 -0.513 -0.319 -0.797 158 191 208
-26.9555 23.0901 71.7527 -0.346 -0.575 -0.741 117 150 165
-25.7064 22.8326 71.5942 -0.520 0.039 -0.853 129 160 180
-25.5292 22.7890 71.4959 -0.532 0.006 -0.847 105 136 157
-24.2866 22.5876 71.9234 -0.837 -0.060 -0.543 67 94 106
-23.8576 22.4574 71.4210 -0.791 -0.167 -0.589 92 114 116
-21.3483 21.9251 70.9403 0.376 -0.191 -0.907 27 33 31
-21.0932 21.8311 70.4645 0.182 -0.527 -0.830 37 41 40
-17.1772 20.8858 68.4874 -0.018 -0.255 -0.967 68 80 80
-16.3601 20.6762 67.9430 -0.069 -0.306 -0.950 67 81 81
-16.2161 20.6481 67.9416 -0.069 -0.306 -0.950 72 87 87
-16.0491 20.6028 67.8033 -0.013 -0.278 -0.960 72 86 86
-13.7883 20.0925 67.0417 0.035 -0.459 -0.888 42 51 50
-12.5098 19.8454 67.0541 -0.535 0.090 -0.840 77 78 72
-12.3303 19.7821 66.7500 0.196 -0.146 -0.970 74 75 70
-9.5855 19.1934 66.1548 -0.181 0.132 -0.975 95 94 89
-7.7048 18.7527 65.3481 -0.386 -0.220 -0.896 70 64 60
-7.5657 18.7257 65.3487 -0.064 -0.198 -0.978 80 72 70
-7.4268 18.6992 65.3533 -0.055 -0.209 -0.976 99 91 89
-7.1526 18.6525 65.4241 0.244 -0.174 -0.954 99 91 89
-7.0132 18.6253 65.4226 0.242 -0.175 -0.954 89 83 79
-6.8767 18.6036 65.4736 0.232 -0.167 -0.958 64 61 55
-5.8986 18.4081 65.4150 0.172 -0.197 -0.965 45 42 36
-2.6949 17.7348 64.8681 0.144 0.437 -0.888 60 55 50
-1.1774 17.4227 64.6830 0.130 -0.289 -0.948 46 41 37
-1.0386 17.3995 64.7227 -0.262 -0.250 -0.932 46 41 37
3.9329 16.5949 66.4457 -0.489 0.019 -0.872 17 246 249
4.2429 16.5650 66.7702 -0.036 0.486 -0.873 35 239 221
5.7611 15.9940 63.8152 0.093 -0.337 -0.937 88 80 77
11.5804 14.9114 64.3256 -0.173 -0.210 -0.962 76 71 67
14.7068 14.4669 66.0671 -0.134 -0.261 -0.956 108 109 93
14.8532 14.4410 66.0947 -0.156 -0.370 -0.916 106 108 94
17.2942 14.0400 66.8779 -0.159 -0.538 -0.828 109 115 103
17.4459 14.0143 66.9173 0.119 -0.406 -0.906 109 117 106
21.1823 13.3945 68.0512 0.154 -0.058 -0.986 49 63 50
22.2707 13.2522 68.7909 -0.070 -0.550 -0.832 47 66 47
34.3672 11.2589 72.6041 -0.452 0.252 -0.856 61 83 57
42.0382 10.2135 77.3628 0.233 0.644 -0.728 27 39 35
-40.0429 26.6842 81.1648 -0.690 -0.195 -0.698 115 141 164
-27.0590 23.3061 72.1759 -0.366 0.010 -0.931 145 178 193
-25.4758 22.9746 71.9247 0.224 0.266 -0.938 145 176 196
-23.7710 22.5703 71.1562 -0.808 -0.098 -0.581 93 116 118
-23.3186 22.4239 70.5416 -0.253 -0.422 -0.870 94 114 112
-18.6208 21.4661 70.0667 -0.629 -0.681 -0.375 50 55 61
-16.3626 20.8387 68.0842 -0.239 -0.376 -0.895 61 72 73
-16.1899 20.7890 67.9147 -0.271 -0.290 -0.918 68 80 80
-16.0230 20.7434 67.7769 -0.074 -0.189 -0.979 68 79 80
-13.7612 20.2308 67.0075 0.011 -0.476 -0.879 41 45 45
-12.6225 20.0090 67.0002 -0.163 -0.243 -0.956 80 81 75
-11.6080 19.7958 66.8315 -0.472 0.224 -0.853 79 78 74
-11.4480 19.7493 66.6691 -0.242 -0.250 -0.938 79 78 76
-10.8334 19.5859 66.2075 -0.226 -0.134 -0.965 83 82 80
-10.6916 19.5575 66.1983 -0.229 -0.157 -0.961 95 94 92
-10.5455 19.5240 66.1446 -0.213 -0.150 -0.965 102 101 99
-10.4042 19.4961 66.1390 -0.157 -0.171 -0.973 101 100 98
-10.2564 19.4603 66.0652 0.332 0.004 -0.943 102 101 97
-6.9858 18.7590 65.3716 -0.099 -0.377 -0.921 68 59 57
-6.8485 18.7359 65.4089 -0.083 -0.376 -0.923 65 57 55
-4.1771 18.1040 64.2229 -0.403 -0.042 -0.914 30 26 22
5.1945 16.3263 64.6698 0.394 -0.480 -0.783 83 85 82
7.3627 15.9796 65.4514 0.719 -0.365 -0.592 92 84 82
15.9807 14.2990 65.3810 0.115 -0.422 -0.899 111 113 100
17.4934 14.1562 66.9667 0.554 -0.000 -0.833 109 117 104
29.3312 12.1160 69.6858 0.591 -0.365 -0.719 92 97 90
31.1134 11.9856 71.9509 0.372 -0.184 -0.910 83 89 85
42.1831 10.3695 77.5565 0.229 0.649 -0.726 25 37 33
-42.8092 27.5331 82.5913 -0.181 0.116 -0.977 139 159 150
-39.9629 26.8263 81.0052 -0.653 -0.267 -0.709 125 150 173
-35.4357 25.5887 77.3164 0.043 0.133 -0.990 158 202 227
-34.9072 25.3878 76.3038 -0.456 -0.467 -0.757 159 201 225
-34.5144 25.2912 76.0957 -0.454 -0.479 -0.751 160 201 221
-29.0813 23.9249 72.8921 -0.385 0.075 -0.920 104 137 152
-28.8877 23.8744 72.7600 -0.352 -0.002 -0.936 119 152 167
-26.0474 23.2368 71.8750 -0.126 -0.528 -0.840 147 178 196
-25.9210 23.2210 71.9646 -0.286 -0.533 -0.796 148 179 199
-25.7881 23.2016 72.0315 -0.382 -0.533 -0.755 147 178 198
-25.6541 23.1818 72.0952 -0.371 -0.549 -0.749 145 176 196
-25.3825 23.1403 72.2115 0.091 0.005 -0.996 147 174 194
-23.7532 22.7221 71.1635 -0.799 -0.119 -0.589 94 115 118
-22.5678 22.4364 70.5921 0.161 -0.242 -0.957 87 95 95
-21.4515 22.0629 68.9786 0.318 -0.172 -0.932 33 39 39
-18.7457 21.5694 69.3091 -0.629 -0.578 -0.520 40 47 53
-17.2144 21.1573 68.1288 0.018 -0.229 -0.973 61 73 73
-16.3245 20.9707 67.9871 -0.281 -0.290 -0.915 66 75 74
-12.8738 20.1968 66.9195 -0.005 -0.868 -0.497 80 77 72
-10.5193 19.6616 66.1174 -0.213 -0.150 -0.965 101 100 98
-10.3773 19.6327 66.1035 -0.211 -0.114 -0.971 101 100 98
-10.2328 19.6007 66.0636 -0.213 -0.150 -0.965 101 100 96
-7.9974 19.1858 66.2620 -0.012 -0.508 -0.861 77 66 65
-6.8336 18.8943 65.5879 0.427 -0.334 -0.840 67 57 58
-2.2283 17.9125 64.6897 -0.203 -0.232 -0.951 58 47 45
-2.0910 17.8734 64.5608 -0.238 -0.253 -0.938 58 47 45
1.3267 17.1567 64.0169 0.103 -0.492 -0.865 74 65 66
16.0047 14.4341 65.3391 -0.188 -0.309 -0.933 112 112 100
17.3577 14.3181 66.8514 0.108 -0.566 -0.817 110 115 103
19.2250 13.9640 66.9396 -0.204 -0.097 -0.974 75 93 74
22.7015 13.3542 67.6137 -0.436 -0.208 -0.876 51 74 56
29.4994 12.3038 70.3951 0.163 0.259 -0.952 94 97 88
-39.9080 26.9790 80.9083 -0.636 -0.235 -0.735 139 164 186
-35.1948 25.6041 76.2662 -0.388 -0.337 -0.858 158 202 227
-35.4091 25.7471 77.2899 0.094 0.119 -0.988 156 200 225
-35.2408 25.7123 77.2692 0.001 0.159 -0.987 160 205 228
-35.1747 25.7254 77.5315 -0.544 -0.292 -0.787 167 209 232
-34.9583 25.6682 77.3781 -0.530 -0.299 -0.794 166 207 227
-30.1266 24.3308 73.3471 -0.467 -0.288 -0.836 111 147 163
-29.9450 24.2869 73.2597 -0.497 -0.085 -0.863 119 155 171
-29.7596 24.2410 73.1593 -0.535 -0.103 -0.839 121 157 173
-26.9007 23.4443 70.7197 -0.135 -0.635 -0.761 148 180 195
-24.1522 23.0003 71.6286 -0.863 -0.045 -0.503 81 105 116
-23.2791 22.7231 70.5406 -0.386 -0.233 -0.892 99 117 115
-22.4130 22.5658 70.6508 -0.174 -0.739 -0.651 42 48 46
-20.6484 22.0990 69.3974 -0.438 -0.405 -0.802 34 44 45
-18.7133 21.7087 69.2517 -0.579 -0.627 -0.522 38 43 49
-17.1818 21.2939 68.0664 0.023 -0.227 -0.974 65 75 76
-12.5452 20.2628 66.7477 0.056 -0.157 -0.986 80 75 72
-7.9692 19.3206 66.2078 -0.020 -0.512 -0.859 74 62 62
-2.7546 18.1672 64.7883 -0.446 -0.207 -0.871 61 49 53
-2.6163 18.1355 64.7393 -0.457 -0.195 -0.868 62 50 54
-2.4781 18.1066 64.7185 -0.027 -0.371 -0.928 61 49 52
-0.2692 17.6718 64.6600 0.264 -0.484 -0.834 76 64 64
-0.1315 17.6440 64.6495 0.094 -0.422 -0.902 74 62 66
11.2393 15.4659 64.9593 -0.213 -0.418 -0.883 109 101 98
11.3638 15.4340 64.8811 -0.280 -0.415 -0.866 109 101 98
12.9184 15.0801 64.3559 0.058 -0.257 -0.965 112 105 99
15.4086 14.7219 65.6245 -0.396 -0.397 -0.828 103 97 91
16.0506 14.5739 65.3886 0.116 -0.265 -0.957 108 105 96
17.4889 14.4214 66.6705 -0.424 -0.467 -0.776 114 116 105
34.4090 11.7013 72.3966 -0.583 -0.547 -0.601 24 40 32
-43.3290 27.9954 82.6846 0.109 0.065 -0.992 150 174 162
-39.8386 27.1249 80.7752 -0.854 -0.049 -0.517 147 171 192
-35.1943 25.8612 77.1879 -0.041 0.200 -0.979 161 206 228
-35.1449 25.8827 77.4964 -0.477 -0.588 -0.654 169 214 234
-34.8856 25.8049 77.2234 -0.467 -0.530 -0.707 179 222 240
-30.4584 24.5673 73.4769 -0.594 -0.285 -0.752 126 162 178
-24.3499 23.2205 71.8876 -0.667 -0.236 -0.707 109 129 144
-24.1114 23.1398 71.5461 -0.863 -0.045 -0.503 81 98 111
-23.2381 22.8601 70.4545 -0.382 -0.242 -0.892 136 151 146
-23.0979 22.8364 70.4890 -0.285 -0.558 -0.779 126 143 138
-22.3389 22.6823 70.4230 -0.204 -0.790 -0.579 46 52 50
-20.7402 22.2527 69.2416 0.092 -0.406 -0.909 50 61 63
-18.6657 21.8372 69.1169 -0.605 -0.543 -0.582 39 44 48
-14.0783 20.7035 66.7104 -0.185 -0.740 -0.646 61 57 54
-10.4489 19.9150 65.8813 -0.432 -0.487 -0.760 88 87 85
-10.3118 19.8917 65.9144 -0.460 -0.547 -0.699 88 87 85
-8.0200 19.3810 65.2649 -0.224 -0.506 -0.833 67 57 55
-7.9393 19.4524 66.1282 -0.025 -0.478 -0.878 68 58 57
-7.8005 19.4284 66.1577 -0.153 -0.294 -0.944 67 57 58
-6.9096 19.1717 65.3283 0.055 0.155 -0.986 68 56 58
-6.7679 19.1399 65.2856 0.057 0.077 -0.995 66 56 57
-1.8081 17.6746 60.3060 -0.798 0.336 -0.499 75 64 62
-1.4899 18.0179 64.3249 0.439 -0.327 -0.837 75 64 62
-1.0776 17.9369 64.3162 -0.186 -0.504 -0.843 73 63 62
-0.9389 17.9153 64.3690 -0.197 -0.427 -0.882 73 63 62
2.2068 17.2741 64.0698 0.272 -0.402 -0.874 79 84 76
4.8499 16.8019 64.4792 -0.130 -0.358 -0.925 69 57 58
5.1234 16.7468 64.4589 -0.111 -0.341 -0.933 98 89 90
5.2624 16.7210 64.4716 0.134 -0.292 -0.947 74 70 66
5.4045 16.6977 64.5141 0.130 -0.303 -0.944 75 68 62
11.6002 15.5678 65.2438 -0.185 -0.533 -0.825 108 100 97
13.0063 15.3024 65.3209 -0.438 -0.097 -0.894 104 96 93
15.3257 14.8926 65.7251 -0.391 0.090 -0.916 111 102 97
16.1886 14.7349 65.8230 -0.111 -0.231 -0.967 102 99 92
17.2399 14.6157 66.6668 -0.334 -0.338 -0.880 117 115 105
25.2848 13.2544 68.6641 0.092 -0.429 -0.898 73 76 67
34.4070 11.8480 72.2910 -0.632 -0.535 -0.561 31 46 37
-39.7726 27.2721 80.6503 -0.852 -0.043 -0.521 137 162 186
-36.3010 26.3307 78.0485 -0.598 -0.461 -0.655 165 209 236
-35.4422 26.1048 77.4735 -0.528 -0.545 -0.651 185 230 249
-34.8019 25.9358 77.0380 -0.463 -0.551 -0.694 192 235 252
-33.5843 25.5313 75.4020 -0.608 -0.134 -0.783 160 199 216
-33.3941 25.4849 75.3091 -0.596 -0.366 -0.714 144 181 199
-32.4439 25.2512 74.8307 -0.479 0.014 -0.878 154 187 204
-32.2563 25.2054 74.7395 -0.479 0.005 -0.878 116 149 166
-30.9586 24.8410 73.6456 -0.568 -0.392 -0.724 126 163 181
-30.7809 24.7992 73.5746 -0.535 -0.327 -0.779 126 163 181
-29.8524 24.5682 73.0807 -0.470 -0.276 -0.839 142 177 196
-24.5089 23.4186 71.9937 -0.696 -0.042 -0.717 134 155 169
-24.3082 23.3600 71.8022 -0.696 -0.042 -0.717 111 126 141
-24.0763 23.2824 71.4853 -0.863 0.050 -0.503 86 97 111
-23.2054 23.0021 70.4020 -0.382 -0.242 -0.892 134 149 143
-23.0561 22.9728 70.3991 -0.277 -0.512 -0.813 139 154 147
-22.2711 22.8021 70.2218 -0.322 -0.673 -0.666 47 53 49
-20.7043 22.3899 69.1710 0.150 -0.250 -0.957 66 77 79
-18.8272 22.0385 69.2999 -0.567 0.211 -0.796 36 39 44
-18.6530 21.9902 69.1595 -0.725 0.096 -0.682 37 42 46
-14.1453 20.8262 66.3492 -0.276 0.134 -0.952 63 59 56
-13.4896 20.7368 66.7190 -0.136 -0.195 -0.971 72 68 65
-13.3457 20.7074 66.7047 -0.136 -0.195 -0.971 71 66 62
-13.2024 20.6784 66.6938 -0.181 -0.138 -0.974 74 69 65
-13.0515 20.6421 66.6255 -0.179 -0.048 -0.983 80 75 69
-10.0061 19.9761 65.9006 -0.143 -0.147 -0.979 90 89 84
-9.8700 19.9544 65.9468 -0.207 -0.179 -0.962 86 86 78
-7.9099 19.5848 66.0553 -0.025 -0.478 -0.878 63 53 52
-7.7729 19.5640 66.1118 -0.242 -0.259 -0.935 52 42 43
-6.3245 19.1961 65.2690 -0.100 0.105 -0.989 53 48 45
-5.7669 19.0868 65.2595 0.188 -0.165 -0.968 89 81 79
-4.6317 18.7848 64.4650 -0.233 -0.053 -0.971 47 43 40
-3.8134 18.6831 65.0232 -0.081 0.034 -0.996 60 55 52
-3.5354 18.6264 64.9971 -0.004 -0.118 -0.993 60 55 52
-1.5996 18.1930 64.4379 0.368 -0.313 -0.876 80 70 68
-1.3196 18.1660 64.7045 0.501 -0.367 -0.784 80 70 68
-1.1813 18.1393 64.7056 0.412 -0.442 -0.797 80 70 69
-0.9128 18.0496 64.3403 -0.217 -0.406 -0.888 80 70 69
-0.0616 17.9651 65.1277 -0.006 -0.112 -0.994 93 82 86
0.0805 17.9467 65.2178 -0.034 -0.159 -0.987 79 68 72
0.4884 17.8427 64.9763 0.425 -0.103 -0.899 70 59 63
0.6291 17.8203 65.0248 0.419 -0.111 -0.901 81 70 74
1.6788 17.5045 63.9342 0.076 -0.454 -0.888 92 83 84
2.2381 17.4152 64.1222 0.265 -0.189 -0.945 109 86 91
