ply
format ascii 1.0
element vertex 873
property float x
property float y
property float z
property float nx
property float ny
property float nz
property uchar diffuse_red
property uchar diffuse_green
property uchar diffuse_blue
end_header
-10.5352 30.9847 63.4268 0.291 -0.603 -0.743 69 70 65
-10.3859 30.9749 63.4933 0.291 -0.603 -0.743 73 74 69
-10.2366 30.9651 63.5598 0.291 -0.603 -0.743 72 73 68
-6.4055 29.7107 62.8022 0.432 0.124 -0.893 65 64 60
-5.9890 29.6106 62.8089 0.078 -0.101 -0.992 68 64 61
-5.4319 29.5032 62.8829 -0.027 -0.142 -0.990 68 64 63
-4.5609 29.2745 62.8495 -0.254 -0.327 -0.910 58 54 53
-4.3014 29.1894 62.7979 -0.214 -0.432 -0.876 59 55 52
-3.9404 29.0373 62.6433 -0.028 -0.500 -0.865 69 68 64
4.1184 26.7287 61.8603 0.293 0.079 -0.953 97 94 89
7.8282 25.9107 62.1012 -0.055 -0.135 -0.989 88 78 76
9.3727 25.4810 61.9825 0.309 -0.267 -0.913 74 67 67
9.5266 25.4565 62.0156 0.187 -0.355 -0.916 77 71 71
10.9221 25.0326 61.8208 0.231 -0.176 -0.957 79 69 68
12.4497 24.6822 61.8867 0.211 -0.429 -0.878 84 73 69
12.5922 24.6645 61.9295 0.211 -0.429 -0.878 88 77 73
12.7242 24.6552 61.9868 0.425 -0.178 -0.887 81 72 67
12.8325 24.6651 62.0769 0.406 -0.193 -0.893 66 57 52
12.9927 24.6329 62.0950 0.233 -0.405 -0.884 80 73 67
13.1636 24.5919 62.0978 0.205 -0.415 -0.887 79 72 66
13.9214 24.4641 62.2436 0.051 -0.519 -0.854 88 81 75
16.9580 23.9246 62.7602 0.173 -0.237 -0.956 99 90 81
18.3536 23.6415 62.9114 0.396 -0.279 -0.875 153 142 130
18.4992 23.6180 62.9419 0.374 -0.319 -0.871 143 131 119
18.6276 23.6100 63.0000 0.374 -0.319 -0.871 118 106 94
23.5021 22.9485 64.3318 0.244 -0.437 -0.866 155 138 130
23.6475 22.9221 64.3552 0.256 -0.434 -0.864 148 131 123
23.7978 22.8905 64.3688 0.248 -0.441 -0.863 166 149 141
24.5492 22.7303 64.4309 0.419 -0.256 -0.871 118 101 93
24.6741 22.7245 64.4925 0.419 -0.256 -0.871 116 99 91
25.0593 22.6961 64.6565 0.212 -0.211 -0.954 146 132 123
25.1782 22.6970 64.7307 0.494 -0.345 -0.798 129 116 107
25.8450 22.6229 64.9531 0.224 -0.405 -0.886 141 128 119
25.9797 22.6066 64.9947 0.224 -0.405 -0.886 138 125 116
26.1251 22.5783 65.0134 0.305 -0.420 -0.855 146 133 125
26.2554 22.5665 65.0637 0.285 -0.343 -0.895 161 148 140
28.4101 22.2947 65.7029 0.325 -0.341 -0.882 114 96 82
28.9019 22.2806 65.9666 0.206 -0.509 -0.836 97 79 65
29.0371 22.2625 66.0040 0.214 -0.519 -0.828 99 81 67
30.7554 22.0690 66.5711 0.237 -0.278 -0.931 96 81 74
31.3092 21.9750 66.6760 0.452 -0.356 -0.818 134 119 112
33.1710 22.0775 68.0570 0.387 -0.313 -0.867 116 100 92
33.2691 22.1115 68.2002 0.291 -0.449 -0.845 139 127 119
36.3464 21.9029 69.5544 0.525 -0.364 -0.769 88 79 72
36.8803 21.8336 69.7079 0.311 -0.385 -0.869 124 115 108
38.2277 21.8532 70.5735 0.288 -0.366 -0.885 163 150 144
38.3588 21.8404 70.6214 0.288 -0.366 -0.885 159 146 140
38.4859 21.8347 70.6846 0.286 -0.366 -0.886 141 128 122
40.5159 22.0227 72.3778 0.429 -0.308 -0.849 115 105 96
40.6482 22.0098 72.4262 0.420 -0.306 -0.854 111 101 92
43.6039 22.2554 74.8226 0.761 -0.392 -0.517 118 109 104
43.7277 22.2692 74.9314 0.793 -0.358 -0.492 117 108 103
44.4988 21.9193 74.5397 0.570 -0.334 -0.751 139 130 123
45.0086 22.7024 76.7725 0.738 -0.663 0.124 122 118 106
46.2637 22.0405 75.9079 0.098 -0.410 -0.907 136 129 119
46.5276 22.0257 76.0315 0.111 -0.675 -0.729 126 119 109
48.9986 22.6939 79.1721 0.534 -0.557 -0.636 116 123 105
49.1315 22.7001 79.2679 0.561 -0.550 -0.619 119 126 108
49.3901 22.7508 79.5491 0.541 -0.668 -0.510 121 131 111
49.5176 22.7872 79.7160 0.663 -0.499 -0.557 124 136 120
50.0403 22.8851 80.2735 0.493 -0.213 -0.843 127 143 130
50.1409 23.0849 80.8255 0.342 -0.525 -0.779 132 148 135
50.2827 23.0541 80.8359 0.397 -0.613 -0.683 137 155 143
50.4190 23.0559 80.9229 0.343 -0.621 -0.705 142 158 147
50.5526 23.0741 81.0485 0.194 -0.336 -0.922 145 161 151
50.6925 23.0544 81.0851 0.194 -0.336 -0.922 146 159 152
60.0621 24.3709 90.0023 0.414 -0.647 -0.641 164 188 197
60.4168 24.8335 91.3538 0.550 0.607 -0.574 147 169 180
61.3727 25.1765 92.7763 0.432 0.571 -0.698 46 65 62
61.6810 25.1974 93.0147 0.505 0.514 -0.693 48 65 59
62.4352 24.3145 91.3034 -0.093 -0.621 -0.778 31 47 41
62.9106 24.4475 91.9184 -0.231 0.273 -0.934 84 95 91
-19.8143 34.5332 66.0335 -0.550 -0.210 -0.808 50 64 59
-18.5912 34.0593 65.6159 -0.006 -0.164 -0.986 45 59 44
-18.3818 34.0186 65.6433 0.296 0.109 -0.949 44 58 41
-18.3820 34.1031 65.8497 -0.161 0.082 -0.984 56 69 52
-18.1789 34.0662 65.8823 0.312 0.218 -0.925 55 67 53
-17.9657 34.0231 65.9062 0.364 0.233 -0.902 56 68 54
-17.7753 33.9936 65.9494 0.344 0.233 -0.910 61 69 58
-12.3738 31.7993 63.8574 0.424 -0.175 -0.888 75 77 72
-12.3755 31.8840 64.0633 0.255 -0.233 -0.938 76 78 73
-6.3868 29.7851 62.5602 0.177 0.022 -0.984 56 55 51
-6.2631 29.7894 62.6457 0.160 -0.150 -0.976 61 60 56
-3.8810 29.1668 62.5665 -0.028 -0.500 -0.865 69 68 64
-3.3845 29.0090 62.4816 -0.027 -0.186 -0.982 69 70 65
4.0550 26.9365 61.9215 0.360 -0.329 -0.873 98 95 90
12.6021 24.8144 61.9112 0.183 -0.255 -0.949 86 75 71
12.7439 24.7972 61.9549 0.442 -0.150 -0.884 77 68 63
12.8473 24.8113 62.0520 0.406 -0.193 -0.893 73 64 59
13.0042 24.7817 62.0748 0.279 -0.130 -0.952 75 68 62
13.1827 24.7343 62.0671 0.208 -0.201 -0.957 93 85 82
13.3491 24.6967 62.0760 0.129 -0.379 -0.916 93 85 81
13.4398 24.7213 62.1910 0.091 0.030 -0.995 77 70 64
13.9440 24.6034 62.2082 0.269 -0.183 -0.946 75 68 62
15.2967 24.3768 62.4735 0.354 -0.138 -0.925 96 87 82
16.9904 24.0540 62.7103 0.173 -0.218 -0.960 112 102 93
18.3450 23.8072 62.9274 0.179 -0.396 -0.900 155 143 131
19.6047 23.4175 62.7379 0.247 -0.438 -0.864 126 112 101
20.9177 23.4162 63.5299 0.336 -0.020 -0.942 143 126 116
23.4156 23.0741 64.2065 0.272 -0.472 -0.839 173 154 147
23.5511 23.0577 64.2487 0.232 -0.456 -0.859 147 130 122
23.6855 23.0426 64.2930 0.232 -0.456 -0.859 136 119 111
23.8410 23.0054 64.2964 0.313 -0.329 -0.891 163 146 138
23.9758 22.9897 64.3396 0.299 -0.315 -0.901 168 151 143
24.6912 22.8662 64.4710 0.497 -0.292 -0.817 159 142 134
25.0809 22.8332 64.6264 0.213 -0.199 -0.957 136 122 113
25.8754 22.7504 64.9051 0.203 -0.272 -0.940 119 106 97
26.1626 22.6977 64.9503 0.352 -0.369 -0.860 139 126 118
26.2951 22.6835 64.9959 0.295 -0.409 -0.864 148 135 127
28.4146 22.4521 65.7138 0.276 -0.414 -0.867 139 121 107
28.5486 22.4354 65.7541 0.359 -0.383 -0.851 135 117 103
29.0643 22.3929 65.9626 0.223 -0.525 -0.822 98 80 66
30.7795 22.2032 66.5377 0.234 -0.250 -0.939 154 139 132
34.0015 22.1044 68.2476 0.424 -0.579 -0.696 150 140 131
34.3791 22.0871 68.4341 0.378 -0.343 -0.860 131 118 109
36.8459 22.0696 69.8854 0.345 -0.683 -0.643 121 112 105
36.9709 22.0672 69.9551 0.345 -0.683 -0.643 121 112 105
39.9975 22.2427 72.2170 0.705 -0.002 -0.709 132 121 115
40.1058 22.2794 72.3725 0.670 -0.237 -0.704 128 118 109
40.2055 22.3347 72.5679 0.162 -0.704 -0.692 128 118 109
40.7901 22.1691 72.5173 0.316 -0.439 -0.841 113 103 94
40.9265 22.1475 72.5471 0.357 -0.415 -0.837 119 109 100
42.9612 22.1381 73.7563 0.298 -0.672 -0.678 92 81 79
43.0912 22.1318 73.8198 0.298 -0.672 -0.678 93 84 79
43.2162 22.1385 73.9117 0.079 -0.596 -0.799 98 89 84
43.3525 22.1165 73.9406 0.073 -0.589 -0.805 102 93 88
44.1469 22.0428 74.2414 0.609 -0.386 -0.693 126 117 110
44.2779 22.0342 74.2999 0.597 -0.396 -0.697 113 104 97
45.0351 22.8477 76.7468 0.816 -0.568 0.107 111 107 95
46.0762 22.4614 76.4332 0.342 -0.463 -0.818 123 116 106
46.2094 22.4532 76.4938 0.322 -0.452 -0.832 124 117 107
46.3499 22.4206 76.4992 0.057 -0.468 -0.882 129 122 112
46.4879 22.3958 76.5222 0.122 -0.295 -0.948 130 123 113
46.6252 22.3734 76.5504 -0.120 -0.179 -0.976 130 123 113
47.5247 22.4425 77.2641 0.175 0.836 -0.520 130 126 117
49.0203 22.8695 79.2137 0.517 -0.677 -0.524 118 125 107
49.5439 22.9434 79.7115 0.457 -0.793 -0.403 119 132 115
50.4513 23.1819 80.8440 0.333 -0.627 -0.704 137 153 142
50.5874 23.1846 80.9329 0.128 -0.410 -0.903 135 151 141
51.7760 23.5419 82.5261 0.302 -0.767 -0.566 141 157 154
52.3722 23.1716 81.9821 0.747 -0.176 -0.641 142 159 153
52.6906 22.7420 81.1249 0.416 0.183 -0.891 143 160 154
55.2827 23.1789 83.7627 -0.018 -0.443 -0.896 26 38 34
57.9720 23.5521 86.3037 -0.217 -0.531 -0.819 123 144 145
58.0978 23.2796 85.7138 0.284 -0.779 -0.559 116 137 138
60.4736 25.1783 91.7934 0.553 0.604 -0.574 174 197 204
61.7338 25.4750 93.2818 0.544 0.191 -0.817 42 62 56
61.9939 25.1987 92.7641 -0.064 0.611 -0.789 60 81 70
62.3380 24.5748 91.4474 0.532 -0.621 -0.575 21 42 35
62.4663 24.4583 91.2404 -0.100 -0.612 -0.785 21 42 34
63.1179 24.7190 92.2723 0.532 0.509 -0.677 88 93 90
63.7405 20.0237 81.1730 0.567 -0.824 0.008 99 96 80
63.8484 19.9311 81.0121 0.374 -0.890 -0.261 98 95 80
64.4393 19.6908 80.7825 -0.347 -0.375 -0.860 94 99 88
-20.0328 34.8495 66.1927 -0.492 -0.557 -0.669 55 71 65
-18.5695 34.2310 65.5733 -0.009 -0.164 -0.986 51 68 53
-18.2982 34.1531 65.5479 0.034 -0.341 -0.939 51 65 48
-17.9188 34.0947 65.6353 -0.086 -0.268 -0.960 54 67 50
-17.6943 34.0444 65.6487 -0.057 -0.489 -0.870 57 69 55
-17.4218 33.9650 65.6204 -0.009 -0.366 -0.931 68 76 65
-17.2383 33.9392 65.6685 -0.035 -0.333 -0.942 68 76 65
-14.4262 32.6519 64.2383 0.170 0.076 -0.982 86 95 78
-12.3585 32.0507 64.0266 0.255 -0.233 -0.938 68 73 67
-11.9274 31.9513 64.0457 -0.038 0.153 -0.988 70 75 69
-10.2918 31.2650 63.3657 -0.196 -0.743 -0.640 55 57 54
-8.3873 30.7335 63.2246 -0.453 0.125 -0.883 61 62 57
-6.5621 30.0686 62.7114 0.066 -0.213 -0.975 52 51 47
-6.3717 30.0301 62.7328 0.066 -0.213 -0.975 58 57 53
-5.2936 29.7531 62.7110 -0.025 -0.597 -0.802 84 83 79
-5.0911 29.7057 62.7182 -0.016 -0.589 -0.808 64 63 59
4.0820 27.0796 61.8787 0.360 -0.329 -0.873 80 77 72
8.7570 25.8981 61.8324 0.234 -0.502 -0.832 78 68 66
12.8908 24.9340 61.9873 0.437 -0.167 -0.884 70 61 56
13.0156 24.9307 62.0547 0.275 -0.144 -0.951 81 74 68
13.1991 24.8791 62.0402 0.208 -0.201 -0.957 94 87 81
13.3510 24.8533 62.0693 0.234 -0.197 -0.952 89 82 76
14.2164 24.6345 62.0605 0.411 -0.210 -0.887 81 73 70
14.4158 24.6693 62.2657 0.179 -0.363 -0.915 83 75 72
17.0044 24.1997 62.6890 0.186 -0.215 -0.959 119 109 100
19.6288 23.5521 62.7011 0.214 -0.458 -0.863 132 118 107
23.4486 23.1997 64.1538 0.396 -0.510 -0.763 129 112 104
23.5823 23.1852 64.1995 0.277 -0.467 -0.840 166 149 141
23.7137 23.1731 64.2496 0.277 -0.467 -0.840 176 159 151
23.8664 23.1388 64.2583 0.284 -0.443 -0.851 175 158 150
24.5563 23.0426 64.4415 0.297 -0.253 -0.921 125 108 100
24.6926 23.0248 64.4809 0.294 -0.259 -0.920 130 113 105
25.0962 22.9771 64.6090 0.300 -0.407 -0.863 121 107 98
25.4768 22.9541 64.7832 0.201 -0.334 -0.921 122 109 100
26.3141 22.8235 64.9717 0.276 -0.356 -0.893 131 118 110
27.9279 22.6227 65.4592 0.487 -0.250 -0.837 138 124 115
28.3230 22.5810 65.5969 0.373 -0.329 -0.868 157 139 128
28.4496 22.5731 65.6543 0.373 -0.329 -0.868 150 132 118
29.1915 22.5482 66.0422 0.441 -0.439 -0.783 106 88 76
29.5711 22.5256 66.2169 0.268 -0.376 -0.887 111 94 86
30.8025 22.3389 66.5073 0.234 -0.250 -0.939 106 91 84
33.3420 22.3478 68.0647 0.323 -0.518 -0.792 143 131 123
34.0365 22.2240 68.1836 0.444 -0.528 -0.724 124 114 105
34.4026 22.2239 68.4047 0.385 -0.342 -0.857 127 114 105
34.5771 22.5192 69.2283 -0.192 0.324 -0.926 123 110 101
39.2419 22.1863 71.2398 0.254 -0.614 -0.747 122 111 105
39.4594 22.2503 71.5270 0.529 -0.464 -0.710 117 108 103
40.1457 22.3887 72.2784 0.670 0.011 -0.742 120 109 103
40.2528 22.4288 72.4407 0.181 -0.928 -0.326 120 110 101
40.7036 22.2775 72.3453 0.436 -0.329 -0.838 118 108 99
41.5928 22.2682 72.8605 0.329 -0.206 -0.922 80 69 63
42.9678 22.0089 73.0612 0.281 -0.761 -0.585 94 83 81
43.5141 22.2357 73.9432 0.089 -0.605 -0.791 104 95 90
46.2443 22.5689 76.4047 0.396 -0.433 -0.810 112 105 95
49.5927 22.9828 79.4361 0.465 -0.841 -0.276 117 129 112
50.4797 23.3317 80.8210 0.240 -0.413 -0.879 126 142 131
50.9556 22.8977 80.0531 0.738 -0.454 -0.500 125 138 129
51.3345 23.0896 80.7491 0.696 -0.300 -0.652 135 148 141
52.7150 22.9355 81.2092 0.066 -0.024 -0.998 150 167 161
53.7573 23.7125 83.7290 0.795 0.374 -0.477 97 118 109
54.7357 23.8554 84.6682 0.512 -0.597 -0.617 38 53 46
55.5895 23.5522 84.4471 0.064 -0.045 -0.997 32 44 42
57.1715 24.4050 87.4777 0.659 -0.752 -0.023 115 137 135
59.0448 24.1487 87.9874 0.110 -0.955 -0.274 111 131 131
60.8361 25.5326 92.4363 0.541 0.532 -0.651 189 213 219
61.0167 25.7364 93.0409 0.361 -0.487 -0.795 150 174 182
61.1702 25.7377 93.1371 0.376 -0.477 -0.794 112 136 146
61.3267 25.7594 93.2845 0.245 -0.167 -0.955 67 91 100
61.6366 25.7761 93.5125 0.669 0.304 -0.678 41 65 64
68.3402 28.2407 103.5600 0.910 0.082 -0.407 80 86 74
-19.3722 34.7270 65.8175 -0.351 -0.034 -0.936 46 62 53
-18.5431 34.3999 65.5267 -0.059 -0.260 -0.964 56 72 58
-18.2294 34.2962 65.4652 0.019 -0.346 -0.938 59 73 56
-17.7103 34.2384 65.6387 -0.137 -0.616 -0.776 58 70 54
-17.4747 34.1812 65.6424 -0.137 -0.616 -0.776 65 74 62
-17.3020 34.1619 65.7001 -0.029 -0.822 -0.568 69 77 66
-16.9735 34.0479 65.6225 -0.320 -0.570 -0.757 68 76 65
-10.9147 31.7476 63.7143 -0.347 0.011 -0.938 60 62 61
-6.5152 30.2943 62.8538 0.130 -0.880 -0.457 65 64 60
-2.8840 28.8405 61.5284 0.242 -0.464 -0.852 68 69 64
2.5443 27.4506 61.4423 0.397 0.081 -0.914 76 75 71
9.0403 25.9339 61.6944 -0.068 -0.644 -0.762 62 54 51
9.6544 25.8362 61.8289 0.282 -0.546 -0.789 56 51 48
11.6243 25.5313 62.2803 0.341 -0.250 -0.906 93 84 79
13.2714 24.9776 61.9350 0.052 -0.481 -0.875 96 89 81
13.4323 24.9442 61.9514 0.175 -0.666 -0.725 81 74 66
13.8681 24.8825 62.0651 0.088 -0.470 -0.879 97 90 84
14.4191 24.8249 62.2582 0.173 -0.426 -0.888 79 72 66
14.6926 24.9006 62.6067 0.360 -0.589 -0.723 101 94 89
14.9909 24.7489 62.4197 0.352 -0.501 -0.791 101 94 88
16.5724 24.4212 62.5816 0.118 -0.228 -0.966 118 109 100
16.8953 24.3481 62.5997 0.080 -0.209 -0.975 124 115 106
17.0182 24.3457 62.6680 0.214 -0.144 -0.966 124 114 105
18.4861 24.1042 62.9700 0.255 -0.441 -0.861 110 96 85
18.5691 24.1384 63.1028 0.292 -0.370 -0.882 103 89 78
18.7237 24.1066 63.1193 0.248 -0.435 -0.866 130 116 105
20.5134 23.7770 63.4022 0.288 -0.289 -0.913 148 136 124
21.5905 23.5439 63.4886 0.156 -0.640 -0.752 104 87 77
24.7439 23.1302 64.3914 0.283 -0.384 -0.879 99 82 74
24.8821 23.1103 64.4268 0.300 -0.385 -0.873 94 77 69
25.0040 23.1079 64.4946 0.247 -0.414 -0.876 88 71 63
25.1272 23.1042 64.5598 0.300 -0.407 -0.863 106 92 83
26.5857 22.9492 65.0654 0.280 -0.404 -0.871 155 142 134
26.8706 22.8981 65.1138 0.169 -0.367 -0.915 140 127 119
27.7138 22.7549 65.2763 0.129 -0.315 -0.940 143 129 120
28.4771 22.7032 65.6123 0.486 -0.436 -0.758 160 142 128
29.1031 22.6730 65.9169 0.133 -0.483 -0.865 138 120 106
30.8124 22.4916 66.5101 0.418 -0.198 -0.887 85 70 63
34.6283 22.4257 68.6548 0.703 -0.355 -0.616 133 120 111
36.5903 22.2328 69.3725 0.289 -0.350 -0.891 71 62 55
38.6813 22.2521 70.6818 0.315 -0.543 -0.778 102 89 83
38.7225 22.4099 71.0884 0.336 -0.215 -0.917 102 89 83
39.1519 22.3048 71.0935 0.256 -0.550 -0.795 99 88 82
39.2690 22.3199 71.2008 0.597 -0.313 -0.738 122 111 105
39.3855 22.3368 71.3118 0.605 -0.323 -0.728 126 117 111
39.8134 22.4851 71.9291 0.831 -0.027 -0.555 82 73 66
39.9245 22.5154 72.0696 0.718 0.144 -0.681 78 69 62
40.3102 22.5009 72.2675 0.181 -0.928 -0.326 107 97 88
40.7408 22.3909 72.2611 0.343 -0.545 -0.765 120 110 101
40.8613 22.4031 72.3635 0.541 -0.370 -0.755 114 104 95
42.4853 22.1543 72.7418 -0.010 -0.354 -0.935 106 95 91
42.6050 22.1702 72.8526 0.291 -0.393 -0.872 106 95 93
43.2121 22.2355 73.3772 0.594 0.015 -0.804 84 75 70
45.3706 22.6704 75.7329 0.478 -0.514 -0.712 112 105 95
45.4908 22.7017 75.8813 0.431 -0.501 -0.750 108 101 91
47.2558 22.4608 76.3641 0.187 -0.048 -0.981 129 125 116
49.2047 23.1917 79.3094 0.237 -0.625 -0.744 119 123 108
51.8116 24.0333 82.9201 0.551 -0.674 -0.493 139 154 149
52.7439 23.0839 81.1855 -0.060 -0.232 -0.971 147 163 160
53.7806 23.9689 83.9531 0.836 0.284 -0.468 119 138 132
54.9087 23.9787 84.6580 0.481 -0.796 -0.369 31 48 40
58.4768 24.0361 86.9512 0.231 0.130 -0.964 105 125 123
60.5912 25.8959 92.7285 0.333 -0.403 -0.852 162 183 183
60.7435 25.8911 92.8087 0.448 -0.415 -0.792 167 189 190
60.8964 25.8891 92.8963 0.448 -0.415 -0.792 160 187 187
61.0533 25.9159 93.0557 0.334 -0.256 -0.907 156 184 187
61.2112 25.9477 93.2282 0.179 -0.040 -0.983 155 184 191
61.3664 25.9580 93.3466 0.223 -0.152 -0.963 123 151 160
61.6241 25.6384 92.7290 0.029 0.298 -0.954 61 86 88
61.7813 25.6672 92.8934 0.017 0.240 -0.971 52 78 74
-18.5457 34.5864 65.5047 0.295 0.139 -0.945 57 71 56
-18.2825 34.5984 65.6924 -0.383 -0.364 -0.849 56 71 52
-17.9416 34.4776 65.6070 -0.318 -0.350 -0.881 56 70 53
-17.6609 34.3930 65.5724 -0.223 -0.363 -0.905 55 69 52
-17.4419 34.3456 65.5904 -0.215 -0.569 -0.794 48 57 44
-17.2163 34.2941 65.6024 -0.319 -0.601 -0.733 59 67 56
-16.8056 34.1293 65.4532 -0.327 -0.635 -0.700 63 71 60
-15.6512 33.5085 64.6543 -0.313 -0.014 -0.950 63 71 60
-11.9246 32.3041 64.0009 0.068 -0.516 -0.854 61 66 60
-11.4928 32.2032 64.0184 0.268 -0.253 -0.930 62 64 61
-10.3074 31.7095 63.5442 0.252 0.185 -0.950 70 72 68
-7.4255 30.7153 62.8877 -0.487 -0.186 -0.853 73 74 69
-7.1724 30.6366 62.8509 -0.373 -0.293 -0.880 72 73 68
-2.8394 28.9770 61.4668 0.242 -0.464 -0.852 69 70 65
-2.7958 29.0331 61.6284 0.124 -0.423 -0.897 69 70 65
2.2284 27.8379 61.7793 0.327 -0.050 -0.944 83 82 78
4.1934 27.3242 61.7271 0.073 -0.383 -0.921 76 73 66
7.0317 26.6912 61.9141 0.207 -0.526 -0.825 100 100 92
7.3893 26.6073 61.9276 0.354 -0.433 -0.829 87 87 79
9.5787 25.9597 61.6883 0.235 -0.474 -0.848 79 74 70
12.8683 25.1699 61.7696 0.111 -0.373 -0.921 105 100 94
13.5767 25.0828 61.9869 0.107 -0.513 -0.852 94 87 77
17.3857 24.4984 62.8763 0.054 0.326 -0.944 128 118 108
18.6506 24.2218 62.9728 0.304 -0.487 -0.819 118 107 95
20.3851 23.9440 63.3494 0.389 -0.231 -0.892 134 124 114
20.5175 23.9319 63.4002 0.397 -0.242 -0.885 113 100 91
24.7611 23.2720 64.3698 0.168 -0.446 -0.879 93 79 70
25.6454 23.2230 64.7847 0.124 -0.359 -0.925 127 114 105
26.6406 23.0486 64.9648 0.217 -0.420 -0.881 150 137 128
26.9142 23.0101 65.0369 0.376 -0.302 -0.876 128 115 106
28.5964 22.8677 65.7084 0.554 -0.127 -0.823 130 112 98
34.6768 22.7148 69.0060 -0.172 -0.661 -0.731 151 138 129
35.6170 22.5928 69.2790 0.222 0.100 -0.970 112 99 93
37.1819 22.4544 69.8892 0.624 -0.512 -0.590 147 138 129
37.2931 22.4764 70.0091 0.509 -0.462 -0.726 146 137 128
37.8450 22.3757 70.0993 0.574 -0.177 -0.800 74 64 55
39.1872 22.4226 71.0214 0.648 -0.450 -0.614 112 102 93
41.8826 22.2879 72.3221 0.456 -0.492 -0.742 109 99 90
43.0991 22.7308 74.1219 -0.281 -0.239 -0.929 79 70 65
43.7399 22.3928 73.6944 0.162 -0.980 -0.119 90 81 76
46.0014 22.9717 76.4519 0.685 0.130 -0.717 96 89 81
46.1337 22.9681 76.5229 0.677 0.136 -0.723 95 88 80
46.2731 22.9400 76.5394 0.448 0.192 -0.873 96 89 81
46.8025 22.9263 76.8254 0.043 -0.162 -0.986 138 131 123
47.2925 22.5662 76.2537 0.211 0.057 -0.976 131 127 118
47.2690 23.1568 77.6619 0.752 0.050 -0.657 130 126 117
47.3997 23.1651 77.7606 0.727 0.018 -0.686 132 125 117
47.5386 23.1411 77.7865 0.665 -0.209 -0.717 129 125 116
47.6869 23.0789 77.7261 0.693 -0.580 -0.428 129 127 115
50.0605 23.2349 79.5328 0.610 -0.029 -0.792 111 123 106
50.3164 23.3167 79.8839 0.368 -0.624 -0.689 112 123 107
50.4499 23.3282 79.9921 0.373 -0.614 -0.695 113 125 111
51.7697 23.6360 81.5290 0.740 0.439 -0.509 126 141 135
51.9363 23.3938 81.0462 0.814 -0.340 -0.471 135 148 141
52.0685 23.4325 81.2192 0.671 -0.492 -0.555 142 155 148
53.0483 23.2048 81.2615 0.584 -0.063 -0.809 139 155 152
53.1832 23.2250 81.3916 0.576 -0.051 -0.816 139 155 152
55.6462 24.2825 85.4227 -0.247 0.303 -0.920 34 49 46
58.3906 24.5687 87.7665 0.379 0.119 -0.918 107 127 126
58.5077 24.1789 86.8986 0.248 0.111 -0.962 105 125 124
60.6182 26.0031 92.5634 0.675 0.151 -0.722 149 171 169
60.7777 26.0537 92.7813 0.632 0.206 -0.747 161 183 184
60.9332 26.0714 92.9176 0.632 0.206 -0.747 167 194 196
61.0890 26.0891 93.0541 0.632 0.206 -0.747 171 199 202
61.2427 26.0911 93.1516 0.628 0.163 -0.761 177 205 209
62.7616 25.9766 93.7917 0.364 0.721 -0.590 27 59 49
63.2077 25.8940 93.8619 0.688 0.565 -0.455 75 84 79
64.5182 20.0630 80.6114 -0.013 -0.932 -0.362 81 89 77
-18.7059 34.7827 65.4110 0.074 -0.628 -0.775 39 52 42
-18.3094 34.7140 65.4851 -0.204 -0.219 -0.954 42 56 39
-17.8508 34.6072 65.5052 -0.281 -0.409 -0.868 49 63 46
-15.6237 33.6729 64.6074 -0.260 0.066 -0.963 69 77 66
-14.6904 33.3534 64.4037 0.227 0.121 -0.966 58 67 50
-11.8482 32.4334 63.9103 -0.047 -0.732 -0.680 68 72 66
-11.2613 32.3198 63.9914 0.331 -0.632 -0.701 74 76 75
-10.9382 32.2007 63.9005 0.240 -0.611 -0.754 78 80 79
-10.8427 32.2261 64.0189 -0.323 -0.502 -0.802 80 80 77
-10.1503 31.8706 63.5839 0.319 0.155 -0.935 64 65 59
-9.1646 31.5827 63.4876 -0.172 0.176 -0.969 69 70 64
-3.1568 29.4427 61.9767 0.563 -0.439 -0.700 75 76 71
-2.2717 29.2784 62.1157 -0.071 -0.587 -0.806 95 96 91
2.2939 27.9551 61.6936 0.488 0.045 -0.872 68 67 63
2.9985 27.8097 61.7693 0.258 0.261 -0.930 53 52 47
7.4258 26.7409 61.8735 0.354 -0.433 -0.829 109 109 101
9.5738 26.1234 61.6870 0.076 -0.337 -0.938 48 43 39
9.7658 26.0684 61.6708 -0.093 -0.365 -0.926 56 51 47
13.9099 25.1641 61.9989 0.340 -0.601 -0.723 92 86 74
14.4402 25.1241 62.2223 0.280 -0.361 -0.890 118 112 100
16.0138 24.8060 62.4074 0.451 -0.273 -0.850 110 106 95
18.6414 24.3891 62.9902 0.404 0.086 -0.911 112 104 91
24.7956 23.3953 64.3138 0.168 -0.446 -0.879 103 90 81
25.4342 23.3524 64.5953 0.193 -0.488 -0.851 134 121 111
26.5546 23.1718 64.8370 0.379 -0.484 -0.789 147 134 125
26.6725 23.1741 64.9134 0.308 -0.452 -0.837 143 130 121
26.9108 23.1760 65.0616 0.474 -0.340 -0.812 120 107 98
27.0334 23.1732 65.1286 0.181 -0.385 -0.905 124 111 102
34.5142 22.7599 68.6416 0.376 -0.057 -0.925 131 118 110
35.3794 22.7544 69.1492 0.170 -0.477 -0.863 123 113 104
35.5197 22.7271 69.1683 0.103 -0.357 -0.928 124 114 105
35.6506 22.7149 69.2178 0.018 -0.470 -0.883 116 106 97
37.2279 22.5538 69.7813 0.547 -0.413 -0.728 160 154 143
39.6503 22.6852 71.5545 0.734 -0.367 -0.571 112 106 93
42.1848 22.9753 73.7752 0.866 -0.491 -0.098 98 87 83
44.1918 22.7695 74.4903 0.413 -0.484 -0.771 91 82 75
44.3073 22.8072 74.6501 0.437 -0.440 -0.785 92 83 77
44.4303 22.8241 74.7647 0.464 -0.412 -0.784 94 85 80
46.1574 23.1223 76.5189 0.713 0.102 -0.694 101 94 86
46.2956 23.0990 76.5461 0.629 0.147 -0.764 101 92 85
47.4653 23.1598 77.3959 0.724 0.197 -0.661 127 120 112
47.7167 23.2139 77.6769 0.683 0.215 -0.698 125 123 111
47.8450 23.2321 77.7978 0.539 0.329 -0.775 120 121 107
47.9613 23.3016 78.0343 -0.199 -0.270 -0.942 120 123 106
49.0158 23.3670 78.8259 -0.419 -0.658 -0.625 121 125 110
49.8314 23.3154 79.1930 0.887 -0.418 -0.196 104 114 100
50.0843 23.4067 79.5641 0.668 -0.022 -0.744 106 117 101
52.0983 23.5735 81.1761 0.672 -0.495 -0.551 143 154 148
55.6767 24.4830 85.5093 -0.480 0.187 -0.857 34 49 46
57.9827 24.6564 87.3130 0.027 -0.372 -0.928 129 151 149
58.5426 24.3747 86.9750 0.272 0.352 -0.896 105 125 126
60.4813 26.0180 92.0795 0.868 -0.268 -0.418 122 144 142
60.8057 26.1697 92.6384 0.829 -0.178 -0.531 133 155 157
60.9668 26.2294 92.8783 0.671 0.062 -0.739 156 181 187
61.1239 26.2565 93.0378 0.664 0.048 -0.746 159 187 191
61.2828 26.2936 93.2224 0.658 0.135 -0.741 163 191 194
65.7211 23.8697 90.0863 0.936 -0.352 -0.014 80 97 88
67.5558 27.4724 99.8230 0.902 -0.430 -0.035 92 104 88
68.0646 28.5903 102.8076 0.959 -0.211 -0.190 85 95 84
68.2693 28.7086 103.2145 0.945 -0.285 -0.159 80 87 80
-18.8093 35.1169 65.6798 -0.315 -0.145 -0.938 30 43 32
-15.1191 33.7139 64.5529 -0.285 -0.340 -0.896 75 83 70
-11.4112 32.4199 63.6965 0.432 -0.413 -0.802 85 87 84
-11.2710 32.4169 63.7736 0.432 -0.413 -0.802 83 86 83
-9.8733 32.1284 63.9259 -0.229 -0.815 -0.533 71 72 66
-3.1058 29.5761 61.9085 0.528 -0.439 -0.727 83 84 79
2.3557 28.0748 61.6120 0.349 -0.089 -0.933 56 55 51
4.0178 27.5960 61.4694 0.476 -0.059 -0.877 95 92 85
4.1562 27.5858 61.5283 0.488 -0.068 -0.870 64 64 56
13.9569 25.2829 61.9288 0.284 -0.627 -0.726 81 75 63
14.4252 25.2959 62.2412 0.261 -0.460 -0.849 101 93 80
18.0481 24.4309 62.3565 0.527 -0.370 -0.765 128 120 109
18.5399 24.5306 62.8898 0.310 -0.405 -0.860 124 116 105
18.6842 24.5082 62.9231 0.297 -0.232 -0.926 122 116 102
20.5739 24.1956 63.3136 0.368 -0.163 -0.916 135 126 117
23.8436 23.6771 64.0429 0.257 -0.442 -0.859 117 104 95
23.9869 23.6523 64.0697 0.336 -0.449 -0.828 126 113 104
24.9663 23.5007 64.2970 0.371 -0.346 -0.862 134 125 114
25.0875 23.4992 64.3663 0.278 -0.387 -0.879 133 124 114
25.4705 23.4735 64.5352 0.234 -0.467 -0.853 174 162 149
26.9584 23.2832 64.9760 0.491 -0.284 -0.823 124 110 99
27.0658 23.2980 65.0758 0.194 -0.352 -0.916 129 115 104
29.9049 23.0695 66.2376 0.570 -0.253 -0.782 90 75 68
30.0215 23.0750 66.3208 0.570 -0.253 -0.782 104 89 82
32.4063 22.8002 67.0990 0.306 -0.293 -0.906 120 107 98
32.5365 22.7876 67.1471 0.306 -0.293 -0.906 147 136 127
35.1516 22.7048 68.5216 0.379 -0.416 -0.827 110 97 92
35.4219 22.8623 69.0595 0.150 -0.491 -0.858 86 79 68
35.6801 22.8434 69.1698 0.134 -0.487 -0.863 124 116 105
35.8025 22.8451 69.2473 0.155 -0.427 -0.891 120 111 102
36.6704 22.6303 69.2569 0.336 -0.425 -0.840 101 100 81
37.0075 22.6868 69.5943 0.695 0.020 -0.718 119 119 100
37.1480 22.6571 69.6079 0.667 -0.385 -0.638 95 95 78
37.2600 22.6775 69.7237 0.405 -0.452 -0.795 110 108 92
37.3698 22.7021 69.8484 0.213 -0.145 -0.966 115 108 93
37.8975 22.6437 70.0265 0.124 -0.442 -0.889 104 88 78
41.6819 22.8560 72.8074 0.281 -0.214 -0.936 102 92 83
41.8172 22.8366 72.8425 0.258 -0.188 -0.948 105 95 86
41.9625 22.7935 72.8270 0.284 -0.168 -0.944 105 95 86
44.5805 22.9808 74.8472 0.430 -0.179 -0.885 93 84 79
44.7094 22.9819 74.9273 0.496 -0.212 -0.842 96 87 82
44.8318 23.0028 75.0507 0.577 -0.443 -0.686 95 86 79
45.7629 22.9293 75.4351 0.029 -0.618 -0.786 107 100 92
46.2952 23.3374 76.7280 0.344 0.138 -0.929 100 93 87
46.5687 23.3024 76.8090 -0.168 -0.332 -0.928 102 94 91
46.7119 23.2610 76.7963 -0.110 -0.509 -0.854 103 96 90
47.0048 23.1518 76.7121 0.385 0.157 -0.910 114 110 101
48.0212 23.3104 77.7012 -0.469 -0.681 -0.562 120 123 106
49.0288 23.5857 78.9631 0.463 -0.641 -0.612 122 126 112
50.1110 23.5623 79.5579 0.659 -0.007 -0.752 115 126 110
50.2453 23.5666 79.6488 0.604 -0.063 -0.794 123 134 118
50.3792 23.5745 79.7482 0.586 -0.331 -0.739 115 123 108
51.8157 24.0339 81.7069 0.656 0.248 -0.713 116 129 122
53.7616 23.9436 82.6612 0.790 -0.155 -0.593 144 163 157
54.1618 24.2574 83.6498 0.916 -0.138 -0.377 140 159 153
58.5087 25.6544 89.5935 0.939 -0.222 -0.263 93 113 112
58.6613 25.7064 89.8091 0.924 -0.275 -0.265 102 122 123
60.3326 25.9241 91.3327 0.708 -0.270 -0.652 110 135 132
60.5098 26.1357 91.9439 0.888 -0.182 -0.421 115 136 137
60.8322 26.2744 92.4683 0.874 -0.223 -0.432 116 136 138
60.9945 26.3445 92.7331 0.801 -0.213 -0.559 120 145 149
61.1525 26.3792 92.9108 0.790 -0.163 -0.591 137 165 169
61.3115 26.4175 93.0975 0.786 -0.166 -0.595 157 185 188
61.4166 26.0907 92.3816 0.666 -0.349 -0.659 165 195 197
65.8923 24.5083 91.2990 0.846 -0.533 0.023 81 95 84
67.7199 28.0579 100.8606 0.972 -0.157 -0.175 88 96 85
68.3180 28.9161 103.2662 0.980 -0.046 -0.195 77 85 72
-18.6675 35.1298 65.3298 -0.138 -0.457 -0.878 69 81 77
-18.3088 35.0840 65.4363 -0.295 -0.297 -0.908 55 68 60
-17.9872 34.9738 65.3680 -0.293 -0.300 -0.908 46 59 50
-15.8082 34.2370 64.9277 -0.181 0.091 -0.979 74 85 71
-11.3717 32.5717 63.6395 0.432 -0.413 -0.802 94 99 95
-11.2315 32.5687 63.7166 0.432 -0.413 -0.802 93 99 95
-10.4720 32.2557 63.4298 0.293 0.103 -0.951 89 95 91
-8.9558 31.7972 63.2519 -0.105 0.030 -0.994 69 70 64
4.0353 27.6547 61.2211 0.375 -0.168 -0.912 61 56 50
4.0513 27.7341 61.4191 0.405 -0.293 -0.866 77 74 67
4.1639 27.7429 61.5076 0.409 -0.289 -0.866 58 55 48
11.5171 26.0595 61.9269 0.130 -0.266 -0.955 86 83 76
14.5110 25.3811 62.1145 0.065 -0.495 -0.866 81 73 60
15.0943 25.4006 62.5107 0.378 -0.275 -0.884 131 125 111
16.8305 24.9324 62.4421 0.603 -0.268 -0.751 137 128 119
18.7912 24.5669 62.7516 0.190 -0.361 -0.913 123 117 103
18.9172 24.5612 62.8139 0.314 -0.422 -0.850 129 123 109
19.0733 24.5273 62.8270 0.339 -0.371 -0.864 135 129 115
19.8117 24.3954 62.9573 0.532 -0.112 -0.839 128 122 108
20.4566 24.3521 63.2417 0.393 -0.281 -0.876 128 119 110
23.5893 23.8528 63.9373 0.411 -0.265 -0.872 139 126 117
24.9755 23.6515 64.2915 0.391 -0.346 -0.853 125 117 106
25.2859 23.5736 64.2931 0.370 -0.465 -0.804 115 105 93
26.9816 23.4187 64.9433 0.491 -0.284 -0.823 128 114 103
27.0942 23.4276 65.0320 0.194 -0.352 -0.916 148 134 123
29.1494 23.2735 65.8999 0.149 -0.231 -0.961 163 149 138
29.9269 23.2071 66.2090 0.570 -0.253 -0.782 100 85 78
30.0436 23.2126 66.2923 0.570 -0.253 -0.782 110 95 88
31.6941 23.1151 67.0514 0.259 -0.403 -0.878 110 96 85
35.1844 22.8271 68.4630 0.368 -0.417 -0.831 91 80 74
36.6952 22.7660 69.2248 0.242 -0.521 -0.819 126 128 107
37.2913 22.8023 69.6687 0.405 -0.452 -0.795 87 86 66
44.6042 23.1302 74.8357 0.311 -0.299 -0.902 86 77 72
44.9812 23.1647 75.1440 0.590 -0.552 -0.590 88 79 72
45.1066 23.1781 75.2510 0.537 -0.548 -0.641 83 76 68
45.5162 23.1153 75.3476 0.092 -0.211 -0.973 100 93 87
45.7598 23.1684 75.6199 0.751 -0.385 -0.536 107 100 92
49.9057 23.5069 78.9113 0.843 -0.493 -0.216 130 138 123
50.4148 23.6772 79.6210 0.382 -0.552 -0.741 118 126 111
51.5835 24.0704 81.2553 0.749 -0.658 -0.077 116 127 121
53.7912 24.0957 82.6402 0.813 -0.165 -0.559 134 153 147
53.9291 24.1127 82.7634 0.802 -0.238 -0.548 144 163 157
54.0685 24.1070 82.8336 0.849 -0.045 -0.527 147 166 160
54.1939 24.3703 83.5335 0.758 -0.191 -0.623 147 166 160
54.3470 24.1032 82.9916 0.640 -0.172 -0.749 141 160 154
58.5446 25.8573 89.6726 0.937 -0.234 -0.261 78 98 97
59.3225 26.2085 90.9727 0.633 -0.767 0.106 113 134 127
59.4904 26.3869 91.4966 0.703 -0.703 0.109 113 134 129
60.4807 25.7901 90.6751 0.584 -0.183 -0.791 108 130 128
61.2784 26.1144 91.9234 0.854 -0.322 -0.408 137 165 168
65.5180 23.7342 88.8208 0.867 -0.498 -0.017 90 96 82
66.5663 25.8368 94.4384 0.978 -0.182 -0.104 101 113 102
66.9427 26.5878 96.4462 0.959 -0.255 -0.124 101 112 101
67.9688 28.3812 101.3168 0.950 -0.295 -0.105 89 95 82
-18.2355 35.2244 65.3498 -0.285 -0.299 -0.911 68 80 76
-17.9366 35.1277 65.3007 -0.293 -0.300 -0.908 68 80 75
-11.1920 32.7205 63.6597 0.432 -0.413 -0.802 79 90 84
-1.4367 29.5597 62.0438 0.093 0.030 -0.995 62 63 58
-1.2219 29.4995 62.0304 -0.041 -0.041 -0.998 62 63 58
7.2142 27.0090 61.2063 0.181 -0.360 -0.915 91 88 83
7.2912 27.0443 61.3358 0.291 -0.449 -0.845 92 91 86
7.4704 27.0011 61.3412 0.413 -0.504 -0.759 79 79 71
7.5746 27.0157 61.4381 0.386 -0.510 -0.769 107 108 100
14.0501 25.5208 61.7896 0.282 -0.533 -0.798 52 46 34
14.6054 25.4586 61.9756 0.204 -0.558 -0.804 119 111 98
19.0398 24.7181 62.8849 0.367 -0.296 -0.882 122 116 102
21.2111 24.2403 63.0582 0.239 -0.444 -0.863 117 109 98
21.3463 24.2247 63.1025 0.094 -0.452 -0.887 132 124 113
21.4759 24.2149 63.1568 0.125 -0.402 -0.907 136 128 117
21.5002 24.3107 63.3977 0.394 -0.174 -0.902 138 130 119
21.8947 24.2762 63.5527 0.484 -0.324 -0.813 123 113 101
22.2856 24.2452 63.7138 0.295 -0.122 -0.948 122 110 98
23.8114 23.9046 63.8242 0.574 -0.218 -0.789 140 127 118
23.8588 23.9821 64.0353 0.358 -0.427 -0.830 141 128 119
25.3109 23.7069 64.2560 0.417 -0.424 -0.804 108 98 86
27.1225 23.5572 64.9882 0.194 -0.352 -0.916 125 111 100
28.5979 23.3743 65.4406 0.514 -0.226 -0.828 121 107 96
28.7988 23.4240 65.6783 0.563 -0.431 -0.705 128 114 103
29.1719 23.4104 65.8698 0.140 -0.231 -0.963 121 107 96
30.4270 23.1942 66.1117 0.172 -0.290 -0.941 142 127 120
35.0552 23.0125 68.4562 0.272 -0.518 -0.811 101 90 84
35.1948 22.9854 68.4760 0.414 -0.312 -0.855 91 80 74
36.7083 22.9220 69.2334 0.248 -0.329 -0.911 136 138 116
39.6563 22.9861 71.1515 0.528 -0.240 -0.815 109 108 87
39.7590 23.0327 71.3230 0.686 -0.337 -0.645 120 118 97
40.3830 23.0423 71.7197 0.246 -0.299 -0.922 110 100 90
40.5097 23.0406 71.7916 0.248 -0.244 -0.937 109 99 89
40.6512 23.0070 71.7971 0.309 -0.252 -0.917 108 98 88
43.7320 22.9082 73.4101 0.599 -0.102 -0.794 94 85 80
43.6826 23.3928 74.5247 0.317 -0.800 -0.509 102 91 87
44.2566 22.8670 73.6274 0.341 0.095 -0.935 97 86 82
45.8922 23.3925 75.8482 0.489 -0.449 -0.748 111 104 96
50.3052 23.8408 79.5513 0.656 0.113 -0.746 128 136 121
54.6526 24.3325 83.3176 0.402 -0.520 -0.753 127 144 138
54.7925 24.3295 83.3944 0.402 -0.520 -0.753 120 137 131
54.9356 24.2254 83.2343 0.553 -0.177 -0.814 113 130 124
56.3362 24.3474 84.3618 0.149 -0.907 -0.394 34 51 41
59.7018 25.3356 88.7118 0.609 -0.763 -0.216 115 136 131
60.5607 26.3244 91.5609 0.948 0.018 -0.318 102 124 121
60.7325 26.4817 92.0352 0.946 0.025 -0.323 102 124 121
61.2198 26.6962 92.8337 0.871 -0.013 -0.490 113 138 141
61.3787 26.7337 93.0175 0.744 -0.344 -0.573 119 144 145
62.6933 27.1946 94.8934 0.823 -0.337 -0.457 180 203 214
66.9332 26.5982 96.0263 0.960 -0.255 -0.119 106 113 99
-16.8213 34.7971 64.7323 -0.161 -0.667 -0.727 65 77 74
-16.7434 34.8359 64.8701 0.116 -0.825 -0.554 67 79 68
-12.7889 33.3961 63.8542 -0.082 -0.030 -0.996 65 67 64
-11.6190 32.9105 63.4133 -0.095 -0.134 -0.987 82 86 80
-11.4149 32.8666 63.4322 -0.369 -0.091 -0.925 80 88 81
-11.1568 32.8750 63.6066 0.370 -0.372 -0.851 75 87 81
-7.5579 31.6659 62.9196 0.117 -0.625 -0.772 72 68 67
-1.0076 29.6067 62.0017 -0.265 -0.284 -0.922 42 43 38
0.5754 29.1196 61.8046 0.218 -0.236 -0.947 62 61 56
0.7386 29.0939 61.8419 0.478 -0.419 -0.772 72 71 66
1.0399 29.0603 61.9431 0.431 -0.437 -0.790 70 69 64
7.0925 27.3586 61.5674 0.378 -0.047 -0.925 87 86 81
7.6573 27.2083 61.5522 0.038 -0.478 -0.877 112 112 104
15.0627 25.5348 62.0523 0.238 -0.614 -0.753 121 113 100
15.5306 25.5491 62.3657 0.209 -0.473 -0.856 125 121 109
15.6671 25.5355 62.4155 0.187 -0.476 -0.859 123 121 108
21.2971 24.4333 63.1952 0.523 -0.373 -0.766 132 124 113
21.5142 24.4565 63.3796 0.384 -0.246 -0.890 143 135 124
23.8677 24.1335 64.0291 0.384 -0.448 -0.808 147 134 125
23.9928 24.1281 64.0915 0.384 -0.448 -0.808 150 137 128
24.1310 24.1088 64.1287 0.408 -0.233 -0.883 146 136 126
24.2606 24.0987 64.1825 0.386 -0.238 -0.891 141 131 121
25.3590 23.8145 64.1722 0.411 -0.419 -0.810 116 106 94
27.1348 23.7056 64.9790 0.147 -0.373 -0.916 129 115 104
28.8245 23.5568 65.6405 0.558 -0.425 -0.713 108 94 83
29.2064 23.5322 65.8113 0.149 -0.383 -0.912 133 119 108
29.8631 23.4654 66.0475 0.451 -0.035 -0.892 88 73 66
29.9910 23.4564 66.1028 0.498 -0.304 -0.812 85 70 63
30.2875 23.3850 66.1125 0.119 -0.288 -0.950 98 83 76
30.4438 23.3383 66.0964 0.189 -0.296 -0.936 124 109 102
31.6203 23.3867 66.9140 0.228 -0.449 -0.864 116 102 91
35.2410 23.0861 68.3746 0.389 -0.373 -0.842 96 85 79
41.7652 23.2598 72.6868 0.100 -0.299 -0.949 99 89 80
42.0417 23.2065 72.7271 0.359 -0.161 -0.919 85 75 66
42.3219 23.1429 72.7455 0.395 -0.231 -0.889 87 77 68
44.1289 23.0802 73.6796 0.292 -0.023 -0.956 80 71 66
44.2621 23.0650 73.7235 0.330 -0.013 -0.944 87 78 73
44.5254 23.4197 74.7145 0.372 -0.249 -0.894 104 95 90
45.2701 23.5240 75.4052 0.451 -0.816 -0.361 104 97 91
45.8202 23.4296 75.5124 0.712 -0.545 -0.443 107 100 92
45.9392 23.4674 75.6725 0.496 -0.657 -0.567 107 100 92
46.2606 23.7133 76.4425 0.138 -0.859 -0.494 111 104 98
47.5997 23.6361 77.0625 0.520 0.230 -0.823 95 88 80
47.9465 23.8480 77.7679 0.684 0.117 -0.720 113 114 100
48.0541 23.9585 78.0920 0.632 0.179 -0.754 112 114 100
48.1751 24.0145 78.2959 0.724 0.170 -0.669 111 114 97
49.9531 23.8477 78.9680 0.891 -0.034 -0.453 126 134 119
50.2024 23.9643 79.3913 0.672 0.042 -0.739 126 134 119
51.0082 24.0030 79.9644 0.514 0.086 -0.854 129 139 130
51.4026 24.0996 80.4274 0.678 -0.694 -0.240 128 138 129
51.6632 24.1968 80.8116 0.501 -0.831 -0.241 123 134 128
53.7190 24.2868 82.2533 0.731 0.186 -0.656 134 153 147
54.2417 24.9233 84.0614 0.512 -0.223 -0.829 148 165 159
54.3875 24.8266 83.9216 0.141 -0.188 -0.972 143 160 154
54.5453 24.4257 83.0741 0.350 -0.776 -0.524 134 150 147
59.8632 25.3235 88.3657 0.337 -0.907 -0.252 114 135 128
60.7558 26.5615 91.8084 0.941 0.045 -0.336 105 128 122
61.1022 26.8696 92.7395 0.599 -0.388 -0.701 107 132 127
61.4109 26.8820 92.9534 0.575 -0.510 -0.640 103 130 124
61.5710 26.9244 93.1489 0.375 -0.420 -0.827 102 129 123
61.7211 26.8992 93.1794 0.481 -0.496 -0.723 118 144 140
61.8909 27.0000 93.5179 0.787 -0.289 -0.544 138 162 161
62.7278 27.3567 94.8567 0.773 -0.400 -0.493 180 204 210
65.9381 24.7768 90.7167 0.979 -0.022 -0.203 105 112 96
-17.7590 35.3004 64.8963 -0.212 -0.177 -0.961 85 97 93
-17.2924 35.0985 64.7033 0.229 0.074 -0.971 94 106 102
-16.8405 34.9924 64.7252 -0.094 0.043 -0.995 86 99 93
-12.1442 33.3374 63.6623 -0.018 -0.132 -0.991 74 76 71
-11.6380 33.0998 63.4092 -0.081 -0.122 -0.989 74 77 72
-8.8941 32.2811 63.1348 -0.007 -0.592 -0.806 59 62 55
-6.5869 31.5458 62.7943 0.198 -0.654 -0.730 71 71 63
-6.0447 31.4482 62.8902 0.430 -0.471 -0.770 61 61 53
-4.6567 31.0433 62.7730 0.162 0.548 -0.821 60 61 55
0.8882 29.2440 61.8796 0.416 -0.556 -0.720 65 66 60
4.0504 28.0391 60.9522 0.323 -0.467 -0.823 70 71 63
5.0644 27.9317 61.3072 0.287 -0.452 -0.845 49 50 44
5.3320 27.9176 61.4341 0.434 -0.429 -0.792 68 69 61
7.6622 27.3661 61.5371 0.061 -0.571 -0.819 97 94 87
10.1592 26.8495 61.8215 0.382 0.020 -0.924 92 87 82
10.9594 26.5966 61.7083 0.393 -0.452 -0.801 55 52 45
13.9404 25.8288 61.6946 0.425 -0.246 -0.871 122 116 104
14.6977 25.6960 61.8368 0.288 -0.557 -0.779 108 100 87
16.9964 25.2583 62.1869 -0.024 -0.355 -0.935 135 126 117
19.0818 24.9969 62.8219 0.366 -0.268 -0.891 128 122 108
20.2101 24.8370 63.1223 0.156 -0.294 -0.943 123 114 105
21.1898 24.4601 62.8267 0.697 -0.152 -0.701 162 153 144
22.6447 24.4434 63.6569 0.172 -0.395 -0.902 138 126 114
22.7504 24.4587 63.7559 0.306 -0.341 -0.889 134 122 110
23.0767 24.3686 63.7402 0.158 -0.226 -0.961 127 115 103
25.7945 24.0268 64.5652 0.231 -0.492 -0.839 122 108 95
30.3288 23.4971 66.0364 0.070 -0.332 -0.941 136 121 114
30.4689 23.4716 66.0604 0.181 -0.293 -0.939 114 99 92
31.7820 23.5000 66.9114 0.154 -0.439 -0.885 93 79 68
37.2522 23.1936 69.4639 0.567 -0.246 -0.786 112 113 95
41.5365 23.3998 72.5062 0.572 -0.388 -0.722 119 109 100
41.7954 23.3885 72.6343 0.236 -0.410 -0.881 103 93 84
41.9278 23.3760 72.6843 0.255 -0.403 -0.879 101 91 82
42.0505 23.3868 72.7829 0.374 -0.265 -0.889 95 85 76
42.1938 23.3478 72.7773 0.388 -0.248 -0.888 89 79 70
42.3289 23.3282 72.8123 0.388 -0.225 -0.894 83 73 64
43.8951 23.5909 74.3622 0.308 -0.870 -0.386 65 56 51
44.0261 23.5857 74.4285 0.338 -0.711 -0.616 66 59 53
44.1605 23.5710 74.4744 0.435 -0.525 -0.732 80 73 67
44.2864 23.5806 74.5720 0.514 -0.413 -0.752 88 81 75
44.4206 23.5668 74.6198 0.518 -0.401 -0.756 89 82 76
44.5518 23.5615 74.6859 0.372 -0.249 -0.894 92 83 78
46.1385 23.9178 76.4673 0.683 -0.410 -0.604 121 114 106
46.8438 23.7493 76.4946 0.096 -0.387 -0.917 106 99 93
46.9904 23.6926 76.4497 0.108 -0.508 -0.855 106 99 93
47.8482 23.9625 77.5934 0.427 -0.394 -0.814 95 93 81
47.9688 24.0159 77.7902 0.619 0.166 -0.768 105 107 93
49.4572 23.9256 78.4685 -0.168 0.110 -0.980 124 128 114
49.5824 23.9720 78.6519 0.751 0.155 -0.641 124 128 113
50.3533 24.1870 79.6151 0.190 -0.323 -0.927 128 136 123
50.4918 24.1683 79.6542 0.204 -0.289 -0.935 128 136 123
50.6332 24.1299 79.6490 0.225 -0.272 -0.936 129 136 122
50.7715 24.1112 79.6878 0.225 -0.272 -0.936 134 143 132
51.0376 24.1449 79.9255 0.261 -0.722 -0.641 138 145 137
51.1661 24.1958 80.1214 0.637 0.013 -0.771 134 141 133
51.7048 24.2423 80.5521 0.641 -0.672 -0.371 123 132 127
54.4179 24.9784 83.8943 0.021 -0.504 -0.863 143 160 154
54.5733 24.6260 83.1632 0.017 -0.219 -0.976 138 154 151
54.8544 24.5836 83.2319 0.098 -0.200 -0.975 127 146 142
55.8306 25.4708 85.8897 0.788 -0.612 -0.063 93 112 108
56.1178 25.2356 85.5113 0.359 -0.112 -0.926 60 79 75
56.2605 25.1722 85.4483 0.641 -0.367 -0.675 48 67 61
60.9510 26.7923 92.0391 0.101 -0.922 -0.375 107 130 122
61.2864 27.0080 92.7437 0.618 -0.472 -0.628 107 133 125
61.4446 27.0398 92.9127 0.493 -0.573 -0.655 107 133 124
61.6023 27.0669 93.0703 0.384 -0.421 -0.822 110 135 127
61.7552 27.0599 93.1453 0.384 -0.421 -0.822 118 144 137
61.9250 27.1605 93.4820 0.787 -0.289 -0.544 122 147 144
62.7597 27.5036 94.7828 0.779 -0.395 -0.487 178 203 206
63.5814 28.5060 97.6175 0.953 0.101 -0.287 143 162 167
63.7803 28.6968 98.1823 0.934 0.116 -0.338 95 108 103
64.2101 19.5848 77.1358 0.348 -0.389 -0.853 102 105 86
-17.7114 35.4553 64.8317 -0.264 -0.334 -0.905 85 97 93
-17.4092 35.3551 64.7790 0.131 -0.358 -0.925 82 94 90
-8.8204 32.1440 62.4329 0.414 -0.294 -0.862 61 66 59
-8.5562 32.0578 62.3899 0.287 -0.386 -0.877 78 83 76
-8.3757 32.0264 62.4245 0.254 -0.406 -0.878 66 69 62
-8.4779 32.2697 62.9296 -0.119 -0.705 -0.699 60 61 55
-8.3767 32.2912 63.0400 0.054 -0.636 -0.770 64 65 59
-8.1244 32.2125 63.0075 0.133 -0.513 -0.848 65 64 60
-6.0649 31.6346 62.8918 0.404 -0.484 -0.776 73 73 65
-5.8421 31.5734 62.8823 0.372 -0.490 -0.789 62 62 54
0.1060 29.4237 61.4301 0.478 -0.460 -0.748 73 73 71
0.6166 29.4224 61.7317 0.033 -0.359 -0.933 68 69 64
0.7833 29.3940 61.7652 0.253 -0.426 -0.869 81 82 77
1.0932 29.3542 61.8574 0.453 -0.477 -0.753 63 64 58
1.3498 29.3528 62.0073 -0.508 -0.405 -0.760 69 70 65
4.3507 28.4437 61.6828 0.450 -0.390 -0.804 64 67 60
4.5143 28.4150 61.7137 0.458 -0.364 -0.811 59 62 55
5.2529 27.9521 61.0773 0.404 -0.576 -0.711 50 53 46
5.7968 27.9160 61.3180 0.279 -0.531 -0.800 89 90 84
7.8846 27.4502 61.4800 0.241 -0.450 -0.860 86 81 77
8.0284 27.4342 61.5285 0.241 -0.450 -0.860 62 57 53
10.4143 26.8026 61.4827 0.126 -0.305 -0.944 127 122 116
13.7592 26.0397 61.7036 0.372 -0.085 -0.924 129 126 113
13.9645 25.9670 61.6569 0.435 -0.267 -0.860 147 144 131
14.5256 25.8999 61.8357 0.169 -0.136 -0.976 108 102 88
15.2069 25.8330 62.0864 0.282 -0.311 -0.908 127 119 106
16.8589 25.4328 62.1412 0.074 -0.303 -0.950 114 106 95
17.0233 25.3925 62.1455 0.052 -0.291 -0.955 130 122 111
22.2458 24.6436 63.5193 0.301 -0.301 -0.905 138 128 118
22.3860 24.6229 63.5548 0.313 -0.281 -0.907 146 134 122
22.5570 24.5700 63.5337 0.093 -0.248 -0.964 138 126 114
25.6858 24.1758 64.4837 0.363 -0.292 -0.885 127 114 100
26.8439 23.9492 64.6473 0.335 -0.502 -0.798 145 131 120
27.0356 24.0070 64.8963 0.286 -0.175 -0.942 116 102 91
28.6684 23.7799 65.3422 0.465 -0.381 -0.799 136 122 111
30.7330 23.7725 66.5570 0.420 -0.456 -0.785 118 105 96
30.8593 23.7663 66.6178 0.257 -0.380 -0.889 143 130 121
31.4134 23.6741 66.7339 0.293 -0.373 -0.880 121 108 99
31.5449 23.6604 66.7806 0.248 -0.394 -0.885 136 122 111
32.3568 23.5450 66.9966 0.123 -0.433 -0.893 102 88 77
33.2516 23.4840 67.3885 0.233 -0.415 -0.879 105 95 86
33.3573 23.5083 67.5082 0.271 -0.485 -0.831 103 93 84
36.7596 23.3707 69.2181 0.332 -0.551 -0.766 110 109 89
39.0402 23.5309 70.9518 -0.370 0.158 -0.915 113 103 94
41.0860 23.4679 72.0260 0.530 -0.001 -0.848 114 104 94
41.5551 23.5560 72.5107 0.639 -0.134 -0.757 128 117 111
41.6818 23.5569 72.5885 0.636 -0.113 -0.763 119 109 100
41.8067 23.5626 72.6763 0.440 -0.191 -0.877 111 101 92
41.9360 23.5578 72.7422 0.440 -0.191 -0.877 115 105 96
42.0641 23.5561 72.8148 0.461 -0.180 -0.869 109 99 90
44.1914 23.6994 74.4174 0.441 -0.527 -0.726 94 85 80
44.4505 23.6979 74.5687 0.538 -0.389 -0.748 101 93 87
44.5852 23.6822 74.6124 0.423 -0.243 -0.873 97 88 81
46.1935 23.9640 76.2277 0.414 -0.365 -0.834 103 96 88
46.3256 23.9621 76.3021 0.399 -0.368 -0.840 95 88 82
46.4588 23.9562 76.3680 0.399 -0.368 -0.840 92 85 79
46.5935 23.9451 76.4224 0.390 -0.357 -0.849 106 99 93
47.7409 24.1151 77.5026 0.432 -0.384 -0.816 112 111 99
47.8747 24.1119 77.5750 0.432 -0.384 -0.816 110 111 97
48.8939 24.3468 78.7297 -0.332 -0.232 -0.914 129 136 120
49.4619 24.1939 78.7131 0.664 -0.275 -0.695 118 125 109
49.5928 24.2132 78.8359 0.650 -0.255 -0.716 118 125 109
49.7197 24.2550 79.0090 0.304 -0.419 -0.856 117 123 109
49.8566 24.2433 79.0634 0.304 -0.419 -0.856 124 130 116
49.9919 24.2409 79.1385 0.296 -0.426 -0.855 125 131 119
50.9338 24.2695 79.7670 -0.336 -0.655 -0.677 135 143 132
53.8938 24.9738 83.1719 0.641 0.426 -0.638 136 153 145
54.0364 24.9299 83.1551 0.763 0.373 -0.528 143 159 150
54.4460 25.1826 83.9874 -0.133 0.219 -0.967 143 159 156
54.8728 25.1032 84.0573 0.215 -0.182 -0.959 137 156 154
55.0163 25.0235 83.9574 0.089 -0.382 -0.920 128 147 145
55.8622 25.5356 85.6537 0.788 -0.612 -0.063 112 133 128
61.6393 27.2474 93.0836 0.400 -0.370 -0.839 116 141 137
61.9699 27.3889 93.6100 0.809 -0.116 -0.577 115 140 139
62.1386 27.4744 93.9097 0.803 -0.084 -0.590 114 138 141
63.4140 28.4519 96.9451 0.970 -0.010 -0.243 171 196 208
63.6398 28.7892 97.8646 0.971 -0.016 -0.239 133 152 156
63.8545 29.0563 98.6141 0.969 -0.051 -0.241 94 106 103
64.0188 29.0646 98.7316 0.960 -0.115 -0.256 92 97 92
64.2074 20.0650 77.9053 0.728 -0.076 -0.681 116 119 98
66.1046 26.5276 94.0734 0.977 -0.063 -0.202 116 121 101
66.7072 27.5716 96.8619 0.893 -0.449 -0.035 103 109 95
-18.7968 36.0505 65.1114 -0.532 -0.301 -0.791 97 108 110
-17.3076 35.4759 64.6684 0.156 -0.350 -0.924 70 82 78
-14.6076 34.5671 64.1730 -0.239 -0.029 -0.971 48 55 48
-11.8188 33.5719 63.5303 -0.094 -0.404 -0.910 68 71 66
-8.2687 32.3940 62.9184 0.008 -0.647 -0.763 64 65 59
-8.0793 32.3570 62.9455 0.016 -0.659 -0.752 52 51 47
-7.8650 32.3031 62.9485 0.194 -0.649 -0.736 62 61 57
7.9032 27.5973 61.4480 0.248 -0.352 -0.902 95 87 84
10.6229 26.8923 61.4363 0.490 -0.384 -0.782 116 112 103
10.7720 26.8703 61.4740 0.358 -0.452 -0.817 97 95 83
11.9229 26.7267 61.8274 -0.026 -0.483 -0.875 91 91 79
13.7892 26.1731 61.6576 0.160 -0.513 -0.843 109 110 96
14.8463 25.9900 61.8636 0.268 -0.322 -0.908 85 77 64
14.9938 25.9667 61.8973 0.286 -0.256 -0.923 112 104 91
15.2530 25.9515 62.0166 0.286 -0.313 -0.906 104 98 84
21.3328 24.8769 63.1511 0.530 -0.091 -0.843 132 124 113
23.0238 24.6189 63.5613 0.303 -0.358 -0.883 135 125 113
25.3300 24.3322 64.2716 0.181 -0.346 -0.921 139 131 118
27.5898 24.0845 65.0447 0.397 -0.240 -0.886 111 99 87
27.7086 24.0868 65.1208 0.388 -0.255 -0.886 112 100 88
27.8356 24.0791 65.1787 0.388 -0.255 -0.886 100 88 76
27.9627 24.0714 65.2366 0.388 -0.255 -0.886 103 91 79
28.6817 23.9280 65.3330 0.454 -0.340 -0.823 147 133 122
31.5795 23.7814 66.7202 0.251 -0.404 -0.880 137 125 113
32.2354 23.7146 66.9564 0.373 -0.477 -0.796 117 105 93
38.9130 23.7229 70.9544 -0.308 -0.095 -0.947 114 104 94
39.1559 23.7404 71.1397 -0.436 0.366 -0.822 112 103 92
43.3314 23.7953 73.7548 0.765 -0.150 -0.626 108 97 91
44.6112 23.8249 74.5859 0.394 -0.298 -0.869 113 102 94
45.3877 23.8304 75.0612 0.468 -0.314 -0.826 103 96 86
46.7763 23.9995 76.2801 0.337 -0.533 -0.776 94 87 81
47.1914 23.9201 76.3437 0.441 -0.250 -0.862 107 103 92
47.9067 24.2381 77.5061 0.363 -0.199 -0.910 105 107 93
48.9236 24.4851 78.6839 -0.332 -0.232 -0.914 122 129 113
49.3666 24.2826 78.4792 0.747 -0.213 -0.630 104 113 96
49.6222 24.3522 78.7926 0.640 -0.243 -0.729 110 117 99
49.7590 24.3400 78.8458 0.616 -0.315 -0.722 109 115 101
50.0195 24.3914 79.1200 0.203 -0.060 -0.977 123 126 115
50.1513 24.4099 79.2413 0.506 -0.293 -0.811 123 126 115
50.3896 23.7816 77.9285 0.302 -0.074 -0.951 125 128 119
51.0935 24.4480 79.8911 0.435 -0.288 -0.853 133 136 129
51.2111 24.5815 80.2701 0.540 0.216 -0.814 137 140 131
52.6716 25.0596 82.2474 -0.101 -0.038 -0.994 133 146 136
53.9197 25.1950 83.3047 0.670 0.374 -0.642 138 154 144
54.0588 25.2225 83.4512 0.653 0.381 -0.654 144 160 149
54.4767 25.3281 83.9446 0.747 -0.262 -0.611 143 159 156
54.6169 25.3574 84.0961 0.026 -0.379 -0.925 143 159 158
54.9065 25.1512 83.7911 0.323 -0.282 -0.903 139 158 156
58.0205 25.0370 85.3823 0.346 0.245 -0.906 112 128 128
60.5344 25.6860 88.3829 -0.445 -0.803 -0.397 104 127 117
61.8227 27.3774 93.0668 0.275 -0.712 -0.646 113 138 134
63.4589 28.6671 97.0278 0.974 -0.024 -0.226 201 227 235
63.6884 29.0222 97.9869 0.972 -0.019 -0.232 116 133 138
63.8774 29.1589 98.4159 0.963 -0.125 -0.238 92 103 103
64.2956 29.6086 99.7064 0.964 -0.018 -0.266 110 111 101
65.6226 26.4750 93.2414 0.654 -0.309 -0.690 106 109 88
64.1305 20.2769 78.0013 0.493 -0.355 -0.794 113 118 96
65.9771 26.6562 93.8723 0.952 -0.003 -0.306 116 119 98
66.1699 26.7991 94.3181 0.969 -0.120 -0.216 116 119 100
66.4708 27.3261 95.7176 0.941 -0.325 -0.094 110 114 99
-17.7813 35.8686 64.8429 -0.165 -0.216 -0.962 96 108 106
-17.3770 35.7037 64.7036 0.294 0.006 -0.956 65 77 75
