ply
format ascii 1.0
element vertex 874
property float x
property float y
property float z
property float nx
property float ny
property float nz
property uchar diffuse_red
property uchar diffuse_green
property uchar diffuse_blue
end_header
-21.3299 38.2220 65.6008 -0.328 -0.235 -0.915 59 61 57
-18.0390 37.0602 64.4505 -0.635 -0.279 -0.720 94 96 91
-15.9826 36.0141 63.1518 0.204 -0.220 -0.954 92 94 91
-15.6949 35.9619 63.1407 -0.401 -0.192 -0.896 93 95 92
-15.4071 35.9267 63.1604 -0.115 -0.346 -0.931 80 82 77
-15.2632 35.8622 63.0854 0.083 -0.387 -0.918 67 69 64
-14.4010 35.6553 62.9607 -0.138 -0.480 -0.866 104 109 102
-13.4272 34.8233 61.7358 -0.460 -0.350 -0.816 99 102 95
-13.1025 35.4868 63.0320 -0.551 -0.184 -0.814 94 95 90
-11.5376 34.9785 62.5651 0.294 -0.332 -0.896 93 94 89
-11.1190 34.7912 62.3472 -0.048 0.402 -0.914 97 96 92
-9.8934 34.1179 61.4828 -0.012 -0.562 -0.827 80 82 69
-7.8068 33.5324 61.0275 -0.226 -0.088 -0.970 72 61 55
-6.1803 33.5457 61.5233 -0.044 -0.336 -0.941 58 59 51
-6.0210 33.5870 61.6444 -0.725 -0.274 -0.631 61 62 54
-5.3024 32.9279 60.6588 -0.578 -0.334 -0.745 88 87 82
-4.7948 33.1472 61.2034 -0.007 0.073 -0.997 85 84 79
-4.6523 33.1229 61.2006 -0.007 0.073 -0.997 81 81 74
-4.5090 33.1010 61.2025 -0.370 -0.117 -0.922 106 102 90
-4.3754 33.0465 61.1426 -0.390 -0.004 -0.921 91 87 75
-4.1178 32.9084 60.9671 0.022 -0.316 -0.949 94 88 76
-3.9715 32.8973 60.9895 -0.059 -0.368 -0.928 90 84 72
-2.7948 32.8125 61.1772 0.637 -0.002 -0.771 77 90 64
-0.8835 31.8654 60.0156 0.019 -0.076 -0.997 61 67 64
1.2562 31.2255 59.4771 -0.249 -0.136 -0.959 39 44 37
3.9288 31.3288 60.4397 -0.232 -0.261 -0.937 49 49 41
4.0575 31.2785 60.3857 -0.184 -0.260 -0.948 36 36 28
4.3360 31.2166 60.3544 -0.101 -0.633 -0.768 34 35 28
4.9206 31.1407 60.3865 -0.495 -0.653 -0.573 58 60 55
5.0539 31.0994 60.3504 -0.497 -0.645 -0.580 73 75 70
6.1464 30.5653 59.6997 0.061 -0.190 -0.980 68 67 63
6.2819 30.5307 59.6763 0.059 -0.210 -0.976 41 42 37
6.4241 30.5067 59.6740 -0.163 -0.359 -0.919 35 36 31
10.0124 29.9366 59.6821 0.239 -0.365 -0.900 86 84 71
10.1809 29.9461 59.7482 -0.321 -0.539 -0.779 93 91 78
10.4702 29.9011 59.7507 -0.080 -0.256 -0.963 117 115 102
10.6026 29.8628 59.7196 0.035 -0.310 -0.950 121 119 106
12.4182 30.4950 61.3918 0.661 -0.231 -0.714 114 112 99
13.7869 30.3227 61.4766 -0.003 -0.193 -0.981 104 106 85
16.5630 30.1785 62.0208 -0.621 0.083 -0.779 129 126 109
16.8155 30.2626 62.2464 0.333 0.140 -0.933 121 118 101
16.8946 30.1627 62.0884 -0.243 0.124 -0.962 115 113 94
22.4003 29.0257 61.6257 -0.241 -0.551 -0.799 131 124 108
27.5470 29.9158 64.7314 -0.110 -0.987 -0.117 130 127 110
26.9415 28.9990 62.8947 -0.656 -0.237 -0.716 135 134 116
33.5872 29.1936 65.1753 -0.331 -0.525 -0.784 49 49 39
33.7120 29.1432 65.1201 -0.483 -0.376 -0.791 48 48 38
34.3122 29.0097 65.0525 -0.418 -0.359 -0.835 33 34 29
34.4525 28.9700 65.0212 -0.424 -0.348 -0.837 67 68 63
36.0579 28.9630 65.4743 -0.121 -0.386 -0.914 40 45 38
38.4376 29.4204 66.9933 -0.523 0.060 -0.850 41 44 35
38.9050 29.3209 66.9487 0.466 -0.686 -0.559 48 51 42
-30.4294 42.5665 70.5011 -0.682 -0.651 -0.332 151 162 164
-28.8290 41.6454 69.3012 -0.588 -0.304 -0.750 143 159 159
-24.1326 39.6933 67.1346 -0.918 -0.194 -0.346 138 149 141
-23.2639 38.9219 65.9937 -0.279 -0.446 -0.850 57 69 65
-22.5515 38.9612 66.2702 0.258 -0.355 -0.899 81 92 94
-21.4625 38.4511 65.6643 -0.371 -0.293 -0.881 69 73 71
-21.3085 38.3811 65.5824 -0.320 -0.384 -0.866 63 67 66
-17.7209 37.1069 64.3189 0.461 -0.297 -0.836 93 98 92
-15.9591 36.1438 63.0898 -0.063 -0.221 -0.973 82 84 81
-15.2382 36.4222 63.8001 -0.689 -0.008 -0.725 99 101 96
-15.0939 36.2440 63.5203 -0.527 -0.164 -0.834 85 87 82
-14.9496 36.1689 63.4265 -0.582 -0.081 -0.809 81 83 78
-13.2264 35.5916 62.8822 -0.516 -0.212 -0.830 87 89 84
-9.8739 34.2277 61.3891 -0.117 -0.640 -0.759 81 81 70
-9.6747 34.5890 62.0984 -0.701 0.005 -0.713 80 82 69
-5.9850 33.7729 61.6910 -0.736 -0.452 -0.504 61 61 53
-3.9549 33.0102 60.9007 -0.174 -0.225 -0.959 80 77 65
-3.1770 32.6380 60.4538 -0.137 -0.191 -0.972 69 82 56
1.2672 31.3322 59.3805 0.096 -0.251 -0.963 35 40 33
1.9884 31.2509 59.4420 -0.164 -0.385 -0.908 51 52 46
2.8087 31.3567 59.8697 0.196 -0.407 -0.892 88 89 83
3.0543 31.5318 60.2565 -0.296 -0.483 -0.824 82 81 76
3.1696 31.1626 59.6236 -0.201 -0.227 -0.953 59 59 52
3.3265 31.1676 59.6780 -0.222 -0.131 -0.966 57 57 50
4.0718 31.3960 60.3052 -0.224 -0.008 -0.975 35 35 28
4.3555 31.3436 60.2925 -0.041 -0.188 -0.981 28 29 23
4.4486 31.2311 60.1164 -0.018 -0.716 -0.698 33 34 29
6.1773 30.7106 59.6763 0.057 -0.179 -0.982 86 87 82
6.3017 30.6581 59.6175 -0.025 -0.060 -0.998 42 43 38
6.4601 30.6597 59.6660 -0.063 -0.095 -0.993 35 36 31
6.6433 30.6999 59.7913 -0.006 -0.214 -0.977 34 34 32
9.2724 30.7978 60.7267 0.065 -0.054 -0.996 72 68 57
11.0065 30.7066 61.0627 0.056 -0.044 -0.997 112 110 95
10.7733 29.9772 59.6794 0.260 -0.336 -0.905 144 140 128
12.2073 30.5472 61.1216 0.694 -0.225 -0.683 138 134 122
13.0841 30.3947 61.0996 -0.127 0.602 -0.788 117 115 102
13.6095 30.4209 61.2985 0.475 0.072 -0.877 114 115 97
13.9487 30.4233 61.4008 -0.184 -0.218 -0.958 80 81 63
14.1241 30.4308 61.4649 -0.260 -0.295 -0.919 91 92 74
16.8859 30.4505 62.2975 0.246 0.121 -0.962 121 119 101
19.1364 29.8936 61.9423 0.350 -0.373 -0.859 62 64 42
34.4694 29.1103 64.9543 -0.424 -0.348 -0.837 81 85 78
34.9364 29.0217 64.9293 -0.082 -0.084 -0.993 69 77 69
36.1880 29.3080 65.8070 -0.827 0.339 -0.449 57 64 56
36.1661 29.1630 65.5391 -0.342 -0.159 -0.926 48 53 46
36.3213 29.1320 65.5279 0.074 -0.550 -0.832 50 53 46
38.3790 29.5180 66.8183 -0.336 0.318 -0.887 42 43 35
38.1960 29.2755 66.3278 0.407 -0.704 -0.583 42 43 35
38.7320 29.3489 66.6150 0.537 -0.661 -0.524 50 51 45
-45.3320 47.3770 74.5362 -0.201 0.457 -0.866 121 150 154
-29.8057 42.2123 69.7151 -0.590 -0.749 -0.301 169 185 185
-29.6343 42.1298 69.6161 -0.553 -0.744 -0.376 164 182 182
-29.4745 42.0841 69.5799 -0.641 -0.596 -0.483 162 180 180
-29.3133 42.0337 69.5356 -0.667 -0.158 -0.728 153 171 171
-29.1234 41.8869 69.3264 -0.154 0.391 -0.907 147 165 165
-28.8026 41.7869 69.2389 -0.599 -0.274 -0.752 146 162 162
-27.5682 41.0110 68.1993 -0.412 0.364 -0.835 153 167 167
-24.0595 39.5916 66.6567 -0.459 -0.056 -0.886 132 143 135
-23.2422 39.0759 65.9649 -0.310 -0.415 -0.855 65 77 73
-22.6652 39.0648 66.1105 0.296 -0.308 -0.904 83 94 96
-22.5275 39.1041 66.2206 0.258 -0.355 -0.899 81 92 94
-22.3773 39.0689 66.2007 0.122 -0.212 -0.970 68 82 85
-22.2152 38.9598 66.0510 -0.286 0.036 -0.957 62 73 75
-22.0624 38.9062 65.9987 -0.321 0.027 -0.947 70 77 78
-21.1264 38.4183 65.3909 0.022 -0.460 -0.888 56 60 59
-19.8757 37.5591 64.2064 0.118 -0.278 -0.953 68 73 67
-17.6976 37.2521 64.2802 0.461 -0.297 -0.836 88 93 86
-16.0804 36.3520 63.1273 -0.144 -0.171 -0.975 84 89 83
-15.9364 36.3294 63.1280 -0.133 -0.177 -0.975 97 102 96
-15.3603 36.1326 62.9400 -0.434 -0.226 -0.872 117 122 115
-15.0731 36.0458 62.8665 -0.049 -0.045 -0.998 104 109 102
-14.9293 36.0279 62.8756 -0.030 -0.301 -0.953 93 98 91
-12.2139 35.3125 62.3699 -0.541 0.018 -0.841 102 103 97
-11.7876 35.1981 62.2868 0.042 -0.444 -0.895 72 73 67
-11.6398 35.2212 62.3708 0.206 -0.586 -0.784 98 99 93
-11.0526 35.2417 62.5762 0.281 -0.255 -0.925 93 92 90
-10.9786 34.6065 61.4562 -0.164 -0.318 -0.934 102 98 97
-9.8545 34.3367 61.2942 -0.117 -0.640 -0.759 78 78 68
-7.4898 33.6944 60.8193 -0.467 -0.311 -0.828 94 80 77
-2.5045 32.9123 60.8455 -0.295 -0.589 -0.752 62 76 50
-1.9368 32.8082 60.8214 -0.752 -0.180 -0.634 73 81 60
-1.5086 32.3394 60.1021 -0.297 -0.198 -0.934 57 64 48
-1.3701 32.3080 60.0855 -0.028 -0.096 -0.995 50 56 43
1.8486 31.3616 59.3094 -0.459 -0.160 -0.874 52 54 49
3.3506 31.5940 60.1580 -0.022 -0.361 -0.932 57 56 51
3.5020 31.5865 60.1880 -0.037 -0.371 -0.928 64 63 58
3.6462 31.5650 60.1909 -0.037 -0.371 -0.928 73 72 68
3.7726 31.5107 60.1296 0.014 -0.412 -0.911 47 46 41
4.3606 31.4449 60.1803 -0.188 0.015 -0.982 27 28 24
4.4736 31.3678 60.0742 -0.141 -0.139 -0.980 32 33 28
7.5274 31.1808 60.6151 0.049 -0.023 -0.999 72 72 70
10.7563 30.9164 61.0670 0.391 0.037 -0.920 122 121 103
10.8894 30.8744 61.0298 0.277 -0.161 -0.947 124 123 105
10.7999 30.1150 59.6398 -0.033 -0.246 -0.969 131 127 116
12.7675 30.7279 61.3058 0.031 0.560 -0.828 132 130 117
12.9030 30.6887 61.2744 -0.312 0.449 -0.837 136 134 121
13.0713 30.6896 61.3242 -0.440 0.548 -0.711 127 125 112
14.0619 30.6650 61.5645 -0.338 -0.105 -0.935 79 80 64
14.1775 30.6023 61.4850 -0.331 -0.198 -0.923 78 79 63
14.9749 29.7848 60.2453 -0.091 -0.412 -0.907 139 133 119
18.7675 29.9902 61.7032 -0.228 -0.148 -0.962 76 78 56
19.2143 30.0850 62.0017 0.313 0.093 -0.945 71 73 51
24.7825 29.9009 63.2698 0.196 -0.602 -0.774 111 106 92
30.9788 29.4154 64.1766 0.149 0.176 -0.973 133 132 114
34.9101 29.5321 65.5151 -0.089 -0.407 -0.909 85 93 82
34.6605 29.2334 64.9068 -0.137 -0.507 -0.851 83 91 81
35.0031 29.1948 64.9357 -0.085 -0.075 -0.994 65 76 66
35.7294 29.5381 65.7611 0.606 -0.343 -0.718 62 74 64
35.4708 29.2372 65.1462 0.126 -0.025 -0.992 64 76 66
35.6178 29.2015 65.1242 0.057 -0.066 -0.996 64 76 66
36.2130 29.3240 65.5153 -0.357 -0.168 -0.919 48 53 46
36.3833 29.3025 65.5256 -0.045 -0.345 -0.937 50 53 46
36.5921 29.3056 65.5910 -0.072 -0.435 -0.898 56 61 54
-45.3860 47.6692 74.7030 -0.201 0.457 -0.866 121 150 154
-30.3352 42.7275 70.1611 -0.637 -0.683 -0.358 55 69 70
-27.7390 41.3425 68.4248 -0.479 0.279 -0.832 163 179 178
-27.5624 41.2253 68.2655 -0.465 0.283 -0.839 169 183 183
-27.3910 41.1260 68.1367 -0.517 0.332 -0.789 170 184 184
-27.2147 41.0060 67.9724 -0.523 0.324 -0.788 171 185 185
-23.2175 39.2135 65.9072 -0.298 -0.408 -0.863 71 83 79
-22.9271 39.1950 65.9571 -0.127 -0.339 -0.932 74 85 87
-22.7877 39.2208 66.0431 0.059 -0.176 -0.983 82 93 95
-22.4951 39.1957 66.0817 0.288 -0.314 -0.905 79 90 92
-22.3516 39.2015 66.1330 0.118 -0.208 -0.971 66 77 79
-22.1935 39.1164 66.0261 -0.438 -0.109 -0.892 53 63 64
-22.0373 39.0412 65.9360 -0.469 -0.055 -0.881 57 64 64
-21.7266 38.8960 65.7651 -0.784 -0.160 -0.599 65 69 69
-21.4224 38.7881 65.6589 -0.070 -0.048 -0.996 68 74 72
-21.2618 38.6711 65.4954 -0.400 0.205 -0.893 62 68 66
-21.0992 38.5344 65.2973 -0.263 0.188 -0.946 55 61 59
-19.9229 38.3572 65.3163 -0.035 0.164 -0.986 70 75 69
-19.7660 38.2421 65.1552 -0.064 0.138 -0.988 64 69 62
-18.2633 37.5775 64.3953 -0.413 -0.234 -0.880 76 84 73
-17.9647 37.4262 64.2101 -0.304 -0.546 -0.781 74 82 71
-17.8177 37.3816 64.1721 0.508 -0.270 -0.818 78 85 77
-17.6742 37.3974 64.2414 0.461 -0.297 -0.836 82 87 80
-17.5096 37.0116 63.5983 0.246 -0.217 -0.945 82 87 80
-17.2178 36.9078 63.4960 -0.095 -0.203 -0.974 82 87 81
-17.0762 36.9545 63.6199 -0.585 -0.234 -0.777 83 88 82
-16.6340 36.6337 63.1723 -0.532 -0.226 -0.816 83 88 82
-16.3451 36.5470 63.0997 0.147 -0.433 -0.889 81 86 80
-16.0567 36.4737 63.0508 0.061 -0.427 -0.902 88 93 87
-15.9132 36.4771 63.0981 -0.133 -0.177 -0.975 108 113 107
-15.3369 36.3123 62.9678 -0.379 -0.345 -0.859 94 99 92
-15.1932 36.2420 62.8831 -0.098 -0.366 -0.926 112 117 110
-15.0497 36.1861 62.8240 -0.004 -0.286 -0.958 108 113 106
-14.9059 36.1670 62.8310 -0.030 -0.301 -0.953 91 96 89
-11.7644 35.3332 62.2365 0.044 -0.435 -0.900 79 80 74
-11.6188 35.3330 62.2778 0.163 -0.318 -0.934 90 91 85
-10.9524 34.7683 61.4577 -0.230 -0.405 -0.885 104 100 99
-10.4663 35.1737 62.3219 -0.405 0.289 -0.867 114 110 109
-9.8306 34.4761 61.2555 -0.034 -0.580 -0.814 78 75 70
-8.4348 34.9224 62.4525 -0.553 0.529 -0.644 74 76 56
-8.3123 34.7776 62.2285 -0.553 0.529 -0.644 78 79 65
-8.0593 34.5446 61.8839 -0.472 0.521 -0.711 54 53 49
-7.3289 33.7876 60.7383 -0.374 -0.443 -0.815 102 92 87
-6.5130 33.5072 60.4696 -0.266 -0.312 -0.912 73 67 61
-6.3836 33.4351 60.3775 -0.457 -0.239 -0.857 75 69 63
-5.2569 33.2415 60.3530 -0.477 -0.107 -0.872 128 125 120
-4.2584 33.6093 61.2963 -0.078 -0.225 -0.971 75 78 64
-4.1504 33.4680 61.0743 -0.653 0.143 -0.744 77 79 65
-2.7311 33.1983 60.9972 -0.224 -0.516 -0.827 61 75 49
-2.6155 33.0950 60.8455 -0.318 -0.491 -0.811 61 75 49
-2.3678 32.9403 60.6393 -0.254 -0.178 -0.951 62 75 52
-2.2007 32.9855 60.7680 -0.431 0.012 -0.902 68 76 59
-2.0697 32.9292 60.7047 -0.431 0.012 -0.902 68 75 57
1.8757 31.5021 59.2784 -0.453 -0.173 -0.875 61 62 57
3.7781 31.6115 60.0175 0.046 -0.430 -0.902 35 34 31
4.0155 31.7615 60.3538 -0.357 0.248 -0.900 34 33 31
4.1169 31.6612 60.2032 -0.052 -0.151 -0.987 34 33 31
6.8211 31.4256 60.5542 0.191 0.069 -0.979 38 40 37
7.5886 31.3736 60.6803 -0.095 -0.213 -0.972 62 62 60
7.7459 31.3681 60.7155 0.094 -0.600 -0.795 74 73 71
7.9013 31.3596 60.7446 0.055 -0.581 -0.812 89 88 86
10.4499 31.0507 60.9200 0.031 0.079 -0.996 139 138 118
10.7770 31.0485 61.0094 0.234 0.050 -0.971 136 135 115
10.9392 31.0450 61.0495 0.267 -0.129 -0.955 136 135 117
11.1107 31.0535 61.1137 0.070 -0.074 -0.995 137 135 120
13.1608 30.9063 61.4360 -0.440 0.548 -0.711 133 131 119
14.0697 30.7834 61.4757 -0.003 -0.360 -0.933 106 107 93
14.4452 30.6295 61.3076 -0.241 -0.242 -0.940 102 103 87
21.9265 30.2389 62.7457 0.326 0.169 -0.930 183 177 161
22.0929 30.2260 62.7702 0.299 0.133 -0.945 174 168 152
25.2715 29.9666 63.2140 -0.441 0.121 -0.890 137 138 120
25.2431 29.6369 62.6160 -0.329 -0.437 -0.837 136 135 117
25.5556 29.5907 62.6227 0.058 -0.354 -0.933 151 150 132
25.7166 29.5714 62.6342 0.042 -0.330 -0.943 151 149 132
28.9506 29.6057 63.6193 -0.403 -0.587 -0.703 117 114 97
29.0789 29.5588 63.5719 -0.399 -0.579 -0.711 139 136 119
29.3354 29.6079 63.7332 -0.585 -0.020 -0.811 142 140 124
29.3443 29.4718 63.4921 0.376 -0.047 -0.925 141 140 124
30.2232 29.5545 63.8910 0.083 -0.589 -0.804 132 131 113
32.1208 29.6598 64.6216 0.229 -0.315 -0.921 160 158 143
32.2416 29.4688 64.3144 0.161 -0.663 -0.731 107 105 90
34.8698 29.3685 64.8856 -0.168 -0.134 -0.977 73 86 75
34.9832 29.3110 64.8152 -0.171 -0.115 -0.979 63 76 66
35.7651 29.6924 65.7208 0.620 -0.326 -0.714 62 75 65
36.2477 29.4772 65.4737 -0.357 -0.168 -0.919 49 54 47
36.4249 29.4603 65.4939 -0.387 -0.268 -0.882 51 54 47
36.5756 29.4262 65.4761 -0.105 -0.375 -0.921 57 62 55
38.2060 29.4185 65.9280 0.386 -0.881 -0.275 48 50 39
-45.4583 47.9940 74.9210 -0.323 0.371 -0.870 121 152 155
-29.2539 42.2966 69.3751 -0.678 -0.173 -0.714 40 56 56
-29.1220 42.3437 69.4966 -0.125 0.390 -0.912 38 54 54
-28.9679 42.3169 69.4926 -0.062 0.420 -0.906 41 56 56
-27.9033 41.6484 68.6041 -0.473 0.282 -0.835 63 79 78
-27.7302 41.5464 68.4715 -0.473 0.282 -0.835 69 84 84
-27.5542 41.4317 68.3172 -0.472 0.281 -0.836 84 99 99
-27.3844 41.3387 68.1998 -0.530 0.319 -0.785 96 112 111
-27.2097 41.2251 68.0471 -0.527 0.319 -0.788 104 119 119
-27.1123 41.4083 68.4012 -0.243 -0.653 -0.717 112 127 127
-26.9538 41.3576 68.3559 -0.344 -0.425 -0.837 120 135 135
-26.7929 41.2969 68.2934 -0.374 -0.092 -0.923 128 143 140
-26.6435 41.2819 68.3092 -0.265 0.463 -0.846 131 146 143
-26.4781 41.2019 68.2135 -0.265 0.463 -0.846 125 140 137
-26.3093 41.1069 68.0922 -0.639 -0.594 -0.489 126 141 138
-26.1359 40.9905 67.9343 -0.600 -0.682 -0.419 127 142 139
-25.9712 40.9087 67.8353 -0.588 -0.685 -0.430 137 152 149
-24.0213 39.9289 66.6437 -0.286 -0.036 -0.958 135 146 138
-23.8641 39.8630 66.5709 -0.505 -0.037 -0.863 95 108 99
-23.1958 39.3674 65.8778 -0.271 -0.435 -0.859 75 87 83
-22.9120 39.3882 65.9956 0.017 -0.215 -0.977 79 89 91
-22.7655 39.3737 66.0115 0.018 -0.163 -0.986 86 97 99
-22.6187 39.3578 66.0248 0.176 -0.194 -0.965 83 97 98
-22.4739 39.3548 66.0606 -0.110 -0.189 -0.976 78 92 93
-22.3245 39.3248 66.0495 -0.110 -0.189 -0.976 87 98 100
-22.1685 39.2523 65.9648 -0.442 -0.090 -0.892 71 81 82
-22.0141 39.1884 65.8947 -0.442 -0.090 -0.892 59 65 65
-21.7076 39.0709 65.7726 -0.514 -0.118 -0.850 71 75 74
-21.5596 39.0472 65.7723 -0.460 0.065 -0.886 75 79 78
-21.4112 39.0204 65.7668 0.004 0.033 -0.999 71 75 74
-21.2438 38.8552 65.5201 -0.418 -0.016 -0.908 69 73 72
-21.0885 38.7739 65.4193 -0.417 -0.041 -0.908 68 72 71
-18.9830 37.9960 64.6318 -0.092 -0.367 -0.926 82 88 78
-18.8364 37.9703 64.6275 -0.092 -0.367 -0.926 75 81 71
-17.3428 37.1543 63.5982 0.082 -0.297 -0.951 82 87 81
-17.1943 37.0446 63.4449 -0.204 -0.428 -0.881 82 87 81
-16.6127 36.8400 63.2457 -0.056 -0.555 -0.830 84 89 83
-16.0349 36.7066 63.1723 -0.181 -0.230 -0.956 75 80 74
-15.8906 36.6830 63.1713 -0.308 -0.155 -0.939 74 79 73
-15.1698 36.3849 62.8449 -0.319 -0.241 -0.917 97 102 95
-11.7413 35.4664 62.1827 0.042 -0.468 -0.883 94 94 86
-11.5948 35.4760 62.2415 0.123 -0.216 -0.969 91 90 85
-10.9266 34.9255 61.4506 -0.273 -0.293 -0.916 106 105 101
-9.8091 34.5995 61.1873 0.016 -0.592 -0.805 77 73 70
-9.6172 34.9125 61.7995 -0.429 0.349 -0.833 85 82 77
-9.2451 34.4840 61.1418 -0.471 -0.100 -0.876 93 90 85
-9.1091 34.4250 61.0753 -0.471 -0.100 -0.876 75 72 65
-8.5423 34.3279 61.0635 -0.337 -0.644 -0.687 74 75 56
-8.4034 34.2883 61.0324 -0.337 -0.644 -0.687 81 81 68
-6.4871 33.6525 60.4441 -0.246 -0.437 -0.865 120 113 107
-6.2217 33.5366 60.3131 -0.439 -0.146 -0.887 66 59 53
-6.0834 33.5027 60.2920 -0.085 -0.204 -0.975 83 76 70
-4.2293 33.7636 61.2837 -0.061 -0.212 -0.975 75 79 64
-3.7382 33.8895 61.6475 0.464 -0.266 -0.845 70 76 60
-2.4657 33.1590 60.7077 -0.436 -0.049 -0.898 61 75 49
-2.1379 32.8101 60.1792 0.213 -0.240 -0.947 63 70 52
-1.9739 32.8477 60.2927 -0.194 -0.222 -0.956 63 70 52
3.3649 31.5075 59.4221 -0.403 -0.591 -0.699 48 47 45
4.1723 32.1415 60.7812 -0.290 0.496 -0.819 34 33 31
4.4597 31.2514 59.2769 0.048 0.053 -0.997 40 41 36
4.6111 31.2451 59.3089 0.065 0.053 -0.996 44 45 40
4.8653 31.1479 59.2078 0.050 0.080 -0.996 40 41 36
5.3258 31.1382 59.3214 -0.198 -0.283 -0.939 34 35 30
5.4860 31.1454 59.3797 -0.069 -0.350 -0.934 35 35 33
8.0723 31.4741 60.7004 0.035 -0.596 -0.802 54 50 47
8.5902 30.8170 59.6768 -0.273 -0.274 -0.922 64 59 51
8.7241 30.7796 59.6482 -0.273 -0.274 -0.922 91 88 74
10.0051 31.2178 60.7930 0.047 -0.646 -0.762 119 117 102
10.1715 31.2217 60.8472 -0.094 -0.610 -0.787 120 119 101
10.3183 31.1985 60.8476 -0.094 -0.610 -0.787 123 122 104
10.4653 31.1754 60.8481 -0.094 -0.610 -0.787 126 125 107
11.1302 31.1841 61.0527 -0.020 -0.524 -0.852 147 146 129
11.2758 31.1582 61.0479 -0.032 -0.522 -0.852 145 143 130
11.4369 31.1526 61.0837 -0.471 -0.345 -0.812 142 138 128
14.2582 30.7176 61.1104 0.077 -0.086 -0.993 105 106 90
14.3969 30.6826 61.0875 0.188 -0.044 -0.981 118 119 103
14.5650 30.6818 61.1338 -0.473 -0.031 -0.880 127 124 111
15.9507 29.9664 60.2529 0.125 -0.243 -0.962 120 119 99
20.1997 30.4151 62.2598 0.089 0.038 -0.995 109 107 87
21.8152 30.4203 62.7282 -0.105 0.048 -0.993 157 152 133
21.9658 30.3930 62.7224 -0.117 0.049 -0.992 171 165 149
22.0947 30.3458 62.6749 -0.095 0.050 -0.994 160 154 138
22.9712 30.4821 63.1668 0.286 0.437 -0.853 130 124 108
25.3133 30.1227 63.1919 -0.454 -0.033 -0.890 141 139 124
28.7776 29.7430 63.4999 -0.145 -0.666 -0.732 116 115 97
29.0582 29.6673 63.4447 -0.404 -0.548 -0.733 140 139 121
29.3365 29.7333 63.6414 -0.498 0.046 -0.866 138 137 117
29.4077 29.6435 63.5017 0.364 -0.031 -0.931 138 137 118
30.3359 29.6212 63.7258 -0.326 -0.264 -0.908 107 106 88
30.3969 29.5252 63.5721 -0.325 -0.241 -0.914 112 111 93
30.5079 29.4661 63.4983 -0.370 -0.273 -0.888 120 118 103
31.0515 29.7201 64.1054 0.328 -0.200 -0.923 102 103 87
32.1638 29.8177 64.5953 0.269 -0.313 -0.911 152 151 133
32.2357 29.5917 64.2130 0.269 -0.425 -0.865 102 101 83
32.4070 29.5744 64.2310 0.222 -0.470 -0.854 91 90 72
34.6722 29.4993 64.7409 0.305 -0.681 -0.666 86 96 85
36.5252 29.5247 65.3126 -0.400 -0.181 -0.898 51 56 49
36.6094 29.4482 65.2003 0.055 -0.536 -0.842 42 47 40
36.8047 29.4430 65.2465 0.047 -0.542 -0.839 37 40 33
37.3071 29.6329 65.7276 -0.203 -0.404 -0.892 44 45 39
39.2686 29.6943 66.3943 -0.029 -0.486 -0.873 75 76 68
-29.2505 42.5158 69.4435 -0.714 -0.291 -0.637 38 50 48
-29.2121 42.8804 70.1012 -0.219 0.494 -0.842 37 49 47
-28.7641 42.3520 69.2904 -0.414 0.238 -0.878 36 48 46
-27.8763 41.7859 68.5370 -0.573 -0.076 -0.816 44 57 55
-27.6969 41.6604 68.3649 -0.658 -0.287 -0.696 47 59 57
-27.5261 41.5644 68.2430 -0.658 -0.287 -0.696 46 58 56
-27.3880 41.5907 68.3287 -0.538 0.313 -0.783 48 60 58
-27.2099 41.4650 68.1560 -0.538 0.313 -0.783 49 61 59
-27.0786 41.5190 68.2889 -0.243 -0.653 -0.717 50 61 60
-26.9253 41.4884 68.2779 -0.344 -0.425 -0.837 50 61 60
-26.7724 41.4590 68.2690 -0.374 -0.092 -0.923 51 62 61
-26.6210 41.4360 68.2710 -0.431 0.153 -0.889 53 65 63
-26.4626 41.3846 68.2247 -0.397 0.136 -0.908 64 75 73
-26.2648 41.1695 67.8988 -0.645 -0.601 -0.472 70 82 80
-26.0979 41.0791 67.7857 -0.645 -0.601 -0.472 74 85 83
-25.9250 40.9614 67.6258 -0.568 -0.688 -0.451 74 85 83
-24.0012 40.0927 66.6283 -0.283 -0.043 -0.958 104 115 107
-23.8442 40.0281 66.5581 -0.472 -0.004 -0.882 94 105 99
-22.8994 39.5958 66.0583 -0.239 -0.019 -0.971 79 89 90
-22.7508 39.5705 66.0554 -0.249 -0.029 -0.968 86 97 99
-22.5969 39.5134 65.9975 0.176 -0.194 -0.965 91 102 104
-22.4524 39.5128 66.0373 -0.483 -0.186 -0.856 106 120 121
-22.2976 39.4490 65.9680 -0.491 -0.194 -0.849 98 109 111
-22.1431 39.3855 65.8989 -0.589 -0.284 -0.757 72 82 83
-21.8337 39.2510 65.7478 -0.572 -0.245 -0.783 58 62 63
-21.6827 39.2067 65.7118 -0.439 -0.576 -0.689 67 71 70
-21.5266 39.1258 65.6124 -0.342 -0.599 -0.724 71 75 74
-21.3525 38.9132 65.2844 -0.351 -0.518 -0.780 71 75 74
-21.2000 38.8505 65.2163 -0.136 -0.435 -0.890 71 75 74
-21.0475 38.7856 65.1443 -0.027 -0.469 -0.883 71 75 74
-19.7633 38.9648 65.8253 -0.103 0.599 -0.794 53 58 52
-17.6066 37.2994 63.4802 0.237 -0.483 -0.843 76 81 74
-17.4625 37.2838 63.4932 -0.021 -0.618 -0.786 77 82 75
-17.3169 37.2405 63.4576 -0.032 -0.634 -0.773 72 77 71
-16.5871 36.9008 63.0612 -0.176 -0.435 -0.883 89 94 88
-14.8549 36.7642 63.3086 -0.019 -0.278 -0.960 64 69 62
-14.7106 36.7081 63.2498 -0.049 -0.310 -0.949 69 74 67
-13.7235 35.8837 62.0662 -0.081 -0.308 -0.948 62 70 59
-13.4383 35.8311 62.0536 -0.220 -0.332 -0.917 80 87 79
-13.2904 35.9063 62.2288 0.032 -0.654 -0.755 83 88 81
-11.5704 35.6227 62.2118 0.123 -0.216 -0.969 85 86 80
-10.9006 35.0857 61.4485 -0.245 -0.356 -0.902 111 110 106
-10.7027 35.5309 62.2943 -0.076 -0.938 -0.338 104 100 99
-10.2204 34.7365 61.0212 -0.542 -0.177 -0.821 75 71 70
-10.0840 34.6760 60.9523 -0.499 -0.275 -0.821 79 75 72
-9.9452 34.6347 60.9183 0.074 -0.364 -0.929 90 87 82
-9.7955 34.6688 61.0213 -0.068 -0.410 -0.909 77 74 69
-9.6523 34.6564 61.0396 -0.151 -0.448 -0.881 86 83 78
-9.5142 34.6092 60.9949 0.171 -0.448 -0.878 66 63 58
-9.3689 34.6097 61.0370 0.173 -0.433 -0.885 78 75 70
-9.2303 34.5665 60.9995 -0.465 -0.496 -0.733 92 89 84
-8.9540 34.4776 60.9199 -0.424 -0.537 -0.729 76 77 59
-6.4635 33.7884 60.4012 -0.288 -0.390 -0.874 146 139 133
-6.3369 33.7048 60.2886 -0.312 -0.204 -0.928 133 126 120
-6.0565 33.6516 60.2734 -0.095 -0.201 -0.975 71 64 58
-5.5191 34.0202 61.0794 0.178 -0.213 -0.961 84 80 76
-2.1752 33.1949 60.5604 -0.435 -0.047 -0.899 56 64 47
-2.1450 32.8599 59.9746 0.139 -0.136 -0.981 57 64 48
-1.9825 32.8941 60.0813 0.101 -0.135 -0.986 57 64 48
3.4152 31.6914 59.4733 -0.254 -0.302 -0.919 35 34 32
4.1091 31.5461 59.4118 -0.454 -0.438 -0.776 34 33 29
4.7293 32.1008 60.5713 -0.131 0.381 -0.915 34 34 32
5.3548 31.2806 59.2928 -0.168 -0.281 -0.945 34 35 30
7.7796 31.6181 60.5772 0.012 -0.230 -0.973 86 85 83
7.9274 31.5983 60.5838 0.012 -0.230 -0.973 79 75 72
8.0639 31.0805 59.7036 -0.192 -0.273 -0.942 75 71 68
8.2067 31.0558 59.7003 -0.178 -0.235 -0.956 91 87 86
8.7479 30.9138 59.6013 -0.273 -0.274 -0.922 116 112 99
8.8675 30.8559 59.5325 -0.273 -0.220 -0.937 112 106 90
9.6337 31.4863 60.8674 0.175 -0.001 -0.985 125 122 107
10.1530 31.2995 60.6828 -0.059 -0.569 -0.820 112 111 93
10.3085 31.2885 60.7074 -0.073 -0.578 -0.813 110 109 91
10.4795 31.2984 60.7732 -0.102 -0.590 -0.801 108 107 89
11.3965 31.2049 60.8666 0.213 -0.391 -0.896 144 140 131
11.6700 31.1310 60.8129 -0.392 -0.034 -0.919 146 142 133
11.8438 31.1418 60.8811 0.273 -0.616 -0.739 139 135 126
12.9384 31.2613 61.4026 0.162 -0.078 -0.984 122 120 107
14.0106 31.1316 61.4756 -0.653 0.143 -0.744 128 129 113
14.4513 30.8549 61.1093 0.174 -0.051 -0.983 109 109 94
20.0630 30.5704 62.1909 0.140 -0.064 -0.988 114 115 93
20.2273 30.5577 62.2149 0.140 -0.064 -0.988 106 107 85
21.8554 30.5755 62.7066 -0.158 0.026 -0.987 132 126 110
21.9968 30.5396 62.6830 -0.158 0.026 -0.987 144 137 121
22.1250 30.4917 62.6342 -0.134 0.039 -0.990 138 132 116
22.8095 30.6199 63.0552 0.295 -0.465 -0.835 146 140 124
24.2004 29.7686 61.9381 0.122 -0.480 -0.869 148 146 131
24.3809 29.7676 61.9872 0.136 -0.485 -0.864 147 147 129
25.1739 30.2821 63.1244 -0.280 -0.363 -0.889 144 142 127
29.1035 29.8256 63.4253 -0.220 -0.401 -0.889 134 133 115
29.3340 29.8558 63.5440 -0.321 -0.427 -0.845 131 128 109
30.0995 29.7135 63.5080 -0.343 -0.251 -0.905 119 116 99
30.2788 29.7043 63.5424 -0.301 -0.289 -0.909 100 99 81
30.3719 29.6318 63.4401 -0.367 -0.244 -0.897 106 104 89
32.0868 29.8902 64.3834 0.123 -0.278 -0.953 129 128 110
32.2762 29.8856 64.4287 0.090 -0.231 -0.969 94 93 75
32.3715 29.8144 64.3293 0.081 -0.159 -0.984 93 92 74
32.6285 29.8570 64.4776 0.201 -0.221 -0.954 89 88 70
32.8025 29.8411 64.4986 0.163 -0.058 -0.985 96 97 81
36.0316 30.1302 65.9244 0.618 -0.377 -0.690 59 71 61
36.2848 29.6310 65.1103 -0.440 0.195 -0.877 61 66 59
36.4653 29.6167 65.1358 -0.177 -0.461 -0.869 49 54 47
36.6461 29.6023 65.1616 -0.224 -0.381 -0.897 41 46 39
36.8083 29.5760 65.1608 0.047 -0.542 -0.839 37 40 33
37.1387 29.6570 65.3979 -0.285 -0.329 -0.900 43 46 39
38.7874 29.6590 65.8674 0.408 0.313 -0.858 60 61 53
-31.3616 43.8478 70.8822 -0.702 0.473 -0.533 79 101 99
-30.5845 43.2721 70.0836 -0.611 -0.447 -0.654 45 51 47
-30.4576 43.3335 70.2278 -0.618 -0.353 -0.703 45 51 47
-30.2795 43.2352 70.1041 -0.587 -0.375 -0.717 40 47 43
-30.1067 43.1521 70.0060 -0.587 -0.375 -0.717 40 47 43
-30.1409 43.7363 71.0286 -0.210 -0.235 -0.949 40 47 43
-29.3591 42.6218 69.2793 -0.778 -0.501 -0.378 38 46 42
-28.5068 42.1968 68.7680 -0.641 -0.310 -0.703 37 45 41
-28.3921 42.3061 68.9934 -0.513 0.165 -0.842 38 46 42
-28.2467 42.3087 69.0389 -0.405 0.308 -0.861 38 45 42
-28.0149 41.9976 68.5545 -0.533 -0.188 -0.825 39 47 46
-27.8553 41.9456 68.5075 -0.573 -0.076 -0.816 39 47 46
-27.6678 41.7894 68.2842 -0.658 -0.287 -0.696 39 46 46
-27.4968 41.6922 68.1606 -0.665 -0.330 -0.670 41 49 48
-27.3313 41.6142 68.0693 -0.706 -0.221 -0.673 42 50 49
-27.0273 41.5603 68.0595 -0.151 -0.603 -0.784 42 49 47
-26.8864 41.5774 68.1294 -0.353 -0.361 -0.863 44 51 48
-26.7472 41.6024 68.2127 -0.318 -0.059 -0.946 43 51 48
-26.2252 41.2518 67.7401 -0.674 -0.543 -0.500 39 47 44
-24.6893 40.8895 67.5319 -0.048 0.751 -0.659 54 62 61
-23.9796 40.2489 66.5997 -0.302 -0.031 -0.953 62 71 66
-23.8297 40.2215 66.5935 -0.320 0.026 -0.947 72 81 76
-23.1351 39.5791 65.6537 -0.286 -0.351 -0.892 75 86 83
-22.7307 39.7363 66.0452 -0.249 -0.029 -0.968 86 97 99
-22.5751 39.6691 65.9702 0.176 -0.194 -0.965 92 103 105
-22.4328 39.6827 66.0343 -0.596 -0.277 -0.754 120 131 133
-22.2775 39.6157 65.9596 -0.611 -0.339 -0.715 95 106 108
-21.9699 39.4971 65.8366 -0.498 -0.377 -0.781 50 57 57
-21.6571 39.3373 65.6423 -0.404 -0.607 -0.684 59 63 62
-21.5037 39.2746 65.5745 -0.416 -0.600 -0.683 65 69 68
-21.3388 39.1275 65.3611 -0.446 -0.552 -0.705 71 75 74
-20.2168 38.1852 64.0117 0.222 -0.183 -0.958 78 82 81
-19.7524 39.2382 66.0028 -0.151 0.585 -0.797 48 53 46
-17.4383 37.4077 63.4194 -0.013 -0.670 -0.742 86 91 85
-16.5634 37.0276 62.9939 -0.176 -0.435 -0.883 82 87 81
-15.9876 36.9541 63.0260 0.136 -0.243 -0.960 80 85 79
-15.4108 37.1091 63.4621 -0.471 -0.522 -0.712 83 88 81
-15.2658 37.0497 63.3979 -0.571 -0.363 -0.736 77 82 75
-15.1205 37.0465 63.4331 -0.455 -0.257 -0.852 75 80 73
-14.9759 36.9644 63.3287 -0.337 -0.181 -0.924 91 96 89
-14.8311 36.9232 63.2966 -0.368 -0.243 -0.898 80 85 78
-14.6868 36.8574 63.2210 -0.040 -0.316 -0.948 74 79 72
-13.1239 36.0194 62.1799 0.038 0.027 -0.999 88 93 87
-10.8379 35.5629 62.0164 0.238 -0.548 -0.802 122 118 117
-9.9440 35.6590 62.4375 0.361 -0.574 -0.735 64 61 57
-9.9156 34.8149 60.9540 -0.074 -0.400 -0.913 94 91 86
-9.4883 34.7622 60.9811 0.119 -0.330 -0.936 65 62 57
-9.3467 34.7382 60.9785 0.173 -0.433 -0.885 77 74 69
-9.2036 34.7233 60.9924 -0.121 -0.377 -0.918 97 94 89
-8.9311 34.6103 60.8695 -0.449 -0.391 -0.804 71 71 56
-6.4438 33.9079 60.3280 -0.261 -0.410 -0.874 119 112 106
-4.3278 33.5427 60.2779 -0.259 -0.516 -0.816 71 77 63
-4.1819 33.5338 60.3031 -0.300 -0.543 -0.784 69 75 61
-3.2393 34.1489 61.6551 0.213 0.208 -0.955 67 75 57
-2.5422 33.5084 60.7194 -0.309 -0.049 -0.950 71 85 59
-1.8040 33.0414 60.1019 0.045 -0.270 -0.962 51 58 42
4.1388 31.6907 59.3870 -0.397 -0.446 -0.802 34 33 29
5.2249 31.4175 59.2096 -0.181 -0.313 -0.933 31 31 29
5.3692 31.3984 59.2165 -0.183 -0.295 -0.938 32 32 30
5.5211 31.3919 59.2478 -0.167 -0.324 -0.931 33 33 31
6.0755 31.2756 59.1982 0.120 -0.424 -0.898 38 38 36
6.3746 31.2530 59.2424 0.131 -0.433 -0.892 64 64 62
7.2461 31.8854 60.6049 -0.142 -0.165 -0.976 54 54 54
8.8786 30.9718 59.4499 -0.261 -0.193 -0.946 122 116 101
9.6331 31.5878 60.7505 0.124 -0.172 -0.977 125 122 107
9.8713 31.4641 60.5989 0.394 -0.637 -0.662 116 113 98
10.3695 31.4754 60.7589 0.299 -0.259 -0.919 94 93 75
10.5341 31.4763 60.8069 0.299 -0.268 -0.916 93 92 74
11.2939 31.3920 60.8716 0.358 -0.034 -0.933 135 133 120
11.4626 31.3966 60.9272 0.366 -0.027 -0.930 137 134 125
11.5956 31.3544 60.8900 -0.071 0.221 -0.973 122 118 109
12.1750 31.2472 60.8635 -0.099 0.279 -0.955 98 93 87
12.9875 31.4298 61.4148 0.056 -0.219 -0.974 116 114 99
15.4914 30.4211 60.3368 -0.011 -0.148 -0.989 126 123 106
18.2641 31.0006 62.1405 -0.041 -0.577 -0.815 107 109 88
18.5258 30.9094 62.0529 -0.280 -0.428 -0.859 121 123 103
19.8662 30.6666 62.0009 0.310 -0.753 -0.580 123 128 103
21.2307 30.9517 62.8884 0.247 0.444 -0.861 94 98 76
21.9224 30.7556 62.7365 -0.306 -0.203 -0.930 120 114 98
22.0587 30.7148 62.7027 -0.310 -0.280 -0.908 128 121 105
22.2210 30.6980 62.7187 0.340 -0.397 -0.853 133 126 110
23.1027 30.1906 62.0703 -0.353 -0.518 -0.779 144 138 124
26.3054 29.8121 62.3022 -0.037 -0.689 -0.724 131 124 108
28.4434 30.0248 63.2794 0.055 -0.417 -0.907 123 122 104
29.0787 29.9307 63.2918 -0.014 -0.317 -0.948 126 123 106
29.3131 29.9642 63.4169 -0.221 -0.490 -0.843 125 122 103
32.7822 30.0929 64.6200 0.302 0.141 -0.943 96 95 77
34.3092 29.6466 64.2609 0.515 -0.641 -0.570 75 83 70
35.2927 30.1739 65.4693 0.574 -0.132 -0.808 91 100 89
36.4656 29.7472 65.0453 -0.440 0.195 -0.877 49 56 48
36.7714 29.6829 65.0177 -0.162 -0.128 -0.978 35 40 33
38.8250 29.9440 66.0565 0.673 -0.094 -0.734 53 54 48
-45.3697 48.1907 74.2788 -0.843 0.066 -0.534 125 145 148
-45.5416 48.9995 75.6538 -0.399 -0.828 -0.395 118 152 153
-29.5750 42.6034 68.8671 0.290 -0.118 -0.950 41 46 40
-27.9567 42.0215 68.2959 -0.697 -0.085 -0.712 42 46 45
-26.6438 42.0217 68.6638 -0.173 -0.385 -0.906 46 51 47
-26.4474 41.8168 68.3582 -0.461 -0.407 -0.788 45 49 46
-25.9572 40.9792 67.0215 -0.709 -0.342 -0.616 44 48 45
-25.7809 40.8409 66.8275 -0.661 -0.417 -0.624 44 49 45
-25.5959 40.6608 66.5625 -0.743 -0.344 -0.575 42 46 43
-24.9231 41.5706 68.3515 -0.035 0.758 -0.651 45 49 48
-24.4970 40.9266 67.3376 -0.248 0.657 -0.712 41 45 44
-23.9539 40.3844 66.5355 -0.350 -0.011 -0.937 52 61 58
-23.8110 40.3937 66.5918 -0.320 0.026 -0.947 60 69 66
-22.8405 39.8169 65.8485 0.394 -0.024 -0.919 86 96 97
-22.7129 39.9159 66.0583 -0.482 -0.409 -0.775 88 98 99
-22.5560 39.8414 65.9712 -0.114 -0.186 -0.976 89 99 101
-22.4057 39.8063 65.9515 -0.580 -0.277 -0.766 100 111 113
-22.2507 39.7406 65.8792 -0.503 -0.401 -0.765 70 80 82
-22.0967 39.6799 65.8156 -0.593 -0.274 -0.757 20 28 30
-21.9448 39.6319 65.7736 -0.501 -0.387 -0.774 43 52 51
-21.6359 39.4985 65.6253 -0.384 -0.638 -0.667 55 59 60
-20.1957 38.3452 63.9990 0.224 -0.181 -0.958 82 86 85
-19.7407 39.5055 66.1679 -0.153 0.585 -0.796 69 74 68
-15.9641 37.0830 62.9621 0.091 -0.318 -0.944 111 116 110
-15.8202 37.0882 63.0115 -0.150 -0.232 -0.961 107 112 106
-15.2421 37.2167 63.3994 -0.468 -0.414 -0.781 96 101 94
-15.0967 37.2187 63.4436 -0.385 -0.416 -0.824 98 103 96
-14.9513 37.1970 63.4461 -0.491 -0.325 -0.808 119 124 117
-14.8066 37.1282 63.3655 -0.513 -0.358 -0.780 118 123 116
-14.6622 37.0560 63.2790 -0.408 -0.319 -0.856 99 104 97
-13.6724 36.2663 62.1664 -0.024 0.113 -0.993 111 121 110
-11.3912 35.7619 61.9171 -0.229 -0.163 -0.960 86 87 81
-11.2500 35.7188 61.8808 0.022 -0.344 -0.939 85 87 80
-10.8164 35.6832 61.9395 0.249 -0.493 -0.834 121 117 116
-10.6677 35.7043 62.0183 0.240 -0.445 -0.863 86 82 81
-9.9203 35.7974 62.3912 0.277 -0.768 -0.577 65 62 57
-9.8934 34.9433 60.8959 -0.074 -0.400 -0.913 86 83 78
-9.7591 34.8703 60.8050 0.097 -0.351 -0.931 75 72 67
-6.4252 34.0224 60.2460 -0.245 -0.397 -0.885 92 83 78
-6.2837 34.0011 60.2480 -0.029 -0.272 -0.962 95 86 81
-6.1417 33.9815 60.2532 -0.039 -0.273 -0.961 80 71 66
-6.0051 33.9400 60.2185 -0.019 -0.199 -0.980 71 62 57
-5.8713 33.8877 60.1639 0.111 -0.044 -0.993 71 62 57
-5.7200 33.9043 60.2355 -0.004 -0.082 -0.997 71 63 57
-5.4523 33.8014 60.1293 -0.403 0.024 -0.915 71 68 63
-4.4424 33.7128 60.2561 0.146 -0.269 -0.952 77 81 69
-3.8062 34.3396 61.5370 0.608 -0.063 -0.791 59 68 51
-3.1504 34.4899 61.9849 0.226 0.565 -0.793 60 68 50
-2.5177 33.6463 60.6777 -0.382 -0.287 -0.878 84 98 72
-1.7905 33.1487 60.0054 0.072 -0.428 -0.901 47 56 39
-1.6578 33.1009 59.9586 0.004 -0.456 -0.890 55 62 46
-1.5376 33.0202 59.8502 -0.103 -0.353 -0.930 55 61 47
-1.2434 33.0026 59.9015 -0.367 -0.539 -0.758 55 61 48
5.2531 31.5587 59.1787 -0.173 -0.308 -0.936 46 46 44
5.3966 31.5382 59.1828 -0.314 -0.238 -0.919 36 36 34
5.5489 31.5323 59.2151 -0.215 -0.374 -0.902 36 36 34
7.1174 32.0331 60.5351 -0.369 -0.391 -0.843 53 53 51
7.2762 32.0310 60.5758 -0.142 -0.165 -0.976 38 38 38
7.4034 31.9787 60.5195 -0.011 -0.172 -0.985 30 30 30
7.5369 31.9367 60.4829 0.029 -0.222 -0.975 46 46 46
7.6803 31.9102 60.4764 -0.003 -0.205 -0.979 53 53 53
7.8247 31.8852 60.4728 -0.001 -0.212 -0.977 50 49 47
8.2760 31.8373 60.5148 -0.128 -0.169 -0.977 39 35 32
11.0775 31.6477 60.9652 -0.183 -0.079 -0.980 99 98 78
11.2488 31.6561 61.0278 -0.253 -0.182 -0.950 107 106 89
11.3968 31.6331 61.0287 -0.239 -0.182 -0.954 127 125 112
11.4690 31.5100 60.8324 0.223 -0.291 -0.930 133 129 120
14.1868 31.3580 61.3255 -0.462 -0.058 -0.885 137 138 122
16.7404 31.1559 61.6844 -0.126 -0.624 -0.771 127 124 105
18.4934 31.1709 62.2012 -0.024 -0.487 -0.873 104 105 88
18.6474 31.1486 62.2051 -0.019 -0.489 -0.872 106 107 90
21.7762 30.9052 62.6523 -0.183 -0.448 -0.875 115 115 95
21.9632 30.9115 62.7158 -0.176 -0.431 -0.885 118 114 95
22.1099 30.8803 62.7019 -0.176 -0.431 -0.885 129 122 106
22.2815 30.8720 62.7353 0.430 -0.556 -0.711 134 126 113
22.4658 30.8751 62.7924 0.406 -0.564 -0.719 138 131 115
22.6145 30.8455 62.7819 0.582 -0.422 -0.695 138 131 115
27.7715 30.0641 62.8500 0.395 -0.566 -0.724 149 148 128
28.4098 30.1220 63.1304 0.077 -0.472 -0.878 125 124 106
28.4457 30.0038 62.9325 0.264 -0.432 -0.862 133 132 114
29.0664 30.0450 63.1787 -0.042 -0.284 -0.958 111 108 91
32.3975 30.2263 64.4299 0.229 -0.187 -0.955 90 89 71
32.5700 30.2094 64.4484 0.290 -0.114 -0.950 100 99 81
33.2227 30.2531 64.7078 0.120 -0.249 -0.961 84 85 69
36.3198 30.3141 65.6819 -0.499 -0.096 -0.861 50 61 53
36.7743 29.8151 64.9311 -0.254 -0.170 -0.952 39 44 37
38.5511 30.5604 66.7395 -0.749 -0.279 -0.601 36 39 30
38.9875 30.7053 67.1167 0.486 0.053 -0.872 42 45 36
38.8330 30.0819 65.9765 0.695 -0.279 -0.663 52 55 48
-45.3786 48.4063 74.3193 -0.843 0.066 -0.534 118 139 142
-44.7977 47.8937 73.5829 -0.838 0.074 -0.540 118 152 151
-28.4078 42.3141 68.3683 -0.381 0.445 -0.810 40 44 43
-28.0195 41.9582 67.8528 0.147 0.169 -0.975 41 45 44
-27.8654 41.9223 67.8327 0.180 0.088 -0.980 41 45 44
-27.7260 41.9409 67.9041 0.016 0.145 -0.989 41 45 44
-27.5751 41.9175 67.9052 0.007 0.135 -0.991 41 45 44
-27.4325 41.9255 67.9590 -0.051 0.202 -0.978 45 47 44
-25.9476 41.1856 67.0758 -0.504 -0.449 -0.738 47 47 45
-25.7854 41.1086 66.9859 -0.428 -0.483 -0.764 46 47 44
-25.6286 41.0534 66.9330 -0.428 -0.483 -0.764 43 44 42
-24.8347 40.7204 66.5704 -0.286 -0.714 -0.639 42 44 41
-24.5652 40.8131 66.8079 0.418 0.085 -0.904 43 45 42
-24.4129 40.7758 66.7850 0.479 0.034 -0.877 43 45 42
-22.6947 40.0941 66.0687 -0.406 -0.069 -0.911 89 99 100
-22.5399 40.0329 66.0044 -0.406 -0.069 -0.911 83 93 95
-22.2253 39.8744 65.8144 -0.432 -0.277 -0.858 40 50 51
-22.0735 39.8273 65.7741 -0.423 -0.105 -0.900 12 20 22
-21.9209 39.7752 65.7253 -0.447 -0.264 -0.855 46 55 54
-21.7641 39.6928 65.6244 -0.486 -0.582 -0.652 51 57 57
-21.6087 39.6172 65.5354 -0.396 -0.550 -0.735 57 63 63
-20.6107 38.5808 63.9971 0.010 0.088 -0.996 80 86 84
-19.7451 38.4959 64.0893 -0.089 -0.021 -0.996 89 94 90
-19.5948 38.4244 64.0058 -0.314 0.224 -0.922 69 74 68
-18.7385 38.4942 64.3664 -0.579 0.239 -0.780 71 78 70
-16.6626 37.3916 63.0123 -0.547 -0.211 -0.810 104 109 103
-16.2290 37.2706 62.9210 0.289 -0.493 -0.821 125 130 124
-15.7991 37.4631 63.3780 0.045 -0.318 -0.947 117 122 116
-15.6541 37.4471 63.3904 0.045 -0.318 -0.947 117 122 116
-15.5089 37.4371 63.4133 -0.109 -0.314 -0.943 118 123 117
-15.2187 37.2991 63.2521 -0.278 -0.034 -0.960 117 122 115
-14.9284 37.2742 63.2893 -0.280 -0.263 -0.923 102 107 100
-14.7835 37.2306 63.2533 -0.463 -0.464 -0.755 95 100 93
-14.6391 37.1657 63.1798 -0.383 -0.304 -0.872 89 94 88
-14.4947 37.1135 63.1284 -0.439 -0.283 -0.852 89 94 87
-13.6485 36.4163 62.1424 -0.118 0.148 -0.982 101 108 100
-13.2292 36.1537 61.7988 -0.248 -0.714 -0.655 102 107 100
-12.9424 36.1332 61.8428 -0.267 -0.597 -0.757 106 108 103
-12.8026 36.0640 61.7606 -0.281 -0.540 -0.793 108 110 105
-12.6612 36.0227 61.7274 -0.286 -0.528 -0.799 110 112 107
-11.7840 36.1156 62.1344 -0.149 -0.066 -0.987 102 103 98
-11.4950 36.0861 62.1632 -0.054 -0.336 -0.940 97 98 92
-11.2268 35.8543 61.8317 0.022 -0.344 -0.939 93 94 88
-10.1940 35.9187 62.2320 0.238 -0.817 -0.526 95 91 90
-10.0403 35.9656 62.3572 0.034 -0.466 -0.884 88 84 81
-9.7501 35.9256 62.3677 -0.058 -0.078 -0.995 80 77 72
-9.6255 35.7647 62.1206 -0.694 -0.427 -0.580 69 66 61
-9.4819 35.7369 62.1117 -0.683 -0.428 -0.591 56 53 48
-9.2106 35.5807 61.9135 -0.304 -0.603 -0.738 92 89 84
-9.0688 35.5444 61.8894 -0.151 -0.597 -0.788 117 114 109
-8.7757 35.5292 61.9444 -0.024 -0.802 -0.597 82 84 65
-8.6302 35.5142 61.9587 -0.024 -0.802 -0.597 85 87 60
-6.6883 34.1849 60.1698 0.072 -0.307 -0.949 170 163 157
-6.5452 34.1709 60.1852 0.072 -0.307 -0.949 136 129 123
-6.4015 34.1589 60.2041 -0.267 -0.388 -0.882 99 92 86
-6.2619 34.1295 60.1915 -0.062 -0.283 -0.957 84 77 71
-6.1152 34.1289 60.2313 -0.295 -0.446 -0.845 75 68 62
-5.9776 34.0910 60.2032 -0.295 -0.446 -0.845 70 63 57
-3.1294 34.6184 61.9203 0.036 0.500 -0.865 54 62 43
-3.1004 34.2338 61.2545 -0.758 -0.546 -0.356 58 71 46
-2.5000 33.7643 60.5989 -0.390 -0.271 -0.880 52 66 40
-2.3654 33.7170 60.5534 -0.417 -0.194 -0.888 38 52 26
-1.5912 33.3514 60.1282 0.029 -0.289 -0.957 49 56 40
-0.3255 33.4802 60.7064 0.046 0.643 -0.764 34 37 30
5.4211 31.6731 59.1395 -0.314 -0.238 -0.919 44 44 42
5.5691 31.6598 59.1575 -0.215 -0.374 -0.902 44 44 42
5.8310 31.5762 59.0838 -0.095 -0.456 -0.885 73 73 71
5.9729 31.5527 59.0822 0.018 -0.520 -0.854 84 84 82
6.1120 31.5246 59.0717 -0.181 -0.321 -0.930 75 75 73
6.2545 31.5020 59.0717 -0.012 -0.552 -0.834 67 67 65
7.1530 32.1875 60.5231 -0.413 -0.385 -0.825 50 50 48
7.2899 32.1505 60.4963 -0.199 -0.601 -0.774 48 48 46
7.8571 32.0340 60.4501 -0.003 -0.205 -0.979 44 43 41
8.0207 32.0383 60.5032 0.053 -0.109 -0.993 36 32 29
8.3092 31.9872 60.4940 -0.142 -0.188 -0.972 36 32 29
11.2711 31.7907 60.9742 -0.261 -0.191 -0.946 94 92 78
11.4035 31.7468 60.9341 -0.000 -0.360 -0.933 113 111 99
11.9846 31.6404 60.9095 -0.245 -0.274 -0.930 115 108 100
12.1150 31.5947 60.8656 -0.253 -0.317 -0.914 96 89 83
19.5223 30.9049 61.7190 0.222 -0.836 -0.502 121 130 104
20.1169 30.9701 61.9988 0.375 -0.760 -0.531 103 113 86
21.1733 31.3039 62.8779 0.346 0.087 -0.934 100 110 83
21.7207 30.9707 62.4464 -0.129 -0.520 -0.844 117 118 96
21.9404 31.0082 62.5732 -0.280 -0.257 -0.925 118 114 95
22.0781 30.9688 62.5425 -0.280 -0.257 -0.925 128 121 105
22.5989 31.1162 62.9458 0.630 -0.215 -0.746 138 130 117
25.4752 30.4323 62.5481 -0.496 -0.537 -0.682 120 121 105
27.6279 30.0732 62.5181 0.042 -0.217 -0.975 153 152 132
28.7435 30.2112 63.0706 -0.092 -0.384 -0.919 124 123 105
28.8972 30.1840 63.0657 -0.243 -0.100 -0.965 110 107 90
29.0949 30.1904 63.1319 0.177 -0.516 -0.838 98 95 78
31.2363 30.3591 64.0237 0.091 0.073 -0.993 108 109 93
33.7436 30.4688 64.9140 0.547 -0.265 -0.794 82 85 68
36.3774 30.4834 65.6729 -0.217 0.059 -0.974 49 60 52
37.5452 30.4452 65.9310 -0.165 -0.037 -0.986 39 45 35
38.9873 30.8396 67.0236 0.554 -0.072 -0.829 42 45 36
40.2506 30.7088 67.1460 0.671 -0.370 -0.642 69 75 67
42.2452 31.0161 68.2398 0.007 -0.494 -0.870 79 97 76
-45.3874 48.6223 74.3599 -0.843 0.066 -0.534 98 120 123
-27.0781 41.9158 67.7273 -0.398 0.154 -0.904 43 45 42
-26.0960 41.4505 67.1874 -0.632 -0.275 -0.724 48 48 46
-25.2952 41.1050 66.8063 -0.388 -0.215 -0.896 44 46 43
-25.1486 41.0947 66.8289 -0.616 -0.228 -0.754 38 40 37
-24.0972 40.9130 66.8031 -0.317 -0.527 -0.788 39 44 42
-22.6784 40.2837 66.0979 -0.393 0.032 -0.919 79 87 89
-22.5234 40.2220 66.0331 -0.392 0.033 -0.919 70 78 80
-21.8967 39.9157 65.6721 -0.443 -0.096 -0.891 47 56 55
-21.7395 39.8303 65.5667 -0.466 -0.279 -0.839 54 63 62
-18.8257 38.2241 63.5706 -0.028 -0.027 -0.999 73 78 72
-17.9823 38.5109 64.3048 -0.051 0.366 -0.929 71 82 68
-17.3662 37.7858 63.2100 -0.041 -0.204 -0.978 99 106 99
-17.2224 37.7777 63.2356 -0.045 -0.211 -0.976 116 121 117
-15.6306 37.6062 63.3773 0.017 -0.248 -0.969 114 116 113
-15.4854 37.5913 63.3914 -0.017 -0.180 -0.983 99 101 98
-15.1951 37.4527 63.2301 -0.146 0.054 -0.988 106 111 105
-15.0500 37.4360 63.2411 0.196 -0.142 -0.970 96 101 95
-14.9045 37.4345 63.2788 -0.198 -0.049 -0.979 89 94 88
-14.7598 37.3775 63.2194 -0.400 -0.231 -0.887 68 75 68
-14.6155 37.3058 63.1342 -0.421 -0.270 -0.866 72 79 72
-14.4710 37.2594 63.0933 -0.421 -0.289 -0.860 97 102 96
-13.7537 36.9433 62.7403 -0.456 -0.417 -0.787 94 96 91
-13.6236 36.5891 62.1582 -0.143 0.131 -0.981 91 95 89
-11.2035 35.9897 61.7825 0.022 -0.344 -0.939 98 99 93
-10.0201 36.0775 62.2634 0.049 -0.464 -0.885 102 101 97
-9.8794 36.0271 62.2145 0.046 -0.507 -0.861 99 98 94
-9.7250 36.0740 62.3391 -0.142 -0.445 -0.884 89 88 84
-9.6018 35.9030 62.0747 -0.675 -0.548 -0.495 79 78 74
-9.4598 35.8648 62.0474 -0.688 -0.534 -0.491 66 65 61
-8.6173 35.5897 61.8007 -0.058 -0.788 -0.614 96 98 75
-8.4783 35.5383 61.7496 -0.330 -0.528 -0.782 113 116 92
-7.0589 35.2079 61.5660 -0.192 0.369 -0.909 76 69 61
-6.9235 35.1457 61.4951 -0.188 0.360 -0.914 78 71 65
-6.3758 34.3036 60.1772 -0.105 -0.457 -0.883 91 84 78
-6.2378 34.2675 60.1524 -0.099 -0.481 -0.871 78 71 65
-6.0930 34.2592 60.1780 -0.276 -0.466 -0.840 73 66 60
-5.0088 35.0047 61.7793 0.279 -0.699 -0.658 72 69 64
-5.1010 34.1067 60.1866 -0.186 -0.609 -0.771 71 68 63
-4.1273 33.8852 60.0698 -0.276 -0.515 -0.812 53 57 42
-3.0631 34.4122 61.2843 -0.761 -0.522 -0.384 47 57 35
-2.9686 34.2362 61.0033 0.209 0.105 -0.972 46 58 35
-1.5632 33.4982 60.1045 -0.079 -0.248 -0.965 42 49 33
-0.6682 33.0803 59.6232 -0.208 -0.019 -0.978 40 43 36
5.3350 31.8852 59.2004 -0.153 0.199 -0.968 49 49 47
5.4457 31.8080 59.0962 -0.314 -0.238 -0.919 45 45 43
5.5892 31.7873 59.0999 -0.215 -0.374 -0.902 45 45 45
5.8486 31.6994 59.0183 -0.095 -0.456 -0.885 39 39 37
5.9883 31.6723 59.0097 0.018 -0.520 -0.854 37 37 35
6.1303 31.6491 59.0085 0.009 -0.544 -0.839 40 40 38
6.2765 31.6328 59.0206 0.009 -0.544 -0.839 42 42 40
7.0440 32.3670 60.5144 -0.303 -0.488 -0.819 37 37 35
7.1596 32.2956 60.4219 -0.313 -0.506 -0.804 47 47 45
7.2867 32.2432 60.3655 -0.208 -0.591 -0.779 54 54 52
7.4157 32.1941 60.3156 -0.163 -0.626 -0.763 62 62 62
8.6280 32.0813 60.4545 -0.054 -0.044 -0.998 60 56 53
8.7952 32.0896 60.5153 0.050 -0.035 -0.998 85 81 78
8.5128 31.4333 59.2919 -0.399 -0.540 -0.741 107 104 98
11.1269 31.9231 60.8707 0.013 0.104 -0.995 98 96 81
11.2853 31.9142 60.8991 -0.010 0.093 -0.996 87 83 71
11.4140 31.8655 60.8497 0.024 0.095 -0.995 89 85 74
15.0254 31.5665 61.3282 -0.291 -0.226 -0.930 137 136 116
19.5586 31.0557 61.6922 0.067 -0.763 -0.643 126 138 110
19.7317 31.0532 61.7358 0.079 -0.710 -0.700 124 137 109
19.9127 31.0582 61.7947 0.099 -0.694 -0.713 102 115 87
20.0990 31.0680 61.8633 0.351 -0.751 -0.560 99 112 84
21.2669 31.3387 62.6593 0.418 -0.700 -0.579 103 116 86
21.4724 31.3636 62.7597 -0.016 -0.690 -0.723 122 135 105
21.5906 31.3049 62.6899 -0.056 -0.690 -0.722 122 134 106
21.7390 31.1054 62.3829 -0.095 -0.535 -0.839 124 125 103
21.9769 31.1602 62.5444 -0.287 -0.198 -0.937 128 124 105
22.7718 31.3947 63.1738 0.717 -0.260 -0.647 140 133 117
25.4609 30.5406 62.4281 -0.527 -0.473 -0.705 121 122 106
25.8782 30.1243 61.8171 -0.222 -0.679 -0.700 142 135 119
27.6647 30.2241 62.4861 0.042 -0.217 -0.975 160 159 139
28.7834 30.3653 63.0425 -0.404 -0.058 -0.913 124 122 107
28.8958 30.3062 62.9705 -0.130 -0.524 -0.842 107 104 87
29.1055 30.3221 63.0562 0.256 -0.558 -0.789 94 91 74
29.4926 30.3281 63.1739 0.416 -0.258 -0.872 88 87 67
38.7248 30.6729 66.3326 -0.688 -0.271 -0.674 51 54 45
39.3482 30.5411 66.2754 0.780 -0.287 -0.556 54 57 50
41.5221 31.6374 68.7907 0.785 -0.270 -0.558 70 76 68
42.2762 31.1725 68.1883 -0.146 -0.378 -0.914 69 84 64
-28.3992 43.2797 69.4228 0.021 0.763 -0.646 30 34 33
-28.2318 43.2067 69.3420 0.021 0.763 -0.646 30 34 33
-27.8334 42.2755 67.8334 -0.153 0.392 -0.907 30 34 33
-27.5397 42.2597 67.8869 -0.301 0.505 -0.809 30 34 33
-27.0586 42.0804 67.7079 -0.338 0.061 -0.939 36 38 35
-25.6007 41.4324 66.9833 0.003 0.240 -0.971 35 37 34
-25.4445 41.3804 66.9360 -0.581 -0.015 -0.813 36 38 35
-25.2938 41.3529 66.9298 -0.742 -0.121 -0.659 37 39 36
-22.6477 40.3863 65.9791 0.202 0.277 -0.940 72 80 82
-22.5005 40.3723 65.9953 0.198 0.280 -0.939 60 68 70
-20.2470 39.8600 65.7259 0.062 -0.796 -0.602 75 81 79
-20.0919 39.7777 65.6256 -0.475 -0.578 -0.664 82 88 86
-19.9478 39.7988 65.7019 -0.617 -0.664 -0.422 80 86 84
-19.6932 38.7279 63.9110 -0.093 -0.321 -0.943 72 76 75
-19.4934 39.6463 65.5622 -0.487 -0.798 -0.355 63 68 62
-18.7984 38.3154 63.4406 -0.219 -0.135 -0.966 65 70 64
-18.6512 38.2592 63.3834 -0.110 -0.426 -0.898 69 76 68
-17.9637 38.7352 64.4003 -0.040 0.356 -0.933 75 86 72
-17.4853 37.9097 63.0973 0.021 -0.305 -0.952 66 73 66
-17.3409 37.8852 63.0946 -0.099 -0.350 -0.931 99 106 99
-17.1963 37.8547 63.0814 -0.137 -0.299 -0.944 116 122 118
-16.6158 37.6670 62.9151 -0.266 0.067 -0.962 119 125 121
-13.7310 37.0597 62.6547 -0.518 -0.287 -0.806 92 92 90
-13.5848 37.0769 62.7248 -0.053 0.271 -0.961 110 110 108
-13.1721 36.6219 62.0477 -0.251 0.102 -0.963 95 96 91
-13.0269 36.6299 62.1017 -0.095 -0.077 -0.992 95 96 90
-12.8311 37.4509 63.5824 -0.367 -0.753 -0.547 94 95 89
-12.6845 37.4285 63.5840 -0.428 -0.741 -0.518 90 91 83
-9.8610 36.1267 62.0994 0.288 -0.700 -0.653 95 95 92
-9.7054 36.1830 62.2403 0.066 -0.692 -0.719 83 83 81
-9.5783 36.0395 62.0258 -0.707 -0.529 -0.470 74 74 72
-8.4543 35.6777 61.7068 -0.151 -0.473 -0.868 120 124 108
-7.1387 35.5610 61.8664 -0.369 0.102 -0.924 71 64 58
-6.2201 34.3785 60.0644 -0.179 -0.472 -0.863 70 65 59
-6.0751 34.3715 60.0923 -0.297 -0.455 -0.840 71 66 60
-5.1636 35.0371 61.5002 0.290 -0.692 -0.661 76 72 69
-4.2426 34.0523 60.0424 -0.308 -0.416 -0.855 83 85 74
-4.0953 34.0485 60.0765 -0.046 -0.361 -0.931 73 76 64
-3.7764 34.6126 61.1447 -0.016 -0.723 -0.691 66 69 57
-3.6103 34.6618 61.2760 -0.066 -0.792 -0.608 53 57 45
-3.4479 34.6972 61.3824 -0.091 -0.863 -0.497 53 56 44
-2.8891 34.5436 61.2692 -0.306 -0.642 -0.703 48 54 37
-2.7407 34.5325 61.2909 -0.454 -0.775 -0.439 50 57 40
-0.6191 33.2787 59.6964 -0.036 0.015 -0.999 41 44 35
-0.4732 33.2658 59.7142 -0.066 0.001 -0.998 33 36 27
2.5169 32.7861 59.7045 -0.258 -0.246 -0.934 41 40 36
5.6093 31.9148 59.0423 -0.215 -0.374 -0.902 29 29 29
6.0191 31.8176 58.9864 0.027 -0.457 -0.889 25 25 25
6.1717 31.8119 59.0184 0.083 -0.403 -0.911 25 25 25
6.3301 31.8154 59.0682 0.087 -0.399 -0.913 25 25 23
6.4791 31.8031 59.0878 0.087 -0.399 -0.913 24 24 22
7.0874 32.5344 60.5266 -0.263 -0.322 -0.909 28 28 26
7.2017 32.4606 60.4298 -0.313 -0.462 -0.830 36 36 34
