ply
format ascii 1.0
element vertex 894
property float x
property float y
property float z
property float nx
property float ny
property float nz
property uchar diffuse_red
property uchar diffuse_green
property uchar diffuse_blue
end_header
23.4388 37.2107 61.1070 0.399 -0.151 -0.904 82 83 69
23.5648 37.1999 61.1697 0.406 -0.140 -0.903 83 84 69
25.8903 36.8383 61.9150 0.347 0.187 -0.919 84 87 70
27.9842 36.3443 62.1583 0.464 0.034 -0.885 75 79 59
29.3666 35.9717 62.2008 0.049 -0.602 -0.797 70 81 62
29.5567 36.1355 62.7528 0.550 0.570 -0.610 70 82 62
31.8608 35.7439 63.4067 0.778 0.277 -0.564 73 89 71
31.9505 35.7730 63.5448 0.778 0.277 -0.564 76 90 73
33.5364 35.2558 63.3656 0.364 0.206 -0.908 41 49 30
33.6888 35.2098 63.3578 0.046 0.062 -0.997 43 50 32
34.9429 35.2191 64.2786 0.137 -0.127 -0.982 22 27 12
35.0737 35.1994 64.3221 0.554 -0.083 -0.828 64 68 53
35.2288 35.1485 64.3039 0.596 -0.113 -0.795 71 75 60
35.3249 35.1731 64.4350 0.754 -0.077 -0.653 55 59 44
35.4362 35.1783 64.5279 0.570 -0.092 -0.817 17 21 7
35.6669 35.1789 64.6943 0.561 -0.109 -0.821 31 35 20
35.7765 35.1868 64.7930 0.506 -0.125 -0.853 23 27 12
38.2073 35.3893 67.0463 0.680 0.368 -0.635 30 39 18
38.3225 35.3944 67.1416 0.617 0.460 -0.639 26 35 14
38.4303 35.4105 67.2597 -0.016 0.128 -0.992 43 52 33
38.6232 35.3009 67.1191 0.053 0.150 -0.987 39 48 29
39.2638 35.0500 66.9402 0.452 -0.640 -0.621 89 93 78
40.1718 35.4944 68.7184 -0.082 -0.122 -0.989 41 53 31
40.3350 35.4258 68.6609 -0.081 -0.143 -0.986 36 48 26
40.4434 35.4454 68.7884 -0.002 -0.017 -1.000 28 40 18
41.2691 35.0755 68.4397 0.233 0.191 -0.954 29 43 18
41.4209 35.0219 68.4119 0.180 0.147 -0.973 33 49 22
42.6049 35.0538 69.3400 0.366 0.124 -0.922 48 54 34
43.6841 35.3110 70.7654 0.331 0.421 -0.844 82 92 68
44.5166 35.3706 71.5121 0.564 -0.472 -0.677 72 85 57
44.7342 35.4323 71.8246 0.132 -0.128 -0.983 85 100 71
44.9013 35.3434 71.7184 0.777 0.107 -0.621 77 90 64
48.7250 35.1827 74.0455 0.771 -0.124 -0.624 51 79 31
48.8513 35.1833 74.1374 0.511 -0.105 -0.853 51 79 31
49.5813 35.2752 74.8930 0.386 0.038 -0.922 65 85 50
53.5129 35.6226 78.5880 0.623 -0.393 -0.676 42 47 50
53.6347 35.6722 78.8012 0.643 -0.158 -0.749 46 50 53
54.4177 35.7522 79.5646 0.355 0.169 -0.919 46 47 47
54.5453 35.7856 79.7405 0.596 0.045 -0.802 49 49 47
54.6781 35.7921 79.8520 0.591 0.041 -0.805 50 49 47
55.0859 35.7628 80.0694 0.469 -0.280 -0.838 89 89 87
55.4813 35.8140 80.4823 0.771 -0.354 -0.529 137 139 134
55.8542 36.0361 81.3132 0.833 -0.225 -0.506 112 114 107
56.1199 36.0853 81.6283 0.848 -0.118 -0.516 102 104 99
56.3799 36.1892 82.0781 0.396 -0.251 -0.884 99 104 100
56.5234 36.1400 82.0558 0.399 0.030 -0.916 106 112 108
59.0104 36.1607 83.8875 0.442 0.054 -0.896 114 126 122
59.1504 36.1481 83.9558 0.442 0.054 -0.896 112 127 122
59.4279 36.1931 84.2684 0.167 0.645 -0.746 121 136 131
60.1348 35.8592 83.9261 0.355 -0.091 -0.930 130 147 141
60.2734 35.9074 84.1477 -0.028 -0.708 -0.705 132 149 143
60.6916 36.6873 86.4276 0.494 0.693 -0.525 137 154 148
61.1225 36.7828 86.9785 0.525 0.473 -0.708 138 157 151
61.9942 36.9509 88.0290 0.900 -0.112 -0.422 136 153 150
67.3533 37.9793 94.4747 -0.603 -0.276 -0.749 80 81 73
67.4923 37.8986 94.3692 -0.542 0.404 -0.737 86 87 79
-10.6297 47.3622 62.0401 0.225 -0.504 -0.834 33 48 41
-10.4221 47.3133 62.0647 0.482 -0.493 -0.725 21 34 27
-10.3254 47.3342 62.1865 0.338 -0.613 -0.714 17 30 23
-3.6166 44.8192 60.6215 0.056 0.071 -0.996 66 79 72
-3.4953 44.8214 60.7137 0.046 0.038 -0.998 46 59 52
-2.5411 44.6023 60.8413 -0.065 0.270 -0.961 41 50 49
-0.1362 43.6527 60.1590 -0.246 -0.531 -0.811 69 80 76
-0.3527 43.8821 60.5840 0.022 -0.059 -0.998 64 71 71
0.5375 43.4447 60.1144 0.250 -0.257 -0.934 60 66 64
0.6901 43.4240 60.1710 0.359 -0.134 -0.924 58 64 62
1.5584 43.1636 60.1331 -0.127 -0.055 -0.990 59 65 63
2.1309 43.0206 60.1804 0.420 0.151 -0.895 57 66 62
2.3171 43.0601 60.4132 0.666 0.131 -0.734 65 71 67
2.7533 42.8416 60.1726 -0.107 0.176 -0.978 60 66 62
3.0621 42.7110 60.0630 0.004 0.105 -0.995 66 72 69
5.5559 41.7159 59.3290 0.199 -0.081 -0.977 68 69 71
5.7181 41.6850 59.3668 0.197 -0.093 -0.976 61 61 64
5.9651 41.7635 59.7414 0.267 0.226 -0.937 52 57 53
6.1861 41.6904 59.7147 0.739 -0.217 -0.637 45 50 46
7.0499 41.4966 59.8416 -0.017 -0.436 -0.900 51 68 52
7.2260 41.4550 59.8624 0.072 -0.179 -0.981 53 67 52
8.2790 41.0320 59.5451 0.567 0.057 -0.822 61 73 61
8.3985 41.0308 59.6276 0.567 0.057 -0.822 64 72 61
8.5984 40.9706 59.6181 0.285 -0.129 -0.950 64 72 61
9.7654 40.7166 59.8096 0.036 0.152 -0.988 76 71 65
11.4015 40.1005 59.4208 0.280 -0.230 -0.932 63 65 64
11.5486 40.0772 59.4670 0.307 -0.286 -0.908 68 70 69
12.3988 39.9614 59.7817 0.524 -0.421 -0.741 60 62 57
12.4944 39.9779 59.8914 0.543 -0.405 -0.735 61 63 58
12.6101 39.9788 59.9764 0.543 -0.405 -0.735 65 67 64
12.7854 39.9333 59.9865 0.259 -0.442 -0.859 90 91 86
14.3042 39.3791 59.6706 0.429 0.120 -0.896 73 72 67
14.3455 39.4384 59.8498 0.401 -0.074 -0.913 69 68 63
14.9318 39.3408 60.0219 0.130 -0.003 -0.992 80 79 74
17.1734 38.7383 60.0999 0.712 -0.349 -0.610 96 91 87
17.2819 38.7439 60.1917 0.333 -0.134 -0.933 72 67 63
17.4025 38.7397 60.2671 0.303 -0.065 -0.951 79 74 70
17.5210 38.7372 60.3455 -0.136 -0.232 -0.963 91 86 82
17.8146 38.6847 60.4225 -0.027 -0.196 -0.980 78 74 71
18.7994 38.3384 60.2504 0.155 -0.126 -0.980 76 72 69
20.7540 37.9371 60.6321 0.375 -0.004 -0.927 100 97 88
21.1504 38.0975 61.3205 0.149 0.023 -0.989 83 80 71
21.3205 38.0486 61.3183 0.064 0.073 -0.995 84 81 72
21.6321 37.9760 61.3573 0.047 0.115 -0.992 91 88 79
23.3113 37.2785 60.7937 0.165 -0.491 -0.855 81 81 69
23.3489 37.3497 61.0005 0.630 0.122 -0.767 79 80 67
23.5590 37.2603 60.9246 0.217 -0.557 -0.802 83 84 69
24.6963 37.3799 62.0391 0.280 0.138 -0.950 120 115 109
27.9031 36.4725 62.0357 0.459 -0.273 -0.845 93 95 77
28.0257 36.4640 62.1018 0.595 -0.216 -0.774 90 92 75
28.1801 36.4223 62.1068 0.503 -0.107 -0.858 89 91 75
29.7055 36.0148 62.1661 0.121 -0.619 -0.776 91 99 81
29.8293 36.5055 63.4944 0.571 0.012 -0.821 66 78 56
34.1634 35.2130 63.3232 0.374 0.299 -0.878 34 44 25
34.8980 35.2968 64.0594 0.038 -0.369 -0.929 64 73 56
34.9927 35.3227 64.1926 0.096 -0.237 -0.967 26 35 18
35.0753 35.3645 64.3570 0.182 0.023 -0.983 65 73 57
35.2532 35.2842 64.2811 0.673 -0.021 -0.739 88 95 77
35.4641 35.3097 64.4964 0.561 -0.082 -0.824 25 29 14
35.5973 35.2868 64.5335 0.695 -0.053 -0.717 30 34 20
35.6966 35.3081 64.6581 0.656 -0.140 -0.742 36 40 25
35.7953 35.3305 64.7853 0.537 -0.167 -0.827 16 23 8
36.0229 35.3361 64.9621 0.705 -0.162 -0.690 58 65 47
38.3032 35.5982 67.2526 0.635 0.486 -0.600 27 36 17
38.4759 35.5187 67.1750 0.041 0.132 -0.990 33 42 23
38.6371 35.4557 67.1308 0.033 0.121 -0.992 32 41 24
41.2782 35.2414 68.4752 0.233 0.191 -0.954 32 46 21
41.4326 35.1833 68.4385 0.180 0.147 -0.973 28 44 17
41.8215 35.1334 68.5900 0.522 0.258 -0.813 75 84 65
42.1988 35.1034 68.7837 0.640 -0.218 -0.737 48 57 38
42.7648 35.1685 69.3525 0.446 -0.400 -0.801 62 67 45
44.0778 35.4544 71.0123 0.817 0.030 -0.575 91 101 76
44.6757 35.4935 71.5381 0.573 -0.487 -0.659 69 83 57
44.7826 35.5284 71.7028 0.301 -0.283 -0.911 76 90 64
44.9247 35.4909 71.7093 0.292 -0.250 -0.923 71 85 59
45.1996 35.4344 71.7628 -0.001 0.179 -0.984 35 50 20
47.2863 35.5230 73.4767 0.188 0.281 -0.941 50 76 31
47.4392 35.4566 73.4181 0.067 0.163 -0.984 44 70 25
47.5610 35.4673 73.5320 0.119 0.228 -0.966 37 63 18
47.7654 35.5895 73.9869 -0.136 0.059 -0.989 39 65 20
48.8892 35.2957 74.0469 0.555 -0.111 -0.824 52 80 32
49.2457 35.3631 74.4716 0.211 -0.648 -0.732 66 85 52
49.3381 35.4633 74.7910 0.366 -0.063 -0.929 66 85 55
49.4814 35.4176 74.7778 0.382 -0.029 -0.924 66 85 53
50.3510 35.4989 75.6042 0.329 -0.218 -0.919 99 110 102
50.6617 35.7481 76.4557 0.699 -0.334 -0.632 81 91 82
50.8078 35.6940 76.4232 0.717 -0.104 -0.689 81 91 82
53.0063 35.7962 78.2515 0.304 0.154 -0.940 42 52 51
53.8086 35.7588 78.7298 0.434 -0.526 -0.731 42 46 49
54.7016 35.9702 79.9017 0.585 -0.023 -0.810 59 58 56
55.1149 35.9105 80.0458 0.424 -0.294 -0.857 105 105 103
55.2514 35.8977 80.1110 0.445 -0.301 -0.844 96 96 94
55.3806 35.9308 80.2869 0.655 -0.185 -0.732 114 116 113
55.5167 35.9217 80.3610 0.746 -0.216 -0.630 136 138 133
55.7552 36.1334 81.0663 0.939 -0.215 -0.269 111 114 107
56.2739 36.3277 81.9277 0.819 -0.229 -0.526 113 118 114
56.5473 36.3360 82.1438 0.206 -0.024 -0.978 107 113 109
58.7703 36.1681 83.3068 0.890 -0.211 -0.404 123 135 131
58.9067 36.2087 83.5070 0.888 -0.190 -0.419 119 131 127
59.0420 36.2818 83.7882 0.314 -0.332 -0.889 114 126 122
59.1826 36.2553 83.8217 0.309 -0.296 -0.904 112 127 122
59.8545 37.3087 86.9634 0.874 -0.486 0.007 130 145 140
60.2808 37.8807 88.7131 -0.084 -0.956 -0.282 134 149 144
62.0145 36.8124 87.2515 0.965 0.090 -0.246 139 152 150
63.0442 37.0762 88.6533 0.368 0.751 -0.548 99 97 89
-10.6042 47.5316 62.0106 -0.019 -0.422 -0.907 37 52 45
-10.3618 47.4605 62.0047 0.482 -0.493 -0.725 19 34 27
-10.1745 47.4241 62.0467 0.348 -0.593 -0.726 15 29 22
-9.7280 47.3880 62.2742 -0.163 -0.219 -0.962 29 50 35
-6.8846 46.0611 60.9642 -0.453 -0.220 -0.864 40 54 41
-6.0917 45.7126 60.6532 0.407 -0.637 -0.654 12 26 13
-3.6868 45.0428 60.6833 -0.010 -0.262 -0.965 77 93 83
-3.5510 45.0357 60.7620 -0.056 -0.429 -0.902 51 64 57
-3.3389 44.9780 60.7681 0.020 -0.477 -0.879 42 55 48
-0.3458 44.0524 60.5741 0.022 -0.059 -0.998 72 80 79
0.4827 43.6555 60.1667 0.330 -0.395 -0.857 60 66 64
1.6689 43.2602 60.0181 0.152 -0.369 -0.917 58 64 62
2.7263 43.0325 60.1993 -0.152 0.213 -0.965 67 73 72
6.0895 41.7575 59.3904 0.300 0.306 -0.904 54 59 55
6.0452 41.8748 59.6539 0.331 0.097 -0.939 51 56 52
6.4903 41.8117 59.8126 -0.053 -0.012 -0.999 40 45 41
7.2559 41.6016 59.8298 0.079 -0.424 -0.902 52 67 50
7.2693 41.6789 60.0339 -0.166 -0.528 -0.833 58 74 56
7.7238 41.4331 59.7396 0.183 0.191 -0.964 58 76 58
7.7700 41.4864 59.9066 0.111 0.193 -0.975 61 75 60
8.5629 41.1638 59.6606 0.276 -0.092 -0.957 65 71 61
11.2935 40.4375 59.7804 -0.061 -0.403 -0.913 79 81 80
12.3982 40.1269 59.7869 0.339 -0.331 -0.880 73 75 70
12.5350 40.1114 59.8454 0.339 -0.331 -0.880 63 65 60
12.6690 40.0980 59.9073 0.333 -0.341 -0.879 86 88 85
12.8133 40.0766 59.9564 0.166 -0.513 -0.842 114 115 110
14.2070 39.6201 59.8019 0.451 -0.000 -0.892 75 74 69
14.4780 39.5893 59.9176 0.394 -0.004 -0.919 63 62 57
21.3702 38.1671 61.2539 0.040 -0.078 -0.996 83 81 69
21.5323 38.1251 61.2637 0.040 -0.078 -0.996 82 80 68
21.7037 38.0743 61.2582 0.111 -0.070 -0.991 82 80 68
21.8848 38.0145 61.2370 0.226 0.007 -0.974 85 83 71
22.0347 37.9830 61.2645 0.237 0.014 -0.971 87 85 73
22.1798 37.9558 61.2996 0.237 0.014 -0.971 81 79 67
22.3227 37.9305 61.3379 0.226 0.007 -0.974 83 84 70
22.9058 37.4983 60.6668 0.006 -0.343 -0.939 92 93 79
23.2408 37.3993 60.6565 0.358 -0.646 -0.674 99 100 86
23.3765 37.3791 60.7024 0.113 -0.765 -0.634 81 82 68
25.1461 37.4434 62.1253 0.271 0.141 -0.952 97 92 83
26.0154 37.0399 61.7303 0.477 -0.245 -0.844 98 99 85
26.1434 37.0266 61.7882 0.349 -0.270 -0.897 85 86 72
27.7895 36.6343 61.9751 0.486 -0.346 -0.803 105 105 88
27.9265 36.6109 62.0137 0.473 -0.265 -0.841 105 103 88
28.0619 36.5890 62.0552 0.481 -0.250 -0.840 107 105 92
29.8383 36.6613 63.5030 0.571 0.012 -0.821 69 78 57
32.3816 35.8687 63.3229 0.737 -0.154 -0.658 69 77 60
33.2300 35.6786 63.4496 0.377 -0.410 -0.830 72 86 65
33.5965 35.5123 63.2927 0.128 0.327 -0.936 68 82 61
33.9084 35.4105 63.2591 -0.048 0.345 -0.937 80 95 74
34.0729 35.3487 63.2208 0.099 0.398 -0.912 82 96 75
34.8017 35.4395 63.9686 0.580 -0.616 -0.534 66 79 61
34.9052 35.4543 64.0795 0.579 -0.608 -0.543 77 89 72
35.3349 35.4952 64.4887 0.452 -0.207 -0.868 66 73 55
35.4554 35.4890 64.5589 0.188 -0.265 -0.946 34 41 23
35.7184 35.4477 64.6425 0.545 -0.277 -0.791 42 49 33
35.8294 35.4541 64.7377 0.553 -0.269 -0.789 12 19 5
35.9387 35.4628 64.8376 0.671 -0.152 -0.726 67 74 58
36.0475 35.4725 64.9394 0.742 -0.183 -0.645 71 79 62
38.6635 35.5920 67.1045 0.001 0.128 -0.992 27 36 19
38.9931 35.2746 66.5412 0.484 -0.567 -0.666 29 36 22
39.3103 35.3301 66.9068 0.579 -0.266 -0.770 65 76 60
39.4353 35.3196 66.9696 0.582 -0.265 -0.769 62 72 56
39.5524 35.3214 67.0575 0.582 -0.265 -0.769 49 59 43
41.2873 35.4076 68.5108 0.233 0.191 -0.954 33 47 22
41.8163 35.3248 68.6795 0.579 0.357 -0.733 60 70 50
42.2292 35.2332 68.7434 0.633 -0.193 -0.749 45 57 37
42.7826 35.3219 69.3609 0.637 -0.335 -0.694 65 72 49
43.0041 35.3600 69.6147 0.085 -0.505 -0.859 44 52 28
43.6610 35.7389 71.0355 -0.428 -0.313 -0.848 79 89 62
43.8204 35.6685 70.9721 -0.418 -0.323 -0.849 75 85 58
44.1308 35.5418 70.8748 0.197 -0.391 -0.899 80 90 65
44.3812 35.5333 71.0318 0.732 -0.424 -0.533 44 57 31
44.7273 35.5826 71.4025 0.730 -0.443 -0.520 57 72 46
44.8180 35.6514 71.6401 0.291 -0.273 -0.917 63 77 51
44.9525 35.6294 71.6806 0.292 -0.250 -0.923 64 78 53
45.0823 35.6174 71.7429 -0.139 -0.369 -0.919 53 67 41
45.2265 35.5746 71.7382 -0.139 -0.369 -0.919 42 58 28
47.3083 35.6777 73.4811 0.217 0.348 -0.912 50 76 31
47.5764 35.6389 73.5744 0.119 0.228 -0.966 37 63 18
48.9134 35.4462 74.0429 0.555 -0.111 -0.824 51 79 31
49.9566 35.7557 75.5646 0.554 -0.194 -0.809 79 94 75
50.0863 35.7528 75.6497 0.517 -0.331 -0.790 96 108 96
50.3637 35.6904 75.6906 0.354 -0.200 -0.914 121 132 124
50.9520 35.8853 76.5998 0.547 -0.296 -0.783 84 94 83
51.6082 35.8695 77.0279 0.713 0.125 -0.690 64 72 62
51.7462 35.8425 77.0583 0.549 -0.207 -0.810 52 60 48
52.1012 35.9869 77.6745 0.668 -0.244 -0.703 50 55 48
54.7235 36.1573 79.9717 0.567 0.001 -0.824 89 89 87
55.1417 36.0714 80.0539 0.504 0.008 -0.864 106 105 103
55.4120 36.0641 80.2282 0.752 -0.024 -0.659 114 115 110
56.1638 36.4974 81.8535 0.480 -0.790 -0.382 122 127 122
56.3001 36.5036 81.9662 0.563 -0.718 -0.409 112 118 114
56.4422 36.4657 81.9722 0.341 -0.429 -0.836 98 104 100
56.5801 36.4608 82.0581 0.369 -0.412 -0.833 108 114 110
56.7293 36.3606 81.9125 0.400 -0.076 -0.913 113 119 115
57.4315 36.2002 82.0096 0.207 0.411 -0.888 112 121 116
57.5697 36.1874 82.0761 0.157 0.522 -0.838 117 126 121
59.0729 36.4171 83.7248 0.266 -0.302 -0.916 119 131 127
59.2119 36.4245 83.8425 0.343 -0.342 -0.875 114 129 124
60.0281 37.5641 87.2895 0.777 -0.629 0.019 125 142 136
60.1699 37.7648 87.8951 0.784 -0.621 -0.007 134 151 145
60.4624 37.6871 87.9082 0.722 -0.559 -0.408 137 152 149
60.6085 37.5987 87.7901 -0.337 -0.890 -0.307 137 152 149
62.3558 37.4272 88.6044 0.828 -0.284 -0.484 113 118 116
63.3687 37.2360 88.8454 0.609 0.667 -0.428 98 95 85
63.4990 31.0460 73.3749 0.749 -0.651 -0.127 113 115 101
63.6339 31.1836 73.8169 0.631 -0.699 -0.336 111 113 99
63.8827 31.2343 74.1216 0.639 -0.757 -0.136 96 100 85
68.0694 40.0405 99.2471 0.691 -0.715 0.105 97 100 91
70.2823 39.1342 98.5454 0.627 -0.778 -0.039 96 100 83
70.4784 39.2683 99.0223 0.627 -0.778 -0.039 97 101 84
70.6572 39.3332 99.3129 0.626 -0.779 -0.040 97 102 83
-10.5579 47.6878 61.9629 -0.052 -0.498 -0.866 40 55 50
-10.3082 47.6119 61.9506 0.283 -0.470 -0.836 18 33 26
-10.1311 47.5819 62.0015 0.257 -0.513 -0.819 15 31 24
-9.6557 47.5273 62.2032 -0.166 -0.416 -0.894 38 58 44
-4.6161 45.5032 60.7246 0.264 -0.512 -0.818 60 74 61
-3.6900 45.2227 60.6818 -0.060 -0.438 -0.897 113 128 121
-3.5024 45.1813 60.7114 0.063 -0.505 -0.861 66 79 72
-3.2700 45.1099 60.6981 0.020 -0.477 -0.879 39 51 47
-0.4066 44.1849 60.4212 0.112 0.123 -0.986 73 84 80
-0.2975 44.1946 60.5231 0.008 -0.042 -0.999 82 91 90
0.5281 43.7981 60.1184 0.330 -0.395 -0.857 61 67 65
2.4748 43.3810 60.4599 0.453 -0.215 -0.865 71 77 75
5.9775 42.0064 59.5128 0.377 0.247 -0.893 45 47 42
6.9202 41.7545 59.5531 0.129 0.185 -0.974 49 52 46
7.1011 41.7092 59.5685 0.129 0.185 -0.974 38 46 36
7.1562 41.7559 59.7244 -0.063 -0.365 -0.929 46 56 44
7.3074 41.7323 59.7730 0.079 -0.424 -0.902 54 64 50
7.5565 41.7243 59.9302 0.338 0.011 -0.941 59 68 56
7.6821 41.7196 60.0078 0.088 -0.401 -0.912 60 69 58
8.0258 41.5535 59.8368 -0.091 0.193 -0.977 56 64 55
11.3386 40.5685 59.7293 -0.121 -0.227 -0.966 72 73 75
12.2143 40.3442 59.7910 0.036 -0.181 -0.983 78 80 75
12.3982 40.2920 59.7914 0.209 -0.292 -0.933 83 85 80
12.5391 40.2734 59.8449 0.223 -0.297 -0.928 128 130 125
12.6804 40.2543 59.8978 0.196 -0.258 -0.946 125 129 123
18.8717 38.7004 60.4147 0.658 -0.053 -0.751 98 94 91
20.2175 38.4316 60.6996 0.343 -0.581 -0.738 107 104 95
20.3658 38.4024 60.7321 0.410 0.019 -0.912 106 103 94
20.4967 38.3886 60.7907 0.410 0.019 -0.912 105 102 95
20.6311 38.3716 60.8438 0.440 0.061 -0.896 112 109 100
21.0252 38.2251 60.7576 0.220 0.038 -0.975 106 103 94
21.8873 38.1755 61.2470 0.109 -0.147 -0.983 80 77 68
22.1640 38.1337 61.3391 0.295 -0.211 -0.932 85 83 71
22.3097 38.1059 61.3732 0.219 -0.107 -0.970 95 93 80
22.4924 38.0437 61.3476 0.140 0.001 -0.990 111 109 96
22.6454 38.0088 61.3691 0.140 0.001 -0.990 121 119 106
26.1784 37.1544 61.7449 0.008 -0.660 -0.751 73 74 60
26.3036 37.1438 61.8077 0.171 -0.603 -0.779 60 61 47
26.4549 37.1071 61.8233 0.376 -0.341 -0.861 82 82 70
27.7873 36.7993 62.0011 0.518 -0.191 -0.834 96 98 78
27.8673 36.8354 62.1483 0.225 0.063 -0.972 101 102 86
28.0275 36.7878 62.1433 0.546 -0.210 -0.811 104 104 91
29.7107 36.4590 62.5182 0.718 0.521 -0.462 62 66 49
29.9810 36.6688 63.2352 0.428 -0.625 -0.653 76 84 63
32.9183 35.8050 63.1638 0.614 0.055 -0.787 79 86 70
33.0187 35.8220 63.2778 0.399 -0.219 -0.890 87 94 78
33.1346 35.8205 63.3566 0.394 -0.215 -0.894 91 99 82
33.8852 35.6039 63.3486 -0.007 0.340 -0.940 74 92 70
35.4845 35.6191 64.5244 0.185 -0.268 -0.945 39 46 28
35.9561 35.6087 64.8338 0.679 -0.186 -0.710 65 69 52
36.0692 35.6128 64.9244 0.742 -0.183 -0.645 66 70 53
38.8219 35.7084 67.1220 -0.152 0.077 -0.985 28 37 20
38.9665 35.6693 67.1270 -0.125 0.102 -0.987 25 36 20
39.1577 35.5585 66.9858 -0.146 0.393 -0.908 38 49 33
41.1598 35.6019 68.5187 0.233 0.191 -0.954 29 43 18
41.2964 35.5742 68.5464 0.233 0.191 -0.954 33 47 22
42.2531 35.3744 68.7272 0.633 -0.193 -0.749 44 56 34
42.5631 35.4670 69.1793 0.616 -0.551 -0.564 41 53 32
43.0204 35.5169 69.6297 0.388 -0.547 -0.742 41 49 25
43.6985 35.8582 70.9659 0.270 -0.583 -0.767 101 111 86
44.1459 35.7047 70.9000 0.171 -0.318 -0.933 93 101 77
44.7325 35.7676 71.4749 0.793 -0.091 -0.602 46 60 34
47.9819 35.7838 73.8269 0.423 0.608 -0.672 49 75 30
48.9382 35.5950 74.0349 0.543 -0.108 -0.833 46 73 27
49.0704 35.5794 74.0899 0.545 -0.139 -0.827 47 72 31
50.0019 35.8450 75.4169 0.668 0.040 -0.743 102 116 99
50.1313 35.8425 75.5028 0.419 -0.113 -0.901 114 127 118
50.2723 35.8033 75.5051 0.250 0.050 -0.967 123 134 126
50.4088 35.7780 75.5389 0.116 0.068 -0.991 127 139 129
50.9843 36.0154 76.5421 0.566 -0.277 -0.776 68 77 66
51.6285 36.0436 77.0710 0.712 0.135 -0.689 42 50 38
51.7738 35.9897 77.0395 0.549 -0.207 -0.810 40 46 36
52.6745 36.0585 77.8524 0.325 -0.485 -0.812 41 46 42
53.8965 35.9015 78.3290 0.686 -0.153 -0.712 43 48 51
54.7621 36.2511 79.8192 0.685 -0.310 -0.659 104 105 101
55.0353 36.2249 79.9481 0.519 0.194 -0.833 94 95 90
55.4404 36.2161 80.2144 0.662 -0.177 -0.728 109 113 106
55.5803 36.1827 80.2302 0.734 -0.202 -0.648 121 126 119
55.7153 36.1803 80.3204 0.716 -0.137 -0.685 110 116 106
56.0707 36.5422 81.4785 0.633 -0.760 -0.148 114 121 113
56.2019 36.5838 81.6758 0.623 -0.753 -0.211 126 133 125
56.4687 36.6407 82.0081 0.563 -0.678 -0.473 98 108 100
56.6112 36.5985 82.0038 0.369 -0.412 -0.833 106 115 110
57.1641 36.5723 82.3317 0.324 -0.555 -0.766 106 115 110
58.2754 36.4849 82.9036 0.635 0.263 -0.726 112 124 120
58.4112 36.5222 83.0934 0.629 0.250 -0.736 113 125 121
58.5507 36.5073 83.1553 0.560 0.205 -0.803 122 134 130
58.6919 36.4642 83.1482 0.586 0.219 -0.780 127 139 135
58.8323 36.4320 83.1673 0.564 0.244 -0.789 127 139 135
58.9673 36.5009 83.4357 0.617 0.217 -0.756 128 140 136
59.1029 36.5706 83.7067 0.343 -0.084 -0.936 123 138 135
59.2412 36.5965 83.8697 0.343 -0.138 -0.929 117 132 129
59.5151 36.7489 84.4459 0.903 -0.428 -0.042 109 124 121
60.0604 37.6691 87.1360 0.466 -0.873 0.146 121 136 131
60.3496 37.7131 87.4518 0.558 -0.829 0.042 138 153 147
62.3969 37.7821 89.0808 0.967 0.123 -0.222 96 105 101
63.4334 37.8216 89.9169 0.708 -0.676 -0.201 97 95 83
63.5880 37.8990 90.2205 0.676 -0.717 -0.170 96 94 81
63.7371 37.9025 90.3354 0.140 -0.903 -0.407 98 99 85
63.2818 31.1536 73.1274 -0.110 -0.894 -0.434 111 109 96
63.3966 31.0921 73.0554 0.745 -0.616 -0.256 116 115 101
63.5283 31.2068 73.4360 0.858 -0.384 -0.340 111 112 98
63.6535 31.2478 73.6276 0.640 -0.691 -0.336 103 105 91
63.7752 31.2516 73.7237 0.672 -0.724 -0.156 95 98 81
67.6100 38.4785 94.5316 -0.450 -0.366 -0.815 99 101 90
68.2455 40.1055 99.0539 0.635 -0.772 0.029 120 127 114
70.0206 38.7727 96.9824 0.705 -0.709 -0.015 89 96 79
70.5499 39.5748 99.3656 0.683 -0.725 0.091 97 104 89
-10.7528 47.9145 61.9195 -0.011 -0.140 -0.990 41 53 51
-10.7280 47.9815 62.1040 0.231 -0.518 -0.824 39 50 50
-4.2525 45.5245 60.5861 0.151 -0.465 -0.872 54 66 56
-3.6472 45.3721 60.6366 0.199 0.331 -0.922 83 96 89
-3.4550 45.3275 60.6619 0.199 0.331 -0.922 52 65 58
-2.9298 45.2273 60.7853 0.356 0.238 -0.904 31 40 39
-2.8128 45.2327 60.8819 0.303 0.163 -0.939 48 56 58
-0.7179 44.2367 59.8903 0.022 -0.622 -0.783 72 84 82
-0.4688 44.1509 59.8534 0.248 -0.673 -0.697 62 74 70
-0.4309 44.3767 60.4423 0.112 0.123 -0.986 52 63 59
2.8577 43.3704 60.2728 0.094 0.392 -0.915 84 88 89
3.0868 43.2947 60.2468 0.088 0.414 -0.906 71 75 75
5.8307 42.3683 59.8892 0.159 0.224 -0.961 53 55 50
7.0423 41.9205 59.6348 -0.057 -0.421 -0.905 43 49 40
7.2254 41.8735 59.6478 -0.069 -0.490 -0.869 46 52 42
7.3560 41.8650 59.7194 0.372 -0.156 -0.915 50 56 46
7.6768 41.8040 59.7953 0.548 -0.083 -0.832 53 59 49
7.8369 41.7736 59.8333 0.259 -0.065 -0.964 54 60 50
8.1359 41.6399 59.7128 -0.253 -0.191 -0.948 49 54 47
8.7588 41.4406 59.6591 -0.106 0.069 -0.992 45 52 45
9.7566 41.0452 59.3835 0.410 -0.326 -0.852 111 112 107
11.3715 40.7089 59.6930 0.122 -0.033 -0.992 66 67 69
11.7436 40.6024 59.6920 0.075 -0.101 -0.992 67 69 68
12.2440 40.4864 59.7586 0.050 -0.174 -0.984 69 71 66
12.4275 40.4344 59.7595 0.219 -0.226 -0.949 73 75 70
12.5783 40.4079 59.8005 0.219 -0.226 -0.949 85 87 82
12.7112 40.3955 59.8641 0.152 -0.209 -0.966 92 94 89
12.8949 40.3429 59.8637 0.293 -0.433 -0.852 106 107 102
13.0111 40.3436 59.9479 0.382 -0.408 -0.829 68 69 64
13.1470 40.3287 60.0074 0.288 -0.396 -0.872 76 75 71
15.4642 39.5885 59.8102 0.373 -0.185 -0.909 82 81 76
15.5760 39.5919 59.8980 0.434 -0.207 -0.877 79 78 73
15.7144 39.5736 59.9506 0.444 -0.214 -0.870 79 75 68
18.8822 38.8544 60.4098 0.360 -0.162 -0.919 125 121 118
19.1711 38.8041 60.4897 0.631 -0.312 -0.710 82 79 74
19.1717 38.9047 60.7406 0.262 -0.180 -0.948 78 75 70
20.3583 38.5721 60.7553 0.142 -0.622 -0.770 116 113 104
21.5706 38.2065 60.7061 0.062 -0.386 -0.920 161 158 149
22.1695 38.2922 61.3447 0.363 -0.456 -0.813 107 107 95
22.4413 38.2549 61.4446 0.254 -0.482 -0.838 102 103 89
22.5996 38.2151 61.4582 0.193 -0.125 -0.973 102 103 89
22.7493 38.1833 61.4853 0.098 -0.137 -0.986 88 89 75
22.9096 38.1415 61.4950 -0.003 -0.128 -0.992 88 88 76
23.0427 38.1251 61.5488 0.056 -0.086 -0.995 88 89 75
23.2274 38.0598 61.5174 0.355 -0.020 -0.935 97 98 82
25.7978 37.3535 61.5843 0.457 -0.559 -0.692 80 78 66
25.9514 37.3147 61.5969 0.462 -0.567 -0.681 63 64 50
27.2498 37.0442 61.8454 0.173 -0.598 -0.782 132 136 113
27.5060 37.0163 61.9580 0.178 -0.592 -0.786 101 104 83
27.6094 37.0282 62.0609 0.353 -0.366 -0.861 95 99 76
27.7630 36.9877 62.0691 0.650 -0.285 -0.705 93 95 74
27.8542 37.0125 62.1957 0.429 -0.135 -0.893 93 94 78
27.9795 37.0016 62.2576 0.429 -0.135 -0.893 92 90 78
29.3786 36.6099 62.2760 0.568 0.104 -0.816 47 51 34
29.4937 36.6093 62.3561 0.568 0.104 -0.816 68 73 53
30.0078 36.6758 62.8868 0.728 -0.396 -0.559 82 90 69
30.0299 36.7797 63.1612 0.428 -0.625 -0.653 82 90 69
30.2871 36.7509 63.2721 -0.485 -0.321 -0.814 80 88 65
30.6645 36.4559 62.8056 -0.244 0.272 -0.931 79 87 64
32.5096 36.1839 63.4389 -0.296 -0.401 -0.867 64 71 55
33.1216 36.0016 63.4196 0.021 -0.499 -0.867 86 94 77
33.4239 35.9133 63.4145 0.092 -0.577 -0.812 118 133 112
33.8937 35.7587 63.3631 -0.066 0.310 -0.948 55 70 49
35.5043 35.7616 64.5139 0.252 -0.172 -0.952 42 49 31
35.6212 35.7601 64.5935 0.320 0.004 -0.948 70 77 59
36.0895 35.7550 64.9132 0.734 -0.188 -0.653 57 64 46
37.5687 35.6448 65.6892 0.158 -0.101 -0.982 25 33 12
38.9797 35.8257 67.1415 -0.125 0.102 -0.987 25 36 20
39.9555 35.9836 68.2275 -0.207 0.310 -0.928 44 58 35
40.1116 35.9258 68.1943 -0.199 0.303 -0.932 44 58 35
40.3800 35.6844 67.7842 0.043 -0.672 -0.739 34 48 25
40.5847 35.5449 67.5822 0.224 -0.895 -0.385 32 46 23
42.0756 35.6597 68.9265 0.578 0.123 -0.806 50 62 42
42.3539 35.5936 68.9598 0.490 -0.606 -0.627 53 65 45
42.4784 35.5868 69.0312 0.514 -0.603 -0.610 31 43 23
42.5962 35.5924 69.1286 0.520 -0.604 -0.604 46 58 37
43.0635 35.6240 69.5392 0.359 -0.563 -0.745 37 45 21
43.1689 35.6542 69.6893 0.624 -0.401 -0.671 53 61 37
44.6457 35.8868 71.3169 0.936 -0.164 -0.311 46 60 34
45.0812 36.0158 71.9473 0.581 -0.169 -0.796 64 78 52
45.1830 36.0652 72.1425 0.856 -0.160 -0.492 49 64 34
47.6582 35.8533 73.3725 -0.120 -0.730 -0.673 42 68 23
48.8048 35.8321 74.1341 0.437 -0.234 -0.869 44 74 25
48.9491 35.7833 74.1150 0.424 -0.083 -0.902 45 72 26
49.0826 35.7645 74.1630 0.422 -0.098 -0.901 46 71 30
49.2096 35.7642 74.2526 0.651 -0.215 -0.728 47 69 31
50.0223 36.0112 75.4444 0.668 0.040 -0.743 113 128 111
50.1549 35.9990 75.5083 0.445 -0.055 -0.894 116 128 118
50.2947 35.9640 75.5203 0.145 0.065 -0.987 115 127 118
51.5367 36.1497 76.8644 0.645 -0.168 -0.745 38 46 35
51.6662 36.1535 76.9659 0.601 -0.189 -0.777 35 41 31
51.8014 36.1369 77.0206 0.549 -0.207 -0.810 35 41 31
52.8420 36.1732 77.8500 0.638 -0.209 -0.741 39 46 45
52.9683 36.1972 77.9993 0.422 -0.071 -0.904 40 46 46
53.2359 36.1815 78.1503 -0.019 0.118 -0.993 40 46 46
53.3919 36.0725 77.9896 0.515 0.166 -0.841 40 46 46
53.5280 36.0526 78.0368 0.427 0.093 -0.900 40 44 45
53.9236 36.0544 78.3221 0.686 -0.153 -0.712 45 49 50
54.8044 36.3228 79.6158 0.670 -0.176 -0.721 98 99 94
55.0595 36.4015 79.9927 0.518 0.203 -0.831 92 94 89
55.2025 36.3502 79.9666 0.697 -0.170 -0.696 102 103 98
55.3420 36.3186 79.9870 0.697 -0.222 -0.682 101 104 97
55.4688 36.3683 80.2007 0.761 -0.260 -0.595 103 110 102
55.5995 36.3953 80.3608 0.490 -0.550 -0.677 102 111 102
55.7345 36.3958 80.4580 0.490 -0.550 -0.677 101 110 99
58.0274 36.6542 82.7293 0.479 -0.103 -0.872 112 123 115
58.1686 36.6143 82.7303 0.606 -0.085 -0.791 112 124 120
58.3061 36.6239 82.8518 0.595 -0.070 -0.801 112 124 120
58.4422 36.6564 83.0294 0.590 -0.227 -0.775 112 124 120
58.5801 36.6659 83.1508 0.567 -0.227 -0.792 119 131 127
58.7188 36.6666 83.2512 0.570 -0.170 -0.804 120 132 128
58.8595 36.6328 83.2669 0.702 0.057 -0.710 120 132 128
58.9952 36.6939 83.5152 0.611 0.210 -0.763 123 138 135
59.1325 36.7347 83.7143 0.301 -0.112 -0.947 124 139 136
59.2711 36.7529 83.8582 0.303 -0.324 -0.896 116 131 128
59.8148 37.3541 85.7407 0.435 -0.897 0.082 111 126 123
62.2790 37.8796 88.7985 0.952 0.232 -0.201 90 102 100
62.4405 38.1826 89.6676 0.954 0.207 -0.219 89 99 95
63.6155 38.0006 90.0489 0.698 -0.695 -0.172 105 103 90
63.2973 31.1654 72.8082 -0.107 -0.907 -0.406 120 118 105
63.4226 31.2203 73.0339 0.839 -0.420 -0.347 113 112 98
63.5519 31.3093 73.3473 0.859 -0.380 -0.344 103 104 90
63.6795 31.3745 73.6002 0.912 -0.323 -0.254 93 95 81
66.4408 37.8798 91.7543 0.448 0.753 -0.482 93 95 81
-10.2332 47.9348 61.8705 0.296 0.170 -0.940 36 44 48
-9.9836 47.8582 61.8578 0.592 0.023 -0.806 32 40 44
-9.8144 47.8331 61.9153 0.717 -0.052 -0.695 24 32 36
-9.6477 47.8094 61.9750 0.236 -0.056 -0.970 53 64 63
-4.7162 45.7607 60.3959 0.414 -0.680 -0.605 33 43 32
-1.0477 44.4683 59.7947 -0.087 -0.184 -0.979 41 52 48
-0.5354 44.2867 59.7082 0.248 -0.613 -0.750 63 74 70
-0.3426 44.2388 59.7260 0.222 -0.674 -0.705 61 72 68
-0.0336 44.1949 59.8365 -0.007 -0.521 -0.854 51 62 58
0.1189 44.1743 59.8936 0.006 -0.499 -0.866 51 61 58
0.0161 44.4143 60.4151 -0.218 0.064 -0.974 48 54 52
0.5781 44.1962 60.2732 -0.050 -0.090 -0.995 47 53 51
2.2394 43.6353 60.0613 -0.233 -0.075 -0.970 70 78 80
6.3117 42.3622 59.7944 0.191 0.391 -0.901 66 68 63
6.4544 42.3454 59.8540 0.153 0.351 -0.924 73 75 70
6.6396 42.2974 59.8664 0.153 0.351 -0.924 78 80 74
7.1202 42.0316 59.5487 -0.250 -0.001 -0.968 53 58 50
7.4362 41.9741 59.6303 0.304 -0.274 -0.912 44 50 40
7.5582 41.9720 59.7115 0.566 -0.198 -0.800 44 50 40
7.9511 41.8569 59.7050 -0.044 -0.491 -0.870 47 53 43
9.7258 41.2348 59.4219 0.526 0.034 -0.850 115 115 113
11.3448 40.8956 59.7292 0.066 -0.035 -0.997 67 69 68
11.7571 40.7576 59.6795 0.113 -0.197 -0.974 56 58 57
12.4348 40.5941 59.7549 0.080 -0.192 -0.978 66 66 64
12.7519 40.5287 59.8178 -0.028 -0.237 -0.971 45 47 44
12.9479 40.4662 59.8019 0.258 -0.374 -0.891 45 45 43
13.0624 40.4683 59.8882 0.349 -0.374 -0.859 59 60 55
14.2435 40.1779 60.0060 0.414 -0.071 -0.908 79 78 73
14.4939 40.0696 59.9152 0.425 0.004 -0.905 77 76 71
15.2898 39.9917 60.2865 -0.109 -0.056 -0.992 76 75 70
15.4496 39.9563 60.3121 -0.105 0.046 -0.993 79 76 69
15.6418 39.8939 60.2938 -0.106 0.082 -0.991 80 77 70
17.5768 39.4432 60.5488 0.011 -0.098 -0.995 85 82 77
18.7972 38.9910 60.2938 0.045 -0.333 -0.942 101 98 93
18.8855 39.0147 60.4152 0.422 0.103 -0.901 107 104 99
19.1458 39.0914 60.7895 0.275 -0.161 -0.948 72 69 64
20.3770 38.6154 60.4832 0.223 -0.067 -0.973 82 79 70
20.6859 38.5449 60.5276 0.166 -0.433 -0.886 85 82 73
20.8125 38.5347 60.5920 0.158 -0.422 -0.893 80 80 70
20.9805 38.4870 60.5929 0.135 -0.471 -0.872 76 76 66
21.4149 38.4061 60.7005 0.212 -0.436 -0.875 87 84 75
21.5985 38.3436 60.6757 0.138 -0.379 -0.915 118 115 106
21.4378 38.5966 61.1886 0.015 -0.221 -0.975 108 105 96
22.3431 38.1873 60.8163 0.518 -0.040 -0.855 103 103 91
22.2109 38.4175 61.2929 0.363 -0.456 -0.813 100 100 88
22.3475 38.3981 61.3416 0.363 -0.449 -0.816 96 98 84
22.4753 38.3869 61.4046 0.363 -0.449 -0.816 96 98 84
22.5990 38.3796 61.4741 0.374 -0.445 -0.814 96 98 84
22.9198 38.2957 61.4936 0.079 0.028 -0.996 88 89 75
23.0619 38.2708 61.5327 0.277 0.065 -0.959 88 89 75
23.2287 38.2224 61.5310 0.265 0.133 -0.955 93 94 78
25.8357 37.4785 61.5361 0.641 -0.174 -0.748 63 61 49
26.3042 37.4696 61.8462 0.462 -0.046 -0.886 97 98 82
26.4521 37.4362 61.8684 0.439 -0.177 -0.881 85 86 72
26.5865 37.4166 61.9150 0.450 -0.169 -0.877 72 73 58
26.6417 37.5967 62.4003 0.652 -0.191 -0.734 77 80 58
27.2153 37.4826 62.5243 0.017 0.008 -1.000 94 98 75
27.6469 37.1524 62.0122 0.508 -0.026 -0.861 93 97 74
29.8838 36.8502 62.8493 0.772 -0.269 -0.576 92 100 79
30.0534 36.7897 62.8197 0.709 -0.343 -0.616 82 90 69
30.0909 36.8769 63.0622 -0.071 0.122 -0.990 82 90 69
32.3815 36.2280 63.0784 0.368 -0.073 -0.927 104 113 96
32.4996 36.2241 63.1524 0.298 -0.122 -0.947 94 103 86
33.1501 36.1327 63.3870 -0.022 -0.516 -0.857 94 102 86
33.3294 36.0540 63.3194 0.265 -0.614 -0.743 81 94 74
33.4597 36.0351 63.3648 0.044 -0.632 -0.774 79 92 72
33.5965 36.0080 63.3947 0.044 -0.632 -0.774 73 88 67
35.1442 35.9464 64.3391 0.544 0.159 -0.824 43 55 38
35.3957 35.9204 64.4530 0.358 -0.296 -0.886 53 62 41
35.5450 35.8763 64.4495 0.186 -0.430 -0.883 52 61 40
35.6433 35.8997 64.5771 0.195 -0.186 -0.963 68 77 56
35.7771 35.8760 64.6134 0.478 -0.275 -0.834 67 75 54
35.8997 35.8672 64.6785 0.486 -0.248 -0.838 28 36 15
36.0174 35.8651 64.7565 0.475 -0.233 -0.849 61 69 48
36.1115 35.8951 64.8976 0.734 -0.188 -0.653 68 76 56
37.5701 35.8152 65.7336 0.154 -0.143 -0.978 26 34 13
38.9878 35.9902 67.1719 -0.089 0.462 -0.883 21 32 16
39.1523 35.9200 67.1145 -0.086 0.469 -0.879 51 62 46
41.1568 35.9720 68.6641 0.176 0.162 -0.971 29 43 18
42.2777 35.6986 68.7815 0.604 -0.188 -0.775 30 42 20
42.5184 35.6996 68.9544 0.520 -0.604 -0.604 30 42 22
42.6364 35.7047 69.0508 0.520 -0.604 -0.604 60 69 49
43.8017 36.0403 70.7081 -0.220 -0.616 -0.757 66 76 51
44.2867 35.8073 70.4747 0.069 -0.370 -0.926 101 109 85
44.7402 36.1450 71.6325 0.731 -0.272 -0.626 46 60 34
44.8569 36.1613 71.7556 -0.081 0.228 -0.970 52 66 40
45.0982 36.1783 71.9687 0.852 -0.129 -0.508 65 79 53
45.2124 36.2014 72.1069 0.862 -0.155 -0.483 49 64 34
47.5806 35.9409 73.1403 -0.190 -0.707 -0.681 42 68 23
47.7187 35.9095 73.1603 -0.180 -0.708 -0.683 42 68 23
48.2485 36.1807 74.2076 0.580 0.208 -0.788 50 77 32
48.7647 36.1641 74.5322 -0.039 -0.256 -0.966 45 73 26
48.9691 35.9461 74.1374 0.481 -0.182 -0.858 46 72 27
49.0952 35.9489 74.2336 0.422 -0.097 -0.901 47 71 29
49.2290 35.9296 74.2807 0.606 -0.268 -0.749 47 69 31
49.7841 36.1816 75.2983 0.612 0.031 -0.790 78 94 65
49.9144 36.1765 75.3780 0.579 -0.005 -0.815 82 97 73
50.0666 36.1029 75.3034 0.527 -0.157 -0.835 83 96 79
50.1790 36.1544 75.5108 0.445 -0.055 -0.894 74 86 73
50.3173 36.1243 75.5342 0.145 0.065 -0.987 65 76 63
52.9798 36.4175 78.1476 -0.069 0.036 -0.997 39 43 42
53.4112 36.2601 78.0635 0.391 0.047 -0.919 50 53 52
53.5463 36.2459 78.1241 0.396 0.051 -0.917 51 53 52
53.8163 36.2179 78.2461 0.479 -0.081 -0.874 63 65 64
53.9496 36.2123 78.3267 0.676 -0.151 -0.721 55 57 56
55.0855 36.5675 80.0118 0.090 -0.083 -0.993 91 96 90
55.2280 36.5192 79.9931 0.326 -0.186 -0.927 98 101 94
55.3599 36.5370 80.1307 0.440 -0.132 -0.888 103 109 102
55.4954 36.5322 80.2147 0.761 -0.252 -0.598 99 109 100
55.6342 36.5061 80.2486 0.548 -0.499 -0.671 98 111 99
55.7739 36.4735 80.2667 0.281 -0.611 -0.740 98 110 98
57.7770 36.8544 82.6299 0.428 0.095 -0.899 112 123 115
57.9098 36.9194 82.8852 0.284 -0.621 -0.730 112 123 115
58.0511 36.8844 82.8985 0.114 -0.666 -0.737 112 123 115
58.1983 36.7672 82.7127 0.691 -0.231 -0.685 112 124 120
58.3354 36.7818 82.8461 0.691 -0.231 -0.685 112 124 120
58.4707 36.8287 83.0581 0.085 -0.646 -0.758 112 124 120
58.6104 36.8115 83.1144 0.122 -0.663 -0.739 114 126 122
58.7496 36.8033 83.1928 0.614 -0.253 -0.748 113 125 121
59.8486 37.3895 85.4238 0.401 -0.911 0.095 113 128 125
59.9909 37.3830 85.5085 0.461 -0.875 0.145 118 133 130
62.3312 38.4934 89.9175 0.871 0.434 -0.231 89 101 99
62.8297 29.5775 68.1870 0.452 0.554 -0.699 98 96 84
63.6332 37.9831 89.5765 0.717 -0.693 -0.078 104 105 91
63.4415 31.2731 72.8205 0.850 -0.489 -0.197 104 105 91
-4.4177 45.6586 59.9104 0.008 -0.763 -0.647 20 30 21
-4.8262 46.0121 60.4926 0.661 -0.463 -0.591 16 26 17
-3.6067 45.7854 60.7968 0.198 0.360 -0.912 46 57 48
-0.0271 44.2801 59.6193 0.478 0.126 -0.869 58 69 65
0.1087 44.2709 59.6926 0.478 0.126 -0.869 51 60 57
0.2140 44.2827 59.7962 0.279 -0.164 -0.946 53 62 59
0.3500 44.2734 59.8694 0.290 -0.171 -0.942 52 58 56
0.6685 44.3078 60.1796 -0.155 -0.328 -0.932 48 54 52
0.7487 44.3376 60.3098 -0.076 -0.321 -0.944 47 53 51
1.0522 44.2116 60.2141 -0.181 -0.188 -0.965 47 53 51
4.5924 42.9953 59.7210 0.639 0.244 -0.729 87 89 88
6.3602 42.4961 59.7413 -0.229 0.023 -0.973 74 75 70
6.6233 42.3906 59.6675 -0.227 0.025 -0.974 87 88 83
6.8479 42.3132 59.6355 -0.205 -0.009 -0.979 85 87 82
7.0497 42.2523 59.6282 -0.004 0.052 -0.999 63 68 60
7.2479 42.1939 59.6244 -0.004 0.052 -0.999 48 54 44
7.4457 42.1356 59.6207 -0.004 0.052 -0.999 41 47 37
7.5042 42.1808 59.7735 -0.101 -0.302 -0.948 40 46 36
9.3944 41.3847 59.1488 0.552 0.041 -0.833 47 52 48
9.5026 41.3919 59.2431 0.556 0.041 -0.830 58 63 59
11.3637 41.0471 59.7099 0.058 -0.402 -0.914 59 61 60
11.7839 40.9024 59.6507 0.099 -0.220 -0.971 50 52 51
12.4844 40.7204 59.6977 0.117 -0.232 -0.966 67 67 65
12.6458 40.6854 59.7257 0.117 -0.232 -0.966 67 67 65
12.9875 40.6001 59.7571 0.258 -0.374 -0.891 51 51 49
13.1361 40.5750 59.8003 0.306 -0.421 -0.854 57 57 55
13.7598 40.4504 59.9344 0.186 -0.192 -0.964 74 73 69
13.9137 40.4206 59.9700 0.186 -0.192 -0.964 67 66 62
14.0675 40.3909 60.0055 0.186 -0.192 -0.964 58 57 53
14.2275 40.3560 60.0327 0.427 -0.129 -0.895 64 65 59
14.6218 40.3211 60.2256 0.240 -0.285 -0.928 77 78 72
18.4561 39.2497 60.2978 -0.076 -0.167 -0.983 125 122 115
18.7831 39.1665 60.3242 0.221 -0.078 -0.972 90 87 80
18.8935 39.1712 60.4138 0.334 0.094 -0.938 83 80 73
19.0676 39.1201 60.4110 0.269 -0.045 -0.962 85 82 77
19.2093 39.0973 60.4551 0.210 -0.125 -0.970 75 72 67
20.0609 38.8547 60.4596 0.226 -0.153 -0.962 94 91 86
20.2551 38.7842 60.4232 0.017 -0.339 -0.941 95 92 85
20.3657 38.7884 60.5119 0.300 -0.143 -0.943 91 88 79
20.5183 38.7549 60.5373 0.138 -0.287 -0.948 91 88 79
20.6733 38.7192 60.5589 0.139 -0.378 -0.915 89 86 77
20.7943 38.7141 60.6320 0.187 -0.387 -0.903 100 98 86
21.3164 38.7656 61.1283 0.025 -0.232 -0.972 99 95 86
22.6093 38.5340 61.4724 0.381 -0.462 -0.801 90 92 78
22.9715 38.4107 61.4245 0.124 0.085 -0.989 88 89 75
23.1166 38.3828 61.4585 0.365 0.020 -0.931 88 89 73
23.2725 38.3446 61.4746 0.244 0.125 -0.962 89 90 74
26.5038 37.5469 61.7948 0.460 -0.204 -0.864 80 81 65
26.6147 37.5513 61.8840 0.519 -0.042 -0.854 66 67 53
26.6428 37.7604 62.4193 0.756 -0.348 -0.555 60 62 41
26.7454 37.7744 62.5263 0.763 -0.378 -0.524 68 72 49
26.9830 37.7690 62.6812 0.358 -0.467 -0.809 85 88 67
27.1030 37.7652 62.7567 0.374 -0.460 -0.805 97 101 78
27.6331 37.3304 62.0602 0.385 -0.034 -0.922 108 112 89
30.0624 36.9445 62.8278 0.688 -0.558 -0.464 85 93 72
30.2575 36.8548 62.7446 0.713 -0.390 -0.583 85 93 72
32.3776 36.3979 63.1185 0.350 0.211 -0.913 95 102 86
32.7868 36.3206 63.2175 -0.366 -0.238 -0.899 104 111 95
33.0729 36.2523 63.2516 -0.044 -0.527 -0.849 88 95 79
33.1909 36.2486 63.3260 -0.039 -0.560 -0.828 79 86 71
35.9252 36.0022 64.6533 0.486 -0.248 -0.838 42 49 31
36.1365 36.0311 64.8739 0.729 -0.180 -0.660 58 65 47
36.4323 36.1054 65.2665 0.480 -0.310 -0.821 22 29 13
37.0375 35.9130 65.2203 0.391 -0.270 -0.880 41 48 32
37.6107 35.9293 65.6660 0.179 -0.158 -0.971 32 40 19
41.4449 36.0752 68.7384 0.094 0.278 -0.956 55 69 44
42.3834 35.9110 68.9977 0.087 -0.167 -0.982 40 52 32
43.1425 35.8506 69.3860 0.420 -0.516 -0.747 45 53 29
43.3312 35.9547 69.7758 0.606 -0.648 -0.462 45 53 29
44.3178 35.9372 70.4308 0.423 -0.231 -0.876 97 107 82
44.8615 36.3499 71.8327 0.271 -0.002 -0.963 52 66 40
45.0536 36.2054 71.6123 0.931 -0.364 0.008 64 78 52
45.1378 36.2921 71.8857 0.689 -0.108 -0.716 66 80 53
45.2552 36.3083 72.0086 0.836 -0.211 -0.506 48 65 33
45.1023 36.9196 73.4072 0.485 0.659 -0.575 38 56 20
47.4801 36.0870 73.0374 0.339 -0.759 -0.556 42 68 23
47.7719 35.9838 72.9894 -0.070 -0.699 -0.711 42 68 23
48.2996 35.9180 73.2007 0.396 -0.605 -0.691 46 72 27
48.4767 36.4739 74.6959 0.113 0.815 -0.568 50 74 32
48.9889 36.1101 74.1618 0.443 -0.088 -0.892 46 68 26
49.1193 36.1007 74.2309 0.405 -0.066 -0.912 45 67 26
49.9512 36.2921 75.2911 0.460 -0.649 -0.606 49 61 48
50.0902 36.2593 75.3087 0.523 -0.152 -0.839 52 62 48
50.7132 36.3321 75.9290 0.657 -0.009 -0.753 53 64 46
52.7882 36.3747 77.5021 0.668 0.103 -0.737 53 54 49
52.9046 36.4400 77.7452 0.717 0.052 -0.695 54 56 53
54.9801 36.7143 79.8898 0.279 -0.271 -0.921 83 88 81
55.2595 36.6521 79.9341 0.028 -0.315 -0.949 99 103 96
55.3966 36.6362 79.9919 0.180 -0.227 -0.957 103 109 101
55.5337 36.6202 80.0494 0.569 -0.478 -0.669 98 109 98
55.6705 36.6056 80.1104 0.319 -0.569 -0.758 97 111 98
55.8069 36.5944 80.1793 0.281 -0.611 -0.740 97 111 98
57.7991 37.0962 82.8253 0.388 -0.734 -0.557 113 124 116
58.0821 37.0216 82.8418 0.295 -0.622 -0.725 114 125 117
58.2259 36.9483 82.7629 0.837 0.004 -0.547 103 115 111
58.3631 36.9645 82.8998 0.810 0.016 -0.587 102 114 110
59.3320 37.0443 83.7821 0.558 -0.823 -0.108 118 133 130
59.4705 37.0751 83.9560 0.598 -0.794 -0.105 118 133 130
60.3042 37.7108 86.1125 0.197 -0.980 0.027 119 134 129
60.5906 37.7615 86.4402 0.237 -0.970 0.055 130 145 140
62.4049 39.5663 92.1721 0.866 0.441 -0.235 80 90 88
62.6370 41.1683 96.2848 0.890 0.403 -0.212 82 92 86
66.7099 38.5193 92.6373 0.424 0.795 -0.433 84 88 74
-11.8203 48.9043 62.2025 -0.258 -0.499 -0.827 27 36 35
-11.5979 48.8463 62.2172 -0.206 -0.523 -0.827 26 35 34
-4.7408 46.1341 60.4082 0.412 -0.647 -0.642 18 25 17
-3.6766 46.0113 60.8586 0.212 0.344 -0.915 39 51 38
-1.5986 45.0252 59.9077 0.206 -0.519 -0.829 32 42 32
0.6833 44.5580 60.3734 -0.262 0.185 -0.947 47 53 51
4.1348 43.3220 59.7796 0.507 -0.243 -0.827 58 62 61
4.4533 43.1794 59.6549 0.789 -0.217 -0.574 54 56 55
4.5826 43.1732 59.7309 0.728 -0.153 -0.669 71 73 70
4.7459 43.1423 59.7706 0.287 0.048 -0.957 100 102 99
4.7566 43.2223 59.9743 0.206 -0.102 -0.973 100 102 99
7.0786 42.3997 59.5967 -0.152 0.006 -0.988 67 72 65
7.2597 42.3539 59.6122 -0.006 0.050 -0.999 48 54 44
7.4690 42.2868 59.5955 -0.005 0.035 -0.999 45 51 41
7.5681 42.3019 59.7026 -0.098 -0.305 -0.947 46 52 42
11.1458 41.2917 59.7515 -0.117 -0.259 -0.959 51 53 52
11.8115 41.0466 59.6208 0.099 -0.220 -0.971 43 45 44
11.9863 41.0015 59.6335 0.113 -0.182 -0.977 36 36 36
12.1541 40.9617 59.6545 0.153 -0.113 -0.982 78 78 76
12.3106 40.9308 59.6892 0.159 -0.179 -0.971 140 140 138
12.4899 40.8817 59.6953 0.096 -0.254 -0.962 81 81 79
12.6573 40.8419 59.7159 0.073 -0.275 -0.959 83 83 81
12.9784 40.7728 59.7733 0.172 -0.112 -0.979 84 84 82
13.1325 40.7433 59.8098 0.077 -0.079 -0.994 62 62 60
13.2881 40.7125 59.8442 0.210 -0.470 -0.858 75 74 70
13.4507 40.6761 59.8696 0.206 -0.446 -0.871 94 93 89
13.6562 40.6048 59.8398 0.076 -0.058 -0.995 74 73 69
13.9596 40.5487 59.9166 0.137 -0.141 -0.981 76 75 71
14.2692 40.4874 59.9848 0.433 -0.153 -0.888 78 79 73
14.5234 40.3751 59.8891 0.546 -0.243 -0.802 77 78 72
14.6370 40.3778 59.9760 0.618 -0.184 -0.765 78 79 73
14.7019 40.4207 60.1269 0.209 -0.298 -0.931 78 79 73
18.5047 39.3710 60.2380 -0.002 -0.187 -0.982 135 132 125
18.6553 39.3405 60.2698 0.015 -0.122 -0.992 109 106 97
18.7387 39.3690 60.3984 0.702 0.105 -0.704 82 79 72
20.0674 39.0120 60.4613 0.112 -0.140 -0.984 118 115 110
20.2506 38.9512 60.4415 -0.116 -0.483 -0.868 104 101 93
20.5622 38.8784 60.4830 0.169 -0.422 -0.891 90 86 75
20.6782 38.8778 60.5636 0.217 -0.432 -0.875 95 91 82
20.7870 38.8839 60.6553 0.307 -0.365 -0.879 98 94 83
20.9759 38.8171 60.6248 0.264 -0.337 -0.903 102 98 87
21.3806 38.7638 60.7799 0.443 -0.116 -0.889 86 79 71
22.2712 38.6888 61.2251 0.309 -0.155 -0.938 94 92 80
22.6850 38.6266 61.3648 0.434 -0.045 -0.900 91 92 78
22.9662 38.5797 61.4484 0.235 -0.052 -0.971 99 100 86
23.1054 38.5576 61.4924 0.380 -0.002 -0.925 94 95 81
23.2433 38.5367 61.5384 0.319 0.024 -0.947 92 93 77
23.3595 38.5366 61.6202 0.226 -0.141 -0.964 110 108 93
26.5318 37.6818 61.7642 0.437 -0.197 -0.878 73 74 60
26.6379 37.6910 61.8619 0.543 -0.048 -0.838 61 62 48
27.0233 37.8924 62.6278 0.358 -0.467 -0.809 73 76 55
27.1427 37.8892 62.7043 0.374 -0.460 -0.805 100 104 81
29.7565 37.3235 63.1628 0.738 0.214 -0.640 96 104 83
30.0513 37.2530 63.1982 -0.254 0.139 -0.957 93 101 80
32.3832 36.5566 63.1372 0.445 0.081 -0.892 100 105 90
32.5197 36.5309 63.1705 0.328 0.197 -0.924 119 126 110
32.5981 36.8570 64.0256 0.011 -0.226 -0.974 89 97 80
33.1306 36.3475 63.1521 -0.069 -0.488 -0.870 74 81 65
33.8085 36.2191 63.3160 0.371 -0.697 -0.614 60 75 54
36.7822 36.1150 65.1607 0.635 -0.227 -0.738 42 49 33
36.9162 36.0908 65.1961 0.418 0.019 -0.908 22 29 13
37.0502 36.0665 65.2310 0.439 -0.002 -0.898 36 43 27
37.2018 36.0170 65.2167 0.593 -0.179 -0.785 54 61 44
37.6506 36.0441 65.6002 0.213 -0.173 -0.962 36 44 23
39.0880 36.1896 66.9722 0.540 0.243 -0.806 35 46 30
39.2085 36.1870 67.0510 0.520 0.233 -0.822 48 59 43
39.3302 36.1829 67.1268 0.520 0.233 -0.822 76 87 71
39.4519 36.1788 67.2026 0.520 0.233 -0.822 52 63 47
42.4097 36.0488 68.9727 0.181 -0.025 -0.983 30 43 23
42.5464 36.0200 68.9986 0.181 -0.025 -0.983 40 52 32
42.6760 36.0041 69.0511 0.176 -0.010 -0.984 44 56 35
43.1819 35.9639 69.3099 0.471 -0.469 -0.747 50 60 35
44.3766 36.0103 70.2674 0.359 -0.639 -0.680 94 108 79
44.8137 36.3849 71.4948 0.175 0.427 -0.887 45 61 32
45.1299 36.2393 71.3609 0.923 -0.382 0.056 63 79 52
47.5321 36.1651 72.8755 0.244 -0.758 -0.604 42 68 23
47.7184 36.0089 72.6241 0.487 -0.494 -0.720 47 73 28
47.9533 36.0498 72.8902 0.410 -0.655 -0.634 58 84 37
48.0796 36.0476 72.9742 0.410 -0.655 -0.634 52 78 31
48.2092 36.0370 73.0396 0.409 -0.601 -0.687 48 71 27
48.3362 36.0335 73.1206 0.396 -0.605 -0.691 44 66 24
48.4654 36.0242 73.1892 0.533 -0.617 -0.579 42 63 22
49.2239 36.3908 74.6238 0.791 -0.300 -0.534 37 52 21
49.9906 36.3989 75.1852 0.484 -0.621 -0.617 39 48 46
50.2472 36.4012 75.3722 0.231 -0.472 -0.851 53 63 41
50.3833 36.3774 75.4099 0.242 -0.466 -0.851 53 63 37
53.0626 36.5954 77.8368 0.632 0.114 -0.767 63 63 61
55.0098 36.8582 79.8564 0.279 -0.271 -0.921 94 97 90
55.2900 36.7908 79.8889 0.028 -0.315 -0.949 100 103 96
55.4275 36.7716 79.9391 0.170 -0.210 -0.963 104 111 100
55.5641 36.7591 80.0049 0.533 -0.476 -0.699 100 110 98
55.7028 36.7320 80.0364 0.424 -0.413 -0.806 95 108 95
55.8421 36.6996 80.0554 0.402 -0.375 -0.835 90 104 91
57.5577 37.1862 82.4603 0.117 0.126 -0.985 96 107 99
57.8298 37.2370 82.7771 0.100 -0.319 -0.943 109 120 112
58.2545 37.1163 82.7810 0.835 -0.002 -0.551 93 105 101
58.3899 37.1609 82.9860 0.835 -0.002 -0.551 94 106 102
58.5252 37.2149 83.2140 0.881 -0.065 -0.468 112 124 120
58.6626 37.2441 83.3826 0.862 0.192 -0.469 116 128 124
58.8026 37.2308 83.4489 0.826 0.353 -0.439 112 124 120
58.9267 37.5286 84.2669 0.055 0.721 -0.691 106 118 114
59.5006 37.2313 83.9431 0.425 0.415 -0.805 118 133 130
61.3551 38.6955 88.8438 0.345 -0.928 -0.141 134 150 147
61.5016 38.6527 88.8423 -0.208 -0.662 -0.720 134 150 147
62.2905 39.8510 92.3383 0.890 0.402 -0.215 71 78 77
-12.1635 49.3123 62.4902 0.072 -0.785 -0.616 17 26 25
-11.9650 49.2698 62.5265 0.060 -0.787 -0.614 20 29 28
-4.6627 46.2607 60.3306 0.412 -0.647 -0.642 17 24 17
-2.0026 45.3075 59.8797 0.697 -0.335 -0.634 55 66 52
-1.9302 45.3427 60.0165 0.698 -0.305 -0.647 47 58 44
-0.3333 44.9252 60.1234 0.412 -0.073 -0.908 53 59 59
-0.4483 45.1776 60.6584 -0.087 -0.159 -0.983 53 59 57
-0.1743 45.0733 60.5969 -0.010 -0.144 -0.990 61 67 65
0.3091 44.9087 60.5361 -0.468 -0.107 -0.877 57 63 61
3.9889 43.5113 59.7197 -0.086 -0.328 -0.941 71 76 74
4.0631 43.5452 59.8548 0.464 -0.468 -0.752 53 58 55
4.3244 43.4437 59.7913 0.483 -0.388 -0.785 50 52 49
4.4682 43.4272 59.8524 0.493 -0.404 -0.771 46 48 44
4.8151 43.3509 59.9108 0.272 -0.004 -0.962 88 90 85
7.6162 42.4347 59.6495 -0.101 -0.304 -0.947 50 56 46
7.8144 42.3755 59.6446 -0.095 -0.269 -0.958 48 54 44
11.2252 41.3961 59.6590 0.071 -0.179 -0.981 48 50 49
11.4076 41.3454 59.6639 0.075 -0.136 -0.988 53 55 54
11.8371 41.1925 59.5934 0.110 -0.180 -0.977 55 57 56
12.0074 41.1508 59.6117 0.113 -0.188 -0.976 50 50 50
12.1715 41.1139 59.6373 0.163 -0.163 -0.973 63 63 61
12.3215 41.0881 59.6801 0.091 -0.108 -0.990 91 91 89
13.0250 40.9011 59.7196 0.164 -0.031 -0.986 105 105 103
13.1783 40.8721 59.7570 0.158 -0.075 -0.985 79 79 77
13.3543 40.8247 59.7655 0.322 -0.300 -0.898 70 69 65
13.5007 40.8012 59.8113 0.335 -0.304 -0.892 120 119 115
13.6368 40.7859 59.8700 -0.047 -0.427 -0.903 113 112 108
13.7670 40.7755 59.9363 0.021 -0.418 -0.908 58 57 53
13.9432 40.7276 59.9435 0.051 -0.389 -0.920 72 71 67
14.1056 40.6907 59.9680 0.051 -0.389 -0.920 108 107 103
14.2314 40.6838 60.0398 0.200 -0.434 -0.879 108 109 103
14.8583 40.5539 60.1648 0.575 -0.322 -0.752 83 84 78
16.0272 40.2623 60.2772 0.173 -0.352 -0.920 82 84 73
16.5335 40.0315 60.0708 0.502 -0.513 -0.697 81 83 72
16.6937 39.9943 60.0931 0.071 -0.224 -0.972 86 86 76
16.8081 39.9961 60.1781 0.098 -0.275 -0.956 76 76 68
16.9432 39.9803 60.2347 0.174 -0.320 -0.931 80 77 70
18.2000 39.5981 60.1880 -0.018 -0.217 -0.976 75 72 65
18.3340 39.5824 60.2441 -0.092 -0.261 -0.961 97 94 85
18.6786 39.4837 60.2462 -0.010 -0.169 -0.986 127 124 115
20.0265 39.2122 60.5338 0.109 -0.202 -0.973 107 103 99
20.2008 39.1594 60.5278 0.114 -0.247 -0.962 108 104 97
20.6876 39.0326 60.5615 0.148 -0.270 -0.951 91 87 76
20.8166 39.0203 60.6225 0.200 -0.319 -0.926 102 95 85
21.4022 38.9073 60.7594 0.431 -0.098 -0.897 97 90 82
22.1351 38.8719 61.1897 0.271 -0.245 -0.931 78 74 65
22.3036 38.8224 61.1877 0.284 -0.272 -0.919 88 86 74
23.1132 38.7145 61.4952 0.380 -0.002 -0.925 123 124 110
23.2426 38.7018 61.5554 0.371 -0.017 -0.928 103 104 90
23.3880 38.6735 61.5889 0.218 -0.154 -0.964 103 101 88
23.5958 38.5847 61.5186 -0.060 -0.316 -0.947 126 124 111
23.7741 38.5241 61.4964 -0.055 -0.308 -0.950 103 101 89
23.9043 38.5102 61.5542 -0.040 -0.257 -0.966 113 111 98
26.6427 37.8500 61.8735 0.637 0.058 -0.769 78 78 66
26.5353 38.0816 62.3631 0.301 0.219 -0.928 74 75 59
27.0596 38.0198 62.5817 0.478 -0.298 -0.826 79 84 62
