ply
format ascii 1.0
element vertex 893
property float x
property float y
property float z
property float nx
property float ny
property float nz
property uchar diffuse_red
property uchar diffuse_green
property uchar diffuse_blue
end_header
-13.3119 9.4395 71.6418 -0.033 -0.511 -0.859 89 104 100
-1.0012 7.8549 70.8877 0.095 -0.848 -0.521 92 112 113
1.6193 7.7570 71.3835 0.316 -0.305 -0.898 87 97 99
1.7483 7.7705 71.4582 0.341 -0.297 -0.892 102 113 115
1.8822 7.7813 71.5268 0.294 -0.278 -0.914 86 97 99
10.9735 6.6535 71.0859 0.158 -0.460 -0.874 94 105 107
21.7438 6.5420 73.9216 0.508 -0.504 -0.698 137 141 147
21.9469 6.6163 74.1845 0.308 -0.664 -0.681 125 135 134
22.4903 6.6407 74.4098 0.559 -0.695 -0.453 112 122 121
23.2125 6.3617 73.8555 0.354 -0.409 -0.841 105 111 109
24.7911 6.4727 74.6203 0.312 -0.432 -0.846 73 74 76
24.9290 6.4760 74.6694 0.312 -0.432 -0.846 67 68 70
25.0630 6.4832 74.7283 0.441 -0.511 -0.738 64 65 67
24.9996 6.6912 75.2802 0.384 -0.243 -0.891 61 62 66
25.1355 6.6975 75.3371 0.384 -0.243 -0.891 52 53 58
25.2996 6.6749 75.3231 0.197 -0.489 -0.850 46 46 54
25.4564 6.6596 75.3269 0.182 -0.497 -0.848 50 50 58
25.7739 6.6244 75.3228 -0.099 -0.678 -0.729 54 54 62
25.9260 6.6134 75.3370 0.351 -0.510 -0.785 60 60 68
26.0775 6.6028 75.3523 0.413 -0.207 -0.887 69 69 77
26.3317 6.6335 75.5104 0.395 -0.239 -0.887 82 86 90
26.4922 6.6131 75.5015 0.452 -0.314 -0.835 81 86 89
26.6496 6.5959 75.5001 0.501 -0.379 -0.778 82 87 90
26.7780 6.6099 75.5759 0.501 -0.379 -0.778 82 87 90
31.0898 6.8650 77.5331 -0.078 -0.785 -0.614 85 85 83
31.7553 6.9218 77.8830 0.581 -0.713 -0.393 83 87 90
34.9619 6.9932 79.0139 0.228 -0.282 -0.932 58 59 61
40.7629 7.5845 82.3273 -0.156 -0.075 -0.985 20 30 28
41.2241 7.1578 81.2916 -0.297 -0.358 -0.885 21 30 27
41.8534 7.7197 83.0159 0.810 -0.569 0.144 101 103 100
57.0597 8.1245 88.5608 -0.480 -0.677 -0.558 127 138 124
60.0683 8.2813 89.8682 0.055 -0.872 -0.487 107 112 106
60.2242 8.3414 90.0785 0.307 -0.727 -0.614 109 112 104
60.3622 8.3236 90.0699 0.294 -0.736 -0.610 112 115 105
61.4361 8.6206 91.1976 0.239 -0.881 -0.407 106 109 90
-18.9590 10.4400 72.2395 -0.023 -0.426 -0.904 114 148 157
-18.0719 10.3439 72.2366 -0.229 -0.348 -0.909 185 219 224
-17.7979 10.2959 72.1856 -0.336 -0.607 -0.720 185 218 221
-17.4570 10.2170 72.0701 -0.361 -0.512 -0.779 183 215 217
-16.0849 9.9703 71.7978 -0.073 -0.195 -0.978 150 180 179
-15.4035 9.8084 71.5552 -0.100 -0.657 -0.747 153 184 179
-15.2977 9.8360 71.6613 0.195 -0.402 -0.895 152 181 179
-15.1306 9.8351 71.7078 0.345 -0.058 -0.937 137 162 161
-14.9504 9.8281 71.7414 0.320 -0.125 -0.939 83 104 107
-14.7149 9.7952 71.7204 0.106 -0.115 -0.988 79 96 103
-14.5093 9.7762 71.7284 0.007 -0.078 -0.997 79 96 103
-14.1521 9.7632 71.7972 0.062 -0.199 -0.978 66 83 85
-13.7511 9.6514 71.6096 0.016 -0.506 -0.863 75 91 91
-13.5646 9.6408 71.6351 -0.018 -0.429 -0.903 78 94 93
-13.2973 9.5917 71.5792 -0.060 -0.472 -0.879 85 100 97
-9.6721 9.2515 71.7098 -0.170 -0.038 -0.985 66 80 83
-9.4766 9.2344 71.7204 -0.186 0.006 -0.982 77 91 94
-4.6586 8.3928 70.8319 0.416 -0.297 -0.859 82 100 104
-4.5108 8.3972 70.8870 0.340 -0.320 -0.884 80 97 104
-1.4202 8.1532 71.1242 0.560 -0.440 -0.702 92 111 115
-0.9073 7.9547 70.7323 0.263 -0.750 -0.607 95 115 116
1.5236 7.9640 71.4677 0.361 -0.413 -0.836 98 108 110
1.6657 7.9702 71.5259 0.361 -0.413 -0.836 106 116 118
1.7965 7.9829 71.5989 0.343 -0.340 -0.876 94 104 106
9.9477 6.9037 71.0356 0.060 -0.742 -0.668 106 116 118
22.9897 6.4549 73.6199 0.043 -0.249 -0.968 111 121 120
25.4890 6.7778 75.2303 0.527 -0.184 -0.829 50 50 58
25.6346 6.7738 75.2619 0.477 -0.604 -0.638 55 55 63
26.3544 6.7615 75.4384 0.339 -0.444 -0.830 82 86 90
26.4235 6.8394 75.6712 0.258 -0.622 -0.739 76 81 84
27.0370 6.9451 76.1385 0.515 -0.709 -0.482 72 77 80
27.4523 6.9577 76.2943 0.016 -0.667 -0.745 67 72 75
31.7979 7.0227 77.7403 0.557 -0.739 -0.378 80 85 88
35.0148 7.0717 78.8134 0.083 0.067 -0.994 62 63 65
37.3477 6.9267 79.0992 0.765 -0.637 -0.096 42 44 43
37.4430 7.0088 79.3506 0.759 -0.644 -0.099 51 51 51
40.5285 7.6443 81.9849 -0.319 -0.407 -0.856 38 49 42
41.1286 7.5708 81.9597 0.161 -0.649 -0.744 21 31 24
57.0755 8.2332 88.4227 -0.398 -0.729 -0.556 130 137 125
60.0903 8.4295 89.8384 0.659 -0.431 -0.617 108 113 107
60.9961 8.6424 90.6836 0.822 -0.344 -0.453 93 95 81
61.4696 8.8105 91.2802 0.775 -0.500 -0.387 103 106 88
61.5831 8.7005 91.0134 0.583 0.251 -0.773 102 105 86
62.5020 9.3911 93.1652 0.714 -0.341 -0.611 84 86 72
62.6658 9.4501 93.3740 0.720 -0.272 -0.639 78 80 66
62.8654 9.6247 93.9083 0.873 -0.408 -0.267 84 86 72
63.7608 9.6651 94.2800 0.225 0.099 -0.969 96 98 95
-18.0537 10.4986 72.1690 -0.310 -0.620 -0.720 53 83 85
-17.6977 10.4127 72.0402 -0.336 -0.607 -0.720 39 68 71
-17.3836 10.3457 71.9501 -0.336 -0.607 -0.720 37 66 68
-17.1050 10.2946 71.8930 -0.325 -0.626 -0.709 39 66 66
-16.8171 10.2390 71.8262 -0.325 -0.624 -0.711 52 80 82
-16.4485 10.1458 71.6813 0.323 0.135 -0.937 160 188 192
-16.2893 10.1491 71.7367 0.323 0.135 -0.937 150 179 183
-15.3098 9.9250 71.4151 -0.141 -0.634 -0.760 163 194 189
-15.2829 9.9895 71.5979 0.542 -0.176 -0.822 162 192 188
-14.7772 9.9847 71.7329 0.148 -0.360 -0.921 62 83 86
-14.5443 9.9528 71.7143 0.007 -0.078 -0.997 73 92 96
-13.6664 9.7707 71.4769 -0.064 -0.494 -0.867 70 84 85
-13.4761 9.7581 71.4985 -0.021 -0.434 -0.900 78 92 92
-13.0136 9.6935 71.4583 -0.052 -0.325 -0.944 79 94 91
-12.7822 9.6608 71.4374 -0.031 -0.477 -0.878 80 92 92
-10.6741 9.3463 71.2003 -0.065 -0.775 -0.628 73 87 88
-9.9004 9.4425 71.6875 0.160 -0.053 -0.986 44 55 59
-4.5711 8.5827 70.9129 0.461 -0.338 -0.821 76 91 98
-4.3705 8.5591 70.9077 0.406 -0.337 -0.850 76 91 98
-4.2382 8.5718 70.9808 0.644 -0.033 -0.765 81 96 103
-1.1291 8.1443 70.7298 0.127 -0.434 -0.892 94 113 117
1.7192 8.0908 71.4173 0.304 -0.290 -0.908 96 106 108
16.1920 6.8248 72.2136 0.096 -0.614 -0.784 88 95 98
16.7309 6.7391 72.1387 0.547 -0.518 -0.658 103 111 113
16.8545 6.7543 72.2162 0.537 -0.521 -0.664 105 113 115
16.9570 6.7864 72.3332 0.144 -0.574 -0.806 99 107 109
21.7912 6.7977 73.7771 0.257 -0.583 -0.771 122 127 127
25.3803 6.8954 75.0912 0.530 -0.213 -0.821 51 52 57
26.0024 6.9872 75.5221 0.576 -0.469 -0.669 80 80 88
27.2160 7.0581 76.0692 0.239 -0.664 -0.708 69 74 77
27.3456 7.0721 76.1450 0.071 -0.745 -0.664 69 74 77
27.4944 7.0646 76.1681 0.030 -0.660 -0.750 69 74 77
30.0410 7.0715 76.9313 0.434 -0.579 -0.690 59 62 69
30.1698 7.0876 77.0126 0.406 -0.570 -0.714 64 67 74
31.0040 6.9225 76.8087 0.193 -0.579 -0.792 76 76 74
31.1462 6.9205 76.8448 0.193 -0.579 -0.792 77 77 75
31.7870 7.1961 77.7798 0.582 -0.414 -0.700 75 79 82
35.3089 7.2156 78.8623 0.275 -0.697 -0.663 50 54 53
39.9675 7.4827 80.9486 0.115 0.026 -0.993 64 75 61
40.1139 7.4710 80.9597 0.304 -0.018 -0.953 60 70 59
59.9991 5.7861 82.2019 -0.096 -0.199 -0.975 104 108 94
61.3345 8.9064 91.0572 0.768 -0.493 -0.409 103 105 91
61.4880 8.9443 91.2047 0.757 -0.482 -0.441 100 103 86
61.6154 8.8850 91.0810 0.529 0.240 -0.814 98 101 84
61.9972 9.2243 92.1132 0.832 -0.470 -0.296 109 111 97
62.1752 9.3410 92.4819 0.831 -0.456 -0.319 112 114 100
62.5055 9.4760 92.9447 0.764 -0.520 -0.382 78 79 65
62.6833 9.5827 93.2861 0.923 -0.294 -0.247 75 76 62
62.8789 9.7450 93.7836 0.839 -0.518 -0.165 85 86 72
63.7666 9.7640 94.0946 0.667 -0.270 -0.694 95 98 92
65.9078 10.3612 96.3406 0.867 -0.192 -0.459 84 87 66
66.2326 10.8038 97.6361 0.965 -0.067 -0.253 89 92 73
-18.4597 10.6932 72.0850 0.127 -0.064 -0.990 87 110 112
-18.2661 10.6817 72.1107 0.127 -0.064 -0.990 74 98 100
-17.9548 10.6162 72.0251 -0.310 -0.620 -0.720 65 89 89
-17.5977 10.5293 71.8952 -0.336 -0.607 -0.720 61 86 86
-17.3096 10.4738 71.8297 -0.358 -0.551 -0.754 56 81 82
-17.0076 10.4116 71.7501 -0.323 -0.632 -0.705 60 81 88
-16.7685 10.3782 71.7300 -0.279 -0.692 -0.666 49 72 80
-16.5438 10.3513 71.7231 0.573 -0.038 -0.819 167 192 203
-16.4202 10.3712 71.8131 0.563 -0.013 -0.826 165 193 202
-15.5134 10.1805 71.5638 0.190 -0.343 -0.920 164 196 191
-15.3174 10.1661 71.5825 0.576 -0.387 -0.720 164 195 190
-15.1262 10.1540 71.6056 0.554 -0.392 -0.734 104 134 128
-15.0320 10.1875 71.7237 0.565 -0.397 -0.723 66 94 91
-14.7951 10.1537 71.7018 0.101 -0.349 -0.932 68 93 93
-13.6815 9.9373 71.4438 0.069 -0.430 -0.900 71 82 84
-13.4854 9.9219 71.4596 -0.059 -0.467 -0.882 77 91 91
-12.9636 9.8285 71.3602 -0.236 -0.534 -0.812 71 85 85
-12.7255 9.7924 71.3325 0.104 -0.357 -0.928 73 85 85
-10.8506 9.5907 71.3370 0.339 0.059 -0.939 69 83 83
-10.6611 9.5770 71.3554 0.581 -0.147 -0.801 68 82 82
-10.3477 9.5818 71.4601 -0.171 -0.270 -0.947 59 73 73
-6.8685 8.9525 70.7802 0.336 -0.561 -0.756 84 100 99
-6.6936 8.9437 70.8076 0.439 -0.585 -0.682 83 97 98
-6.3418 9.0893 71.3036 0.186 -0.838 -0.513 67 78 82
-4.9124 8.7516 70.8107 0.352 -0.613 -0.707 69 84 89
-4.7825 8.7657 70.8867 0.416 -0.568 -0.710 67 82 87
-4.5904 8.7468 70.8917 0.484 -0.554 -0.677 67 82 89
-4.4258 8.7424 70.9280 0.441 -0.571 -0.693 76 91 98
-4.1936 8.7018 70.8865 0.127 -0.552 -0.824 82 97 104
1.2086 8.2733 71.3113 0.161 -0.013 -0.987 85 96 92
16.7223 6.8933 72.1276 0.441 -0.640 -0.630 94 102 104
18.2348 7.1802 73.3443 -0.612 -0.479 -0.629 134 142 144
21.8539 6.8895 73.6191 0.160 -0.310 -0.937 118 123 119
23.0439 6.7013 73.4594 0.167 -0.249 -0.954 112 122 121
23.3730 6.6554 73.4319 0.378 -0.236 -0.895 126 132 130
25.3770 7.0508 75.0854 0.458 -0.207 -0.865 59 60 65
27.1002 7.1826 75.9454 0.529 -0.695 -0.487 68 73 76
27.2462 7.1783 75.9764 0.224 -0.666 -0.711 71 76 79
27.3666 7.2027 76.0774 0.117 -0.736 -0.667 73 78 81
29.9409 7.1757 76.7582 0.432 -0.565 -0.703 51 54 61
30.0727 7.1879 76.8295 0.432 -0.565 -0.703 62 65 72
30.2046 7.2000 76.9008 0.432 -0.565 -0.703 60 63 70
30.6443 7.1801 76.9758 0.335 -0.474 -0.814 61 65 69
31.1418 7.0828 76.8588 0.299 -0.538 -0.788 79 79 77
31.2708 7.0983 76.9385 0.407 -0.482 -0.776 82 82 80
31.4646 7.0275 76.8040 0.136 -0.189 -0.973 77 77 75
31.6007 7.0333 76.8594 0.172 -0.224 -0.959 76 76 74
32.8967 7.3898 78.2009 0.459 -0.399 -0.794 84 88 89
33.5119 7.3180 78.1870 0.093 -0.629 -0.772 65 69 70
35.3499 7.3120 78.7088 0.255 -0.689 -0.678 51 55 54
39.2921 7.5895 80.6113 0.274 -0.245 -0.930 38 50 29
39.4334 7.5894 80.6524 0.318 -0.238 -0.918 31 42 26
40.3681 8.0448 82.1548 0.054 -0.985 -0.162 42 55 39
42.3599 8.0731 82.8141 -0.338 -0.030 -0.941 37 43 28
45.0806 8.5675 84.9444 0.326 -0.584 -0.744 37 39 38
61.0228 8.8688 90.4231 0.555 -0.368 -0.746 93 95 82
61.3522 9.0375 90.9748 0.833 -0.346 -0.432 105 107 93
61.4971 9.0433 91.0329 0.611 0.272 -0.744 100 102 88
63.1210 9.6568 93.1636 -0.225 -0.383 -0.896 97 99 85
63.2376 9.5646 92.9489 0.066 -0.535 -0.842 94 96 82
63.9683 10.0090 94.3618 0.739 -0.420 -0.527 89 93 81
64.1217 10.0267 94.4545 0.537 -0.536 -0.652 89 93 81
64.2860 10.0758 94.6350 0.264 -0.866 -0.425 76 82 68
-18.8826 10.8955 72.0154 -0.037 -0.367 -0.930 67 83 86
-18.7270 10.9015 72.0772 -0.074 -0.359 -0.931 78 97 97
-18.4399 10.8473 72.0157 -0.037 -0.419 -0.907 93 112 112
-18.2207 10.8240 72.0174 -0.037 -0.419 -0.907 67 87 86
-17.8879 10.7482 71.9115 -0.284 -0.699 -0.656 50 71 70
-17.5548 10.6719 71.8043 -0.360 -0.555 -0.750 53 73 72
-17.2278 10.5981 71.7020 -0.360 -0.555 -0.750 53 74 75
-16.9221 10.5338 71.6188 -0.336 -0.588 -0.736 47 66 76
-16.6424 10.4812 71.5597 -0.334 -0.597 -0.729 90 109 124
-16.5690 10.5245 71.6975 0.573 -0.038 -0.819 171 194 209
-16.4487 10.5462 71.7909 0.563 -0.013 -0.826 170 197 210
-15.0722 10.2890 71.5039 -0.101 -0.491 -0.865 94 127 120
-14.9422 10.3057 71.5867 0.218 -0.486 -0.846 62 93 88
-12.7497 9.9630 71.3092 0.039 -0.420 -0.907 73 85 85
-11.1195 9.8016 71.3537 0.156 -0.216 -0.964 64 80 80
-7.3566 9.2780 71.0506 0.220 0.140 -0.965 84 100 99
-4.7654 8.8274 70.6004 0.421 -0.341 -0.840 63 78 83
-4.6268 8.8368 70.6661 0.421 -0.341 -0.840 63 78 83
-4.4676 8.8351 70.7082 0.456 -0.412 -0.789 62 78 85
-4.2865 8.8216 70.7252 0.511 -0.187 -0.839 76 92 99
-4.1173 8.8145 70.7556 0.273 -0.270 -0.923 77 92 99
1.2463 8.4033 71.2233 0.300 -0.442 -0.846 90 100 98
12.8040 7.3874 71.8826 0.366 -0.250 -0.896 98 107 106
13.1498 7.5616 72.4514 -0.428 0.511 -0.745 75 84 81
15.4499 7.1390 71.9911 0.387 -0.470 -0.793 87 92 96
16.2537 7.0719 72.0464 0.281 -0.700 -0.657 87 95 97
18.9009 7.1312 72.9810 0.293 -0.434 -0.852 107 117 118
19.0456 7.1297 73.0194 0.294 -0.425 -0.856 106 116 117
23.3781 6.7993 73.4020 0.254 -0.037 -0.967 106 112 111
25.5279 7.1935 75.0899 -0.060 -0.536 -0.842 70 71 76
25.6999 7.1615 75.0544 0.369 -0.485 -0.793 74 74 81
26.7608 7.2403 75.5768 0.493 -0.538 -0.684 78 83 86
26.8884 7.2560 75.6564 0.493 -0.538 -0.684 36 41 44
27.0161 7.2718 75.7361 0.493 -0.538 -0.684 43 48 51
27.1490 7.2819 75.8021 0.504 -0.530 -0.682 77 82 85
27.2834 7.2904 75.8643 0.203 -0.647 -0.735 84 89 92
27.4240 7.2919 75.9095 0.258 -0.609 -0.750 77 82 85
30.0705 7.3471 76.8332 0.490 -0.479 -0.728 67 70 77
30.7504 7.1991 76.6349 0.104 -0.350 -0.931 57 60 64
30.9333 7.3287 77.0365 0.356 -0.559 -0.749 72 73 71
31.2919 7.2273 76.8694 0.407 -0.482 -0.776 86 87 85
31.6120 7.1750 76.8227 0.129 -0.245 -0.961 82 82 82
33.4001 7.4349 78.0442 0.085 -0.480 -0.873 60 64 65
33.5279 7.4550 78.1357 0.158 -0.421 -0.893 54 58 59
35.1832 7.5177 78.7889 0.324 -0.346 -0.881 54 58 58
35.4216 7.3573 78.4282 0.220 -0.553 -0.804 50 54 54
39.9147 7.6366 80.4944 0.179 -0.430 -0.885 18 28 17
45.6988 9.8430 88.1115 0.725 -0.674 0.140 66 66 68
-18.9060 11.0697 71.9863 -0.034 -0.345 -0.938 56 72 72
-18.7122 11.0583 72.0125 0.161 -0.506 -0.847 60 76 76
-18.4057 10.9948 71.9329 -0.202 -0.741 -0.641 60 76 75
-18.1075 10.9348 71.8603 -0.253 -0.705 -0.663 64 80 79
-17.7654 10.8542 71.7455 -0.284 -0.699 -0.656 61 79 79
-16.5532 10.6010 71.4248 -0.342 -0.568 -0.749 142 160 176
-13.6280 10.2307 71.2941 -0.093 -0.259 -0.962 65 76 77
-11.9369 10.0430 71.2890 0.125 -0.250 -0.960 88 106 106
-11.3298 9.9838 71.3089 0.239 -0.340 -0.910 62 80 80
-9.8749 9.7410 71.0875 0.150 -0.920 -0.361 41 55 55
-4.6944 8.9432 70.4766 0.431 -0.360 -0.827 65 80 85
10.1165 7.3791 70.6444 0.283 -0.222 -0.933 71 82 85
11.7309 7.0624 70.2721 0.131 -0.423 -0.896 81 95 96
16.2290 7.2394 72.0640 -0.026 -0.425 -0.905 85 94 93
17.1843 7.1623 72.1384 0.281 -0.413 -0.866 97 105 107
17.3554 7.1393 72.1273 0.213 -0.421 -0.882 101 109 111
17.4457 7.1820 72.2678 0.281 -0.560 -0.780 106 111 112
19.3950 7.2239 72.9513 0.524 -0.497 -0.692 97 108 110
24.1252 7.0438 73.8580 0.569 -0.451 -0.688 97 103 103
25.6238 7.0950 74.4342 0.487 -0.340 -0.805 73 77 80
26.7844 7.3676 75.5024 0.514 -0.363 -0.777 65 69 70
26.9126 7.3827 75.5803 0.514 -0.363 -0.777 29 33 34
27.0469 7.3911 75.6420 0.494 -0.310 -0.812 48 52 53
27.1838 7.3966 75.6971 0.503 -0.316 -0.805 88 92 93
27.3200 7.4029 75.7537 0.321 -0.395 -0.861 89 93 94
27.4697 7.3938 75.7735 0.401 -0.307 -0.863 81 85 88
27.7545 7.3922 75.8526 0.543 0.089 -0.835 81 85 88
28.0292 7.4022 75.9599 0.652 0.125 -0.748 77 81 84
29.9524 7.4740 76.7156 0.424 -0.448 -0.787 60 65 69
30.7929 7.3000 76.4976 0.440 -0.592 -0.675 72 77 81
30.9251 7.3110 76.5658 0.212 -0.447 -0.869 77 81 82
31.0687 7.3070 76.5971 0.209 -0.454 -0.866 84 87 88
31.1890 7.3339 76.7043 0.270 -0.530 -0.804 92 95 96
31.6676 7.4483 77.1501 0.254 -0.213 -0.943 80 84 85
33.3732 7.6360 78.1516 0.069 -0.500 -0.864 50 54 57
33.5366 7.6031 78.1115 0.235 -0.288 -0.928 52 56 59
34.1785 7.7039 78.5691 0.513 -0.192 -0.836 51 52 54
39.5708 7.9479 80.8021 0.485 -0.716 -0.502 32 40 27
42.1246 8.3103 82.5188 0.286 0.209 -0.935 36 41 39
42.4380 8.2321 82.4019 0.188 0.234 -0.954 33 40 32
59.7131 8.8417 89.0966 -0.094 -0.762 -0.640 144 154 145
59.8488 8.8148 89.0645 -0.098 -0.753 -0.651 142 152 143
60.0008 8.8633 89.2385 0.708 -0.608 -0.360 121 131 122
-17.9711 11.0345 71.6816 -0.138 -0.736 -0.663 85 101 100
-16.4559 10.7166 71.2822 0.430 -0.484 -0.762 169 187 202
-13.6365 10.3945 71.2543 -0.094 -0.255 -0.962 64 75 76
-13.1686 10.3262 71.2103 -0.244 -0.504 -0.829 64 80 79
-7.1889 9.5022 70.7777 0.223 -0.497 -0.838 86 102 101
-6.0814 9.3351 70.6590 0.255 0.061 -0.965 74 85 87
-6.0325 9.3926 70.8260 0.587 -0.540 -0.603 74 85 87
-4.6939 9.0966 70.4327 0.442 -0.355 -0.824 65 80 85
8.9495 7.5281 70.2726 -0.045 -0.120 -0.992 104 115 118
10.0983 7.5390 70.6389 0.270 -0.236 -0.934 97 114 113
16.2484 7.3720 72.0012 -0.026 -0.425 -0.905 96 102 102
16.5748 7.3403 72.0128 -0.194 -0.241 -0.951 107 113 113
16.8174 7.2603 71.8716 0.594 -0.455 -0.664 111 116 119
16.9342 7.2813 71.9617 0.594 -0.455 -0.664 114 119 122
17.0615 7.2939 72.0325 -0.085 -0.611 -0.787 113 118 121
19.3757 7.3897 72.9665 0.290 -0.659 -0.694 94 105 107
19.5536 7.3591 72.9374 0.400 -0.586 -0.704 94 105 107
19.6879 7.3664 72.9962 -0.204 -0.425 -0.882 94 104 105
21.4992 7.0128 72.5890 0.219 -0.667 -0.713 85 92 98
21.9219 7.1428 73.0584 0.343 -0.860 -0.376 84 91 97
22.1820 7.1636 73.1899 0.277 -0.833 -0.478 95 102 110
23.9940 7.1843 73.7768 0.681 -0.212 -0.701 105 111 111
24.6909 7.1915 74.0008 0.528 -0.345 -0.776 94 97 102
25.3536 7.2342 74.3088 0.332 -0.457 -0.825 69 72 77
25.4936 7.2351 74.3523 0.484 -0.336 -0.808 63 67 70
25.6309 7.2388 74.4023 0.505 -0.319 -0.802 76 80 83
26.6497 7.5132 75.4304 0.418 -0.218 -0.882 70 74 75
26.7840 7.5216 75.4920 0.418 -0.218 -0.882 59 63 64
26.9233 7.5245 75.5406 0.435 -0.236 -0.869 31 35 36
27.0620 7.5279 75.5905 0.439 -0.231 -0.868 51 55 56
27.1953 7.5376 75.6553 0.439 -0.231 -0.868 87 91 92
27.3367 7.5380 75.6979 0.321 -0.395 -0.861 82 86 87
27.7841 7.5123 75.7611 0.422 -0.256 -0.870 76 80 83
27.9383 7.4976 75.7672 0.473 -0.425 -0.772 76 80 83
27.9778 7.7849 76.5420 -0.192 -0.658 -0.728 78 82 85
29.9802 7.5953 76.6263 0.416 -0.443 -0.794 68 73 77
30.9443 7.4423 76.5029 0.212 -0.447 -0.869 83 87 90
31.5355 7.5942 77.0800 0.192 -0.313 -0.930 74 78 81
34.1900 7.8489 78.5361 0.438 -0.188 -0.879 55 56 58
38.3548 7.9984 80.1559 0.617 -0.644 -0.453 52 60 46
39.1989 8.0083 80.4300 0.052 -0.674 -0.737 125 134 117
39.3468 7.9941 80.4358 0.273 -0.555 -0.786 81 92 76
39.4784 8.0154 80.5309 0.291 -0.535 -0.793 70 81 67
39.6141 8.0279 80.6041 0.285 -0.527 -0.801 39 47 34
41.7884 8.2517 81.8371 0.365 -0.066 -0.929 38 46 42
42.8821 8.7969 83.6063 -0.217 -0.477 -0.852 34 42 31
43.0261 8.7978 83.6508 0.299 -0.408 -0.863 37 45 34
59.7255 8.9452 88.9459 -0.089 -0.775 -0.626 136 146 137
59.8584 8.9058 88.8802 0.075 -0.850 -0.522 120 130 121
63.5897 10.4453 94.0648 0.785 -0.615 -0.080 94 95 77
66.0048 10.9770 96.1862 0.782 -0.608 -0.141 124 129 101
66.2421 11.2010 96.8510 0.833 -0.535 -0.142 114 118 90
-17.7846 11.1103 71.4560 -0.219 -0.723 -0.656 90 106 105
-16.4487 10.8745 71.2257 0.394 -0.525 -0.754 189 207 223
-16.3064 10.8857 71.2971 0.382 -0.535 -0.753 176 197 216
-10.7250 10.1598 71.0197 0.008 -0.548 -0.837 56 70 70
-10.5439 10.1499 71.0468 0.345 -0.507 -0.790 56 70 70
-10.4488 10.1834 71.1633 0.326 -0.504 -0.800 51 65 65
-9.7233 9.9788 70.8359 0.078 -0.655 -0.752 41 55 55
-9.5530 9.9737 70.8726 0.033 -0.608 -0.793 43 57 59
-7.2232 9.6758 70.7703 0.415 -0.271 -0.869 87 103 102
-4.6917 9.2491 70.3869 0.519 -0.508 -0.688 65 80 87
-4.9667 9.5676 71.1477 -0.590 -0.370 -0.717 70 85 92
4.2283 8.6174 71.3397 0.294 -0.115 -0.949 95 104 103
4.8533 8.5090 71.2369 -0.150 0.066 -0.986 95 104 103
9.6541 7.5926 70.2266 0.324 -0.363 -0.874 94 110 109
10.1358 7.6607 70.5484 0.344 -0.200 -0.917 104 125 120
16.2679 7.5046 71.9383 -0.026 -0.425 -0.905 103 109 107
16.5804 7.4838 71.9753 -0.194 -0.241 -0.951 101 107 107
16.8414 7.3886 71.8005 0.658 -0.444 -0.608 106 112 112
16.9383 7.4258 71.9271 0.575 -0.505 -0.643 108 114 114
17.0924 7.4167 71.9484 -0.080 -0.609 -0.789 112 118 118
18.2967 7.4841 72.4804 0.412 -0.390 -0.824 100 108 110
21.4053 7.1180 72.4268 0.235 -0.598 -0.767 83 92 99
21.5137 7.1475 72.5367 0.220 -0.593 -0.775 85 94 101
24.0772 7.2508 73.5633 0.232 -0.811 -0.537 116 122 122
25.2200 7.3778 74.2347 0.355 -0.333 -0.874 72 75 80
25.3710 7.3672 74.2510 0.271 -0.252 -0.929 55 58 62
26.6309 7.3739 74.6390 -0.056 -0.241 -0.969 70 74 75
27.0906 7.6495 75.5025 0.462 -0.256 -0.849 56 60 61
27.3544 7.6720 75.6394 0.371 -0.345 -0.862 71 75 76
27.9591 7.6276 75.6999 0.106 -0.536 -0.837 68 72 75
28.0541 7.8505 76.3168 -0.340 -0.812 -0.475 78 82 85
31.1174 7.5555 76.4377 0.292 -0.568 -0.769 72 76 79
31.2274 7.5965 76.5784 0.302 -0.422 -0.855 61 65 68
31.5482 7.7349 77.0384 0.185 -0.350 -0.918 66 70 73
31.9723 7.5377 76.6419 -0.043 -0.746 -0.664 81 85 87
32.3180 7.4455 76.4999 0.380 -0.528 -0.760 82 84 83
38.5481 8.0646 79.9670 0.275 -0.406 -0.871 34 43 26
38.8011 8.1259 80.2033 0.320 -0.459 -0.828 21 30 9
38.9405 8.1301 80.2555 0.135 -0.394 -0.909 36 45 24
39.0851 8.1233 80.2800 0.135 -0.394 -0.909 109 118 98
39.2333 8.1085 80.2845 0.232 -0.199 -0.952 121 130 111
39.3757 8.1060 80.3197 0.232 -0.199 -0.952 60 71 55
41.1423 8.2727 81.2794 0.576 -0.448 -0.684 35 44 42
41.8277 8.3319 81.6373 0.578 -0.466 -0.669 32 42 38
41.9774 8.3105 81.6247 0.593 -0.439 -0.675 41 51 46
43.0517 8.9154 83.5390 0.111 -0.335 -0.936 33 40 32
61.4546 9.6828 90.9759 0.829 -0.118 -0.546 100 102 89
62.0932 9.9115 91.7679 0.564 -0.085 -0.822 107 107 95
62.2185 9.8431 91.6240 0.862 -0.303 -0.406 108 108 96
62.5375 9.9470 91.9924 0.636 -0.424 -0.645 79 80 66
63.0324 10.1456 92.6626 0.651 -0.553 -0.521 68 69 55
63.1703 10.1210 92.6381 0.648 -0.593 -0.478 84 85 69
63.8602 10.4514 93.7140 0.634 -0.644 -0.428 72 73 55
-18.5802 11.4093 71.5304 -0.258 -0.746 -0.614 39 55 55
-18.0168 11.3031 71.4170 -0.152 -0.737 -0.658 89 105 104
-17.6932 11.2299 71.3199 -0.207 -0.715 -0.667 90 106 106
-16.4149 11.0198 71.1438 0.384 -0.534 -0.753 194 213 228
-16.2703 11.0299 71.2129 0.382 -0.535 -0.753 172 193 211
-13.3329 10.6455 71.0668 -0.307 -0.169 -0.937 34 46 48
-12.9984 10.5614 70.9442 -0.273 -0.183 -0.944 41 55 56
-12.7559 10.5222 70.9126 -0.272 -0.147 -0.951 43 57 58
-12.6121 10.5316 70.9797 0.208 -0.500 -0.841 50 61 63
-12.3985 10.5065 70.9764 0.210 -0.484 -0.849 70 85 85
-12.3476 10.6431 71.3506 0.642 -0.240 -0.729 81 99 99
-10.4569 10.2638 70.9098 0.000 -0.826 -0.564 53 65 63
-10.3453 10.2890 71.0088 -0.017 -0.857 -0.515 53 65 65
-7.1829 9.7272 70.4627 0.385 0.019 -0.923 77 93 93
-7.2210 9.8305 70.7231 0.415 -0.271 -0.869 79 93 94
-7.1101 9.8556 70.8218 0.104 0.107 -0.989 79 93 94
-2.6831 8.9806 69.8243 0.415 -0.280 -0.865 95 113 117
-2.3978 8.9073 69.7158 0.658 -0.126 -0.742 101 119 123
3.9134 8.5890 70.7362 0.650 0.070 -0.757 103 117 118
3.9903 8.6348 70.8791 0.651 0.074 -0.756 98 112 113
4.1530 8.7214 71.1547 0.546 -0.170 -0.821 98 108 105
13.1298 7.9571 71.7872 0.225 -0.366 -0.903 77 86 91
16.9474 7.5664 71.8836 0.749 -0.075 -0.658 102 108 108
17.0500 7.5994 72.0005 0.699 -0.096 -0.709 111 117 117
17.0825 7.6903 72.2489 0.249 0.286 -0.926 112 118 118
18.2983 7.6315 72.4522 0.657 -0.472 -0.588 102 110 112
23.1131 7.3804 73.2088 0.405 -0.300 -0.864 120 125 129
23.2570 7.3772 73.2428 0.007 -0.792 -0.611 120 125 129
24.8816 7.4412 73.8891 0.495 -0.619 -0.610 48 51 56
25.3717 7.5177 74.2345 0.265 -0.382 -0.885 58 61 65
25.6686 7.5014 74.2790 0.335 -0.181 -0.925 80 84 85
25.5635 7.7662 74.9441 0.069 -0.519 -0.852 80 84 85
26.7062 7.7573 75.2568 0.464 -0.423 -0.778 63 67 68
26.8369 7.7697 75.3281 0.464 -0.423 -0.778 52 56 57
27.5506 7.6000 75.0920 0.490 -0.420 -0.763 64 68 69
27.9686 7.6049 75.2279 0.702 -0.164 -0.694 62 66 69
28.2333 7.6247 75.3578 0.644 -0.327 -0.691 78 82 85
28.5075 7.9750 76.3592 0.089 -0.424 -0.901 77 80 85
29.1613 7.5217 75.3599 0.022 -0.467 -0.884 77 80 85
29.1113 7.7564 75.9623 -0.138 -0.063 -0.989 77 80 85
30.4778 7.6297 76.0314 0.303 -0.588 -0.750 94 99 103
30.6044 7.6476 76.1157 0.280 -0.530 -0.800 114 119 123
30.7233 7.6760 76.2252 0.311 -0.578 -0.754 111 116 120
31.2528 7.7194 76.4951 0.329 -0.553 -0.766 65 69 72
31.3881 7.7266 76.5538 0.247 -0.537 -0.806 61 65 68
31.5282 7.7271 76.5964 0.247 -0.537 -0.806 61 65 68
32.1058 8.1053 77.7604 0.805 -0.508 -0.305 82 84 83
38.8193 8.2610 80.1452 0.329 -0.218 -0.919 28 37 19
38.9798 8.2204 80.0856 0.596 -0.335 -0.730 39 48 30
39.2490 8.2488 80.2395 0.245 -0.201 -0.948 89 97 82
39.3911 8.2470 80.2766 0.245 -0.201 -0.948 53 61 48
41.0070 8.4383 81.2550 0.141 -0.203 -0.969 25 32 24
41.1624 8.4039 81.2102 0.189 -0.127 -0.974 31 37 33
41.7590 8.3230 81.1733 0.477 -0.629 -0.614 28 39 31
42.9220 9.0667 83.4704 -0.017 -0.414 -0.910 33 40 32
43.0541 9.1037 83.6065 0.047 -0.353 -0.935 33 40 32
46.1097 10.2712 87.5745 0.891 -0.040 -0.452 56 58 57
46.2412 10.3528 87.8274 0.823 0.089 -0.561 68 70 67
46.3943 10.3355 87.8271 0.728 -0.143 -0.670 77 79 76
48.1587 10.4956 88.7673 -0.705 -0.572 -0.419 76 72 76
52.6321 10.6346 90.4488 0.429 0.111 -0.896 78 84 74
54.5014 12.7772 96.6309 -0.415 -0.701 -0.581 68 75 67
60.2026 9.2826 89.1227 0.746 -0.325 -0.581 94 99 92
62.2293 9.9505 91.4747 0.847 -0.357 -0.395 103 103 91
63.0409 10.2487 92.4972 0.575 -0.522 -0.630 72 73 59
63.1802 10.2288 92.4859 0.656 -0.587 -0.474 87 88 72
63.8737 10.5728 93.5942 0.654 -0.616 -0.439 91 92 74
-17.5840 11.3408 71.1672 -0.207 -0.715 -0.667 91 107 107
-16.3790 11.1640 71.0598 0.384 -0.534 -0.753 200 219 232
-16.2342 11.1740 71.1288 0.382 -0.535 -0.753 171 193 207
-15.1078 11.0301 71.0843 0.323 -0.418 -0.849 153 183 177
-14.8896 11.0043 71.0811 0.030 -0.458 -0.888 73 101 97
-14.5231 10.9863 71.1419 -0.175 -0.388 -0.905 66 86 87
-13.5051 10.8093 70.9790 -0.181 -0.553 -0.814 24 35 37
-13.2754 10.7767 70.9614 -0.236 -0.579 -0.781 35 45 47
-12.5765 10.6730 70.8961 0.211 -0.493 -0.844 45 56 58
-12.3070 10.6199 70.8365 -0.018 -0.208 -0.978 65 78 79
-11.7175 10.5686 70.8760 0.136 -0.273 -0.952 79 98 96
-7.9672 10.1285 70.8300 0.245 -0.089 -0.965 80 94 95
-7.2257 9.9889 70.6833 0.423 -0.250 -0.871 77 91 92
-2.7442 9.1666 69.8531 0.432 -0.259 -0.864 82 100 104
0.3058 8.9094 70.0791 0.295 -0.606 -0.739 85 98 94
0.4503 8.9138 70.1331 0.295 -0.606 -0.739 84 101 95
3.4666 8.5519 70.0754 0.630 -0.393 -0.670 79 92 92
3.5329 8.6033 70.2292 0.640 -0.411 -0.649 100 114 115
3.6095 8.6486 70.3702 0.640 -0.412 -0.649 99 113 114
3.7322 8.6655 70.4507 0.623 -0.400 -0.672 92 106 107
3.8961 8.7505 70.7212 0.294 -0.847 -0.443 102 116 117
3.9774 8.7938 70.8583 0.249 -0.660 -0.709 100 114 115
4.1642 8.8658 71.1017 0.556 -0.217 -0.802 98 108 104
12.9981 8.0958 71.6905 0.142 -0.406 -0.903 81 91 93
13.1554 8.0870 71.7137 0.175 -0.387 -0.905 70 79 84
17.2853 7.7899 72.1533 -0.126 -0.081 -0.989 104 110 110
17.8220 7.7000 72.0762 0.330 -0.516 -0.790 66 74 76
18.1180 7.6910 72.1399 0.299 -0.604 -0.739 75 83 85
19.6681 7.5802 72.3068 0.070 -0.505 -0.860 110 121 123
21.4550 7.7629 73.3109 0.208 0.112 -0.972 87 96 103
23.1205 7.5226 73.1733 0.499 -0.272 -0.823 113 119 118
23.2430 7.5406 73.2564 0.304 -0.424 -0.853 114 120 120
24.7730 7.5586 73.7541 0.268 -0.629 -0.730 74 77 82
24.9222 7.5496 73.7745 0.306 -0.543 -0.782 69 72 77
25.3979 7.6413 74.1546 0.336 -0.101 -0.936 62 65 69
25.5428 7.6370 74.1859 0.337 -0.114 -0.935 65 69 71
25.6859 7.6344 74.2213 0.339 -0.131 -0.932 69 73 74
25.5702 7.9120 74.9132 0.055 -0.546 -0.836 72 76 77
26.7350 7.8786 75.1689 0.500 -0.451 -0.739 63 67 68
26.8632 7.8938 75.2464 0.500 -0.451 -0.739 49 53 54
26.9967 7.9031 75.3101 0.468 -0.431 -0.771 45 49 50
27.5811 7.7181 74.9984 0.475 -0.324 -0.818 68 72 73
27.7153 7.7257 75.0577 0.316 -0.116 -0.942 62 66 69
28.3075 8.0291 76.0255 0.858 -0.381 -0.345 81 85 88
28.4522 8.0258 76.0594 0.613 -0.273 -0.741 76 80 83
28.5803 8.0426 76.1413 0.284 -0.446 -0.849 77 80 85
29.1839 7.6481 75.2873 0.057 -0.497 -0.866 70 73 78
29.1087 7.9152 75.9638 -0.089 -0.119 -0.989 68 71 76
38.7865 8.5039 80.3538 0.515 -0.402 -0.757 23 31 18
39.2578 8.4043 80.2323 0.308 -0.268 -0.913 22 29 19
39.3983 8.4061 80.2783 0.269 -0.205 -0.941 39 46 36
41.3051 8.5837 81.3045 0.283 -0.158 -0.946 32 42 33
41.7767 8.4598 81.1193 0.481 -0.610 -0.629 38 52 38
54.5216 12.8951 96.4716 -0.649 -0.435 -0.624 67 74 66
59.2751 8.9253 87.4911 0.713 -0.455 -0.534 125 129 115
60.2271 9.4423 89.1233 0.780 -0.355 -0.514 88 94 86
60.3564 9.3878 89.0190 0.523 0.152 -0.839 94 97 87
61.0581 9.9427 90.6768 0.917 -0.292 -0.270 108 110 96
61.2310 10.0591 91.0319 0.908 -0.310 -0.282 104 106 92
62.2581 10.1219 91.4989 0.856 -0.429 -0.289 104 105 91
62.8870 10.2942 92.1347 0.510 -0.729 -0.456 70 71 57
63.0411 10.3240 92.2580 -0.082 -0.430 -0.899 76 77 63
63.1820 10.3105 92.2642 0.457 -0.403 -0.793 91 92 76
65.2319 10.7655 94.0578 0.481 -0.786 -0.387 107 112 93
-20.7110 12.4948 72.7748 -0.638 -0.152 -0.755 46 60 61
-16.1981 11.3181 71.0446 0.382 -0.535 -0.753 169 192 201
-15.3481 11.1475 70.8514 0.395 -0.517 -0.760 176 202 199
-15.2103 11.1606 70.9261 0.395 -0.496 -0.773 171 197 193
-15.0653 11.1702 70.9940 0.395 -0.496 -0.773 133 159 155
-14.8901 11.1652 71.0325 0.057 -0.245 -0.968 84 108 106
-14.6884 11.1472 71.0451 0.058 -0.310 -0.949 87 107 106
-13.2092 10.9035 70.8474 -0.236 -0.579 -0.781 31 39 44
-12.3333 10.7919 70.8153 0.160 -0.334 -0.929 69 81 82
-11.7131 10.7250 70.8242 0.254 -0.158 -0.954 83 99 98
-10.8676 10.5425 70.5988 0.147 -0.782 -0.606 75 91 90
-10.7533 10.5663 70.6945 -0.066 -0.656 -0.752 73 88 85
-9.3427 10.3368 70.5133 0.345 -0.584 -0.734 51 61 62
-7.2190 10.1414 70.6311 0.422 -0.260 -0.869 73 87 90
-4.1608 9.5904 70.0996 0.501 -0.490 -0.713 62 79 86
3.6747 8.7584 70.2458 0.593 -0.462 -0.659 113 127 128
3.8555 8.7391 70.2490 0.429 -0.426 -0.796 98 112 113
4.0022 8.8349 70.5415 0.284 -0.868 -0.406 100 114 115
10.3852 8.3395 71.1350 0.488 0.356 -0.797 111 118 114
14.6164 7.8929 71.2207 0.011 -0.402 -0.916 95 105 106
14.6938 7.9444 71.3776 0.167 -0.208 -0.964 96 106 107
15.0650 7.8790 71.3168 0.373 0.124 -0.920 97 107 108
17.8615 7.8151 71.9752 0.285 -0.403 -0.870 92 100 102
18.0191 7.8024 71.9887 0.323 -0.620 -0.716 93 101 103
18.1561 7.8071 72.0412 0.385 -0.537 -0.750 94 102 104
19.5522 7.7058 72.1894 0.077 -0.543 -0.836 102 113 115
20.6733 7.5879 72.2133 0.141 -0.719 -0.681 105 115 116
21.3929 7.9716 73.4238 0.173 0.094 -0.980 92 101 108
21.5378 7.9694 73.4608 0.166 0.085 -0.982 96 105 112
21.6839 7.9660 73.4950 0.238 0.076 -0.968 95 104 109
23.5197 7.6955 73.3326 0.062 -0.354 -0.933 91 97 97
24.8072 7.6737 73.6554 0.310 -0.582 -0.752 72 75 80
24.9367 7.6851 73.7235 0.333 -0.559 -0.759 75 78 83
25.2813 7.7670 74.0381 0.545 -0.315 -0.777 70 73 78
25.3813 7.8107 74.1813 0.355 -0.340 -0.871 62 65 69
25.5358 7.7962 74.1891 0.390 -0.285 -0.876 64 68 70
26.6013 7.7068 74.2707 0.277 -0.728 -0.627 71 75 76
27.4507 7.8595 74.9184 0.591 -0.662 -0.461 77 81 82
27.5791 7.8740 74.9939 0.570 -0.489 -0.660 72 76 77
28.2438 7.9206 75.3112 0.514 -0.350 -0.783 69 73 76
28.4792 8.1488 75.9742 0.615 -0.292 -0.732 75 79 82
28.6065 8.1666 76.0581 0.291 -0.433 -0.853 73 76 81
29.1497 7.6717 74.9307 0.215 -0.633 -0.744 71 74 79
29.1320 8.0420 75.8888 -0.070 -0.288 -0.955 64 67 72
29.3081 7.9982 75.8268 0.503 -0.169 -0.848 50 53 58
29.4323 8.0194 75.9187 0.490 -0.430 -0.759 52 55 60
29.5621 8.0338 75.9943 0.490 -0.430 -0.759 82 85 90
29.6888 8.0521 76.0795 0.363 -0.323 -0.874 85 88 93
31.1822 7.9391 76.2258 0.423 -0.481 -0.768 101 105 108
31.3037 7.9648 76.3286 0.301 -0.651 -0.697 99 103 106
31.5789 7.9726 76.4300 0.126 -0.704 -0.699 75 79 82
32.1447 8.5770 78.1691 -0.074 -0.844 -0.531 76 78 77
33.4870 8.0561 77.2098 0.623 -0.607 -0.493 75 79 82
33.6128 8.0785 77.3052 0.627 -0.604 -0.492 69 73 76
39.2726 8.5467 80.1921 0.267 -0.198 -0.943 29 36 29
39.4143 8.5461 80.2324 0.267 -0.198 -0.943 47 57 49
46.3238 10.4372 87.1892 0.580 -0.814 0.036 40 42 39
58.8702 9.0317 87.2327 0.064 0.092 -0.994 107 110 99
59.0036 8.9987 87.1862 0.610 -0.500 -0.615 124 127 116
59.1449 9.0094 87.2557 0.417 -0.282 -0.864 148 151 140
60.2462 9.5777 89.0588 0.775 -0.361 -0.518 89 92 83
61.0659 10.0330 90.4848 0.900 -0.344 -0.269 99 101 87
61.2440 10.1712 90.8968 0.895 -0.348 -0.278 102 104 90
62.1315 10.2538 91.3736 0.783 -0.587 -0.205 125 126 112
62.2725 10.2420 91.3842 0.857 -0.426 -0.289 117 118 104
62.9040 10.4247 92.0457 0.526 -0.707 -0.473 79 80 66
63.0601 10.4614 92.1873 -0.063 -0.417 -0.907 96 97 81
63.1991 10.4413 92.1760 0.400 -0.337 -0.853 108 109 92
63.9312 10.9091 93.6088 -0.664 -0.270 -0.698 96 99 78
65.7708 11.1149 94.6868 0.192 -0.462 -0.866 110 114 91
-20.0433 12.4288 72.3166 -0.634 -0.279 -0.721 48 62 63
-16.4798 11.4555 70.8497 0.538 -0.158 -0.828 130 150 157
-16.2940 11.4459 70.8795 0.017 -0.208 -0.978 186 206 213
-16.0656 11.4156 70.8687 0.016 -0.206 -0.978 166 186 191
-15.8493 11.3910 70.8688 -0.102 -0.555 -0.826 174 195 196
-15.8396 11.4665 71.0670 -0.220 -0.514 -0.829 175 198 195
-15.5578 11.4100 71.0040 -0.167 -0.346 -0.923 175 198 193
-15.3111 11.3704 70.9743 -0.167 -0.346 -0.923 171 193 190
-15.0929 11.3445 70.9716 -0.170 -0.352 -0.920 119 141 139
-14.8557 11.3091 70.9500 -0.171 -0.372 -0.912 94 112 112
-13.4048 11.0791 70.7831 -0.259 -0.519 -0.814 29 40 44
-12.9469 10.9324 70.5387 -0.109 -0.519 -0.847 30 37 43
-12.8214 10.9510 70.6237 0.062 -0.646 -0.761 30 39 44
-12.4393 10.9225 70.6628 0.188 -0.582 -0.791 55 63 68
-12.2745 10.9213 70.7084 0.062 -0.627 -0.777 71 81 83
-10.6943 10.6941 70.5869 -0.126 -0.622 -0.773 69 84 81
-10.4798 10.6667 70.5793 -0.072 -0.668 -0.741 44 56 54
-10.3788 10.7805 70.9037 0.564 -0.647 -0.514 47 59 57
-9.2699 10.4559 70.3908 0.321 -0.560 -0.764 51 61 60
-6.8358 10.2619 70.6073 0.431 -0.392 -0.813 73 89 89
-6.7702 10.3118 70.7559 0.536 -0.436 -0.723 69 85 85
-5.9324 10.2869 70.9387 0.266 -0.762 -0.591 53 67 76
9.5826 8.2314 70.1988 0.117 -0.501 -0.857 73 83 84
13.6287 8.2463 71.4316 -0.152 -0.743 -0.652 87 97 99
13.9162 8.1368 71.2331 0.087 -0.484 -0.870 93 103 105
14.1086 8.0998 71.1941 -0.107 -0.123 -0.987 97 107 109
14.8870 8.0539 71.3052 0.413 -0.171 -0.895 93 103 104
14.2957 8.7484 72.9279 0.011 -0.608 -0.794 93 103 102
14.4912 8.7099 72.8860 0.076 -0.629 -0.774 93 102 101
15.3863 8.2289 71.9054 0.466 -0.078 -0.881 94 100 96
23.6447 7.7201 73.0263 0.257 -0.609 -0.750 87 93 93
23.7619 7.7434 73.1213 0.140 -0.641 -0.755 87 93 93
25.5446 7.9385 74.1525 0.103 -0.520 -0.848 64 68 70
27.6010 8.0020 74.9239 0.519 -0.736 -0.435 75 79 80
28.2411 8.2493 75.7526 0.446 -0.592 -0.671 86 90 93
28.6145 8.3130 76.0278 0.414 -0.344 -0.843 70 73 78
29.1560 7.8177 74.9057 0.235 -0.569 -0.788 66 69 74
29.2858 7.8299 74.9757 0.571 -0.571 -0.590 62 65 70
29.4473 8.1564 75.8684 0.342 -0.320 -0.883 58 61 66
29.5829 8.1634 75.9266 0.480 -0.410 -0.776 87 90 95
29.7095 8.1820 76.0121 0.338 -0.235 -0.911 80 83 88
31.3293 8.0872 76.2447 0.351 -0.478 -0.806 111 115 118
31.6071 8.0912 76.3371 0.221 -0.478 -0.850 75 79 82
33.5161 8.1722 77.1103 0.279 -0.513 -0.812 66 70 73
33.6446 8.1905 77.1954 0.298 -0.568 -0.767 63 67 70
33.9342 8.1763 77.2443 0.522 -0.801 -0.292 65 69 72
34.0517 8.2122 77.3719 0.689 -0.651 -0.318 65 69 72
34.2553 8.1118 77.1721 0.041 -0.886 -0.462 69 70 74
34.7779 8.1717 77.4816 0.435 -0.438 -0.787 70 71 73
34.9404 8.1347 77.4336 0.461 -0.538 -0.706 67 68 70
39.0281 8.6385 79.9441 0.251 -0.347 -0.903 28 34 33
39.1666 8.6445 80.0005 0.616 -0.255 -0.745 24 30 28
39.2968 8.6688 80.1018 0.272 -0.214 -0.938 34 40 36
39.4382 8.6685 80.1429 0.272 -0.214 -0.938 46 56 48
40.1927 8.5551 80.0720 0.725 -0.469 -0.505 22 32 21
42.2612 9.0596 81.9883 0.912 0.011 -0.411 41 54 35
42.3768 9.1369 82.2224 0.908 -0.001 -0.418 23 34 17
42.6129 9.2830 82.6703 0.879 -0.110 -0.464 30 38 29
58.7482 9.1574 87.1082 0.187 0.118 -0.975 109 111 100
58.8851 9.1435 87.1126 0.274 0.179 -0.945 126 129 118
59.0270 9.1568 87.1888 0.237 0.112 -0.965 141 144 133
62.1385 10.3469 91.1872 0.792 -0.577 -0.199 122 123 107
62.2882 10.3667 91.2828 0.858 -0.420 -0.294 127 128 112
64.0576 10.9273 93.2557 0.583 -0.666 -0.466 90 93 74
66.5108 11.9660 96.6681 0.973 -0.219 -0.078 100 104 78
-19.9883 12.5689 72.2141 -0.634 -0.279 -0.721 48 62 62
-16.7785 11.6011 70.6709 0.386 0.066 -0.920 77 96 103
-16.6225 11.6058 70.7291 0.499 0.088 -0.862 69 89 98
-16.4885 11.6211 70.8081 0.499 0.088 -0.862 140 160 168
-15.8534 11.6347 71.0307 -0.200 -0.481 -0.853 184 207 200
-15.5706 11.5775 70.9669 0.053 -0.301 -0.952 191 212 207
-15.3552 11.5530 70.9676 0.047 -0.292 -0.955 186 206 204
-15.1231 11.5202 70.9517 -0.218 -0.509 -0.832 109 129 129
-12.8624 11.0492 70.4069 -0.186 -0.320 -0.929 46 53 59
-12.7779 11.0883 70.5325 0.130 -0.606 -0.785 48 57 62
-12.5791 11.0701 70.5444 0.014 -0.468 -0.884 54 61 67
-12.3814 11.0523 70.5570 0.014 -0.468 -0.884 56 63 69
-12.1918 11.0385 70.5776 -0.030 -0.533 -0.846 74 84 86
-12.0252 11.0363 70.6212 0.045 -0.627 -0.778 76 90 91
-11.7359 11.0541 70.7525 0.323 -0.595 -0.736 73 89 88
-11.5310 11.0324 70.7570 -0.155 -0.287 -0.945 68 82 82
-10.9001 10.7925 70.3259 0.266 -0.394 -0.880 67 83 82
-10.7725 10.8095 70.4074 0.117 -0.494 -0.862 67 82 79
-10.6275 10.8177 70.4713 0.156 -0.489 -0.858 66 81 78
-10.5483 10.8598 70.6032 0.557 -0.277 -0.783 45 57 55
-10.3851 10.8588 70.6487 0.415 -0.145 -0.898 52 62 61
-7.2070 10.3623 70.3095 0.487 0.024 -0.873 66 77 81
-6.8506 10.4260 70.5787 0.411 -0.485 -0.772 72 88 88
-6.7474 10.4558 70.6861 0.536 -0.436 -0.723 62 78 78
-6.4637 10.4739 70.8164 0.418 -0.489 -0.765 53 71 70
-3.4497 10.0225 70.5448 0.249 -0.103 -0.963 72 92 93
-3.3429 10.0503 70.6479 -0.247 -0.357 -0.901 68 86 88
9.7467 8.3664 70.1802 0.286 -0.254 -0.924 68 74 74
10.4218 8.6120 71.0120 -0.021 0.166 -0.986 111 110 105
11.6354 8.3673 70.7405 0.108 -0.167 -0.980 117 118 108
22.9740 7.8384 72.7293 0.442 -0.613 -0.655 104 112 99
23.0873 7.8653 72.8320 0.488 -0.620 -0.615 100 108 96
23.6494 7.8650 72.9973 0.140 -0.641 -0.755 83 89 89
24.3734 7.8418 73.1515 0.435 -0.553 -0.711 71 77 77
26.4755 8.3131 74.9860 0.428 -0.734 -0.528 69 73 75
26.6199 8.3101 75.0210 -0.199 -0.584 -0.787 72 76 78
27.9333 8.0956 74.8567 0.842 -0.102 -0.530 90 94 98
27.9908 8.1949 75.1294 0.696 0.281 -0.661 90 94 98
28.2883 8.3475 75.6103 0.420 -0.568 -0.708 91 95 99
29.1694 7.9549 74.8598 0.234 -0.499 -0.834 63 66 71
32.8228 8.5297 77.4192 -0.552 0.241 -0.798 77 81 83
33.6009 8.2023 76.8062 0.442 -0.748 -0.495 70 74 77
34.6797 8.4960 77.8812 -0.009 -0.532 -0.847 67 68 70
42.1827 9.0683 81.5717 0.609 -0.463 -0.644 67 81 58
42.3882 9.2947 82.2153 0.039 -0.968 -0.247 40 52 33
45.9030 10.7873 87.0970 0.057 0.762 -0.645 48 50 49
46.0641 10.7311 86.9998 0.029 0.755 -0.655 60 62 61
58.9012 9.2618 87.0100 0.654 0.323 -0.684 142 145 134
61.4398 10.4976 90.9420 0.926 -0.265 -0.268 92 95 78
61.6551 10.2170 90.2832 0.485 -0.050 -0.873 102 105 88
62.9326 10.6669 91.8191 0.261 -0.391 -0.883 97 98 82
63.0844 10.6900 91.9234 -0.269 -0.069 -0.961 119 120 102
-17.8354 12.1915 71.4072 -0.297 0.072 -0.952 83 101 107
-16.7884 11.7673 70.6303 0.528 -0.081 -0.846 87 106 114
-16.6431 11.7773 70.6987 0.610 -0.089 -0.787 73 93 104
-16.5334 11.8044 70.8008 0.499 0.088 -0.862 136 156 166
-15.5785 11.7427 70.9251 -0.216 -0.483 -0.848 105 125 123
-15.3210 11.6974 70.8853 -0.216 -0.483 -0.848 61 83 80
-15.0735 11.6568 70.8545 -0.238 -0.515 -0.824 45 66 64
-14.8413 11.6236 70.8381 -0.223 -0.543 -0.809 105 122 122
-12.8280 11.1908 70.3248 -0.160 -0.348 -0.924 72 81 86
-12.7295 11.2230 70.4364 0.130 -0.606 -0.785 71 80 87
-12.5558 11.2173 70.4733 0.117 -0.746 -0.656 50 59 66
-10.8442 10.9215 70.2218 0.147 -0.391 -0.909 59 75 74
-10.8004 10.9818 70.3892 0.102 -0.150 -0.983 59 73 73
-10.6030 10.9629 70.3993 0.152 -0.099 -0.983 51 65 65
-10.4238 10.9534 70.4280 0.152 -0.099 -0.983 42 54 54
-6.7709 10.6250 70.6671 0.118 -0.899 -0.423 59 77 77
-6.6101 10.6237 70.7115 0.098 -0.890 -0.445 58 76 76
-6.4471 10.6213 70.7534 0.102 -0.890 -0.445 57 72 75
-5.6596 10.5362 70.7685 0.178 -0.861 -0.476 43 60 68
-4.3764 10.0850 69.9923 0.434 -0.391 -0.812 58 73 81
0.8045 9.3985 69.7662 0.333 -0.343 -0.878 88 103 98
0.4134 9.7246 70.4858 -0.579 -0.031 -0.814 77 92 89
3.7954 9.1335 69.9719 -0.012 -0.617 -0.787 79 94 95
9.7779 8.4925 70.0994 0.330 -0.237 -0.914 111 117 115
12.0994 8.7113 71.3467 0.507 -0.782 -0.363 78 87 86
12.2526 8.7059 71.3782 0.492 -0.799 -0.347 78 87 86
16.0094 8.3726 71.6357 0.606 -0.123 -0.786 99 98 98
16.7793 8.2104 71.4480 -0.233 -0.398 -0.887 93 95 97
16.9461 8.1904 71.4460 -0.041 -0.545 -0.837 89 93 94
17.0821 8.1960 71.5005 0.108 -0.582 -0.806 86 92 92
23.6674 7.9967 72.9377 0.131 -0.652 -0.747 80 89 86
28.0213 8.3128 75.0354 0.876 -0.147 -0.459 78 85 90
29.2059 8.0633 74.7468 0.236 -0.524 -0.818 65 66 70
34.3820 8.4567 77.2853 0.384 -0.526 -0.759 65 66 68
34.5270 8.4488 77.3080 0.440 -0.548 -0.712 69 70 72
34.6555 8.4678 77.3948 0.436 -0.542 -0.719 72 73 75
35.3273 8.7583 78.3376 0.221 -0.494 -0.841 54 55 57
36.1634 8.7790 78.6379 0.840 -0.470 -0.273 38 42 43
39.0492 8.9417 79.9083 -0.162 -0.664 -0.730 31 40 39
39.1767 8.9725 80.0249 0.368 -0.718 -0.590 37 46 41
39.3129 8.9843 80.0954 0.368 -0.718 -0.590 39 49 40
41.5387 9.0777 80.9930 0.493 -0.571 -0.656 60 73 51
41.6869 9.0595 80.9901 0.624 -0.395 -0.675 46 60 37
43.3631 10.0364 83.9884 0.888 -0.372 -0.270 33 41 31
49.0177 12.3453 91.5754 -0.390 -0.920 0.032 104 110 100
55.2294 13.2902 95.8332 0.561 -0.804 -0.198 85 96 87
59.4694 9.3558 87.0091 -0.162 -0.242 -0.957 87 90 79
59.9865 9.1767 86.7033 0.139 -0.471 -0.871 111 114 105
60.6136 10.1002 89.2543 0.570 -0.691 -0.445 128 130 117
61.4432 10.5720 90.7083 0.896 -0.401 -0.192 91 93 79
61.8937 10.6408 91.0177 -0.097 -0.586 -0.804 102 105 86
62.9457 10.7842 91.6964 0.578 -0.253 -0.776 103 104 88
63.0928 10.7919 91.7596 0.410 -0.324 -0.853 123 124 108
63.2183 10.7291 91.6358 0.202 0.202 -0.958 119 120 102
-17.4487 12.0071 70.5844 0.046 -0.662 -0.748 81 95 96
-16.8256 11.9469 70.6152 0.324 -0.458 -0.828 86 106 113
-16.6817 11.9576 70.6851 0.530 -0.134 -0.837 85 105 114
-16.5417 11.9702 70.7587 0.574 -0.101 -0.813 94 114 123
-15.2781 11.8375 70.7946 -0.216 -0.483 -0.848 75 95 93
-14.7709 11.7496 70.7207 -0.233 -0.524 -0.819 104 121 121
-13.5121 11.5302 70.5345 -0.226 -0.438 -0.870 41 55 58
-13.1857 11.4481 70.4217 -0.273 -0.215 -0.938 42 53 57
-12.8543 11.3630 70.3029 -0.233 -0.289 -0.928 35 44 49
-12.6300 11.3316 70.2895 -0.023 -0.545 -0.838 43 52 59
-12.4799 11.3378 70.3497 0.117 -0.746 -0.656 46 55 60
-12.3015 11.3296 70.3816 0.038 -0.677 -0.735 58 66 72
-10.8892 11.1025 70.2209 0.113 -0.423 -0.899 55 71 70
-10.6319 11.1359 70.3822 0.142 -0.096 -0.985 49 61 61
-10.4509 11.1255 70.4093 0.142 -0.096 -0.985 38 50 50
-6.5539 10.6629 70.3842 0.192 -0.818 -0.543 70 86 86
-6.3999 10.6651 70.4354 0.192 -0.818 -0.543 65 80 81
-6.4027 10.7534 70.6597 0.035 -0.682 -0.731 63 77 78
-5.5214 10.6157 70.5695 0.378 -0.733 -0.566 39 53 62
-4.3833 10.2430 69.9567 0.436 -0.384 -0.814 61 74 82
-2.5812 10.1009 70.1281 -0.011 -0.486 -0.874 84 102 104
0.8125 9.5449 69.7160 0.216 -0.385 -0.897 86 101 96
3.8040 9.2783 69.9223 -0.031 -0.605 -0.795 82 98 98
9.7651 8.6496 70.0850 0.152 -0.499 -0.853 116 122 119
12.0424 9.0140 71.6880 0.733 -0.644 0.219 87 97 98
17.1041 8.3259 71.4330 0.186 -0.161 -0.969 111 115 116
17.3088 8.2735 71.3603 0.337 -0.460 -0.821 97 101 102
23.2099 8.1830 72.8767 0.190 -0.313 -0.931 80 84 83
26.7886 8.5879 74.9682 -0.083 -0.086 -0.993 63 66 73
27.6828 8.3668 74.6696 0.614 -0.483 -0.624 90 94 100
28.2210 8.5679 75.3415 0.455 0.380 -0.805 78 85 91
28.3333 8.6037 75.4659 0.286 -0.737 -0.612 74 81 87
28.6468 8.5657 75.4618 0.346 -0.883 -0.318 69 74 79
28.8678 8.4660 75.2732 0.034 -0.857 -0.515 67 70 74
29.2297 8.1875 74.6707 0.362 -0.351 -0.863 64 65 69
33.1535 8.7800 77.3424 -0.034 0.387 -0.922 63 68 73
33.3568 8.6841 77.1583 0.169 0.293 -0.941 63 68 72
35.3767 8.8386 78.1502 0.159 -0.641 -0.751 52 53 55
35.7050 8.7574 78.0404 -0.674 -0.575 -0.464 53 54 56
36.3353 8.8906 78.5663 0.744 -0.509 -0.433 30 35 35
38.7886 9.0682 79.7453 0.246 -0.084 -0.966 26 35 35
41.4280 9.1803 80.8126 0.545 -0.587 -0.599 57 68 51
42.3490 9.3763 81.5849 0.201 -0.272 -0.941 38 51 31
42.4904 9.3782 81.6315 0.389 -0.441 -0.809 55 68 50
42.6260 9.3972 81.7202 0.286 -0.461 -0.840 88 99 83
44.4819 9.3576 82.1686 0.068 0.014 -0.998 26 32 28
46.4967 11.2757 87.6537 0.395 0.483 -0.781 53 55 52
59.0793 9.5340 86.9402 0.473 -0.623 -0.624 118 121 110
59.2191 9.5365 86.9881 0.470 -0.615 -0.633 101 104 93
60.0025 9.2963 86.6078 0.065 -0.283 -0.957 116 119 110
60.6241 10.1984 89.0909 0.563 -0.664 -0.492 124 126 113
61.4609 10.7030 90.6247 0.871 -0.463 -0.167 84 86 72
62.3216 10.6913 90.8498 -0.124 -0.334 -0.935 105 108 91
62.9711 10.9427 91.6829 0.713 -0.381 -0.589 103 104 88
63.1251 10.9730 91.8056 0.131 -0.594 -0.794 119 120 104
63.2643 10.9544 91.7994 -0.435 -0.581 -0.689 104 105 87
63.4058 10.9437 91.8140 0.015 -0.539 -0.842 103 106 85
65.4636 11.8361 94.6976 0.452 -0.530 -0.717 105 107 84
65.5468 11.6584 94.2694 -0.002 -0.285 -0.959 107 109 85
-16.8112 12.1016 70.5517 0.349 -0.471 -0.810 81 100 107
-16.6742 12.1157 70.6280 0.583 -0.110 -0.805 84 104 113
-16.5409 12.1316 70.7080 0.618 -0.076 -0.782 105 125 133
-15.2378 11.9787 70.7065 -0.215 -0.522 -0.825 50 70 68
-14.7101 11.8801 70.6127 -0.268 -0.577 -0.771 22 39 39
-13.9584 11.7502 70.5062 -0.162 -0.462 -0.872 49 63 66
-13.2766 11.5712 70.2543 -0.135 -0.467 -0.874 39 53 56
-13.2159 11.6228 70.4033 -0.272 -0.241 -0.931 55 66 70
-12.8294 11.5094 70.2302 -0.254 -0.310 -0.916 70 79 84
-12.5772 11.4637 70.1891 -0.030 -0.550 -0.835 73 82 87
-12.4041 11.4581 70.2262 0.117 -0.746 -0.656 77 86 91
-12.2285 11.4512 70.2608 0.028 -0.674 -0.738 78 86 91
-10.9755 11.3051 70.2618 0.115 -0.401 -0.909 51 67 66
-10.4191 11.2669 70.3297 0.041 -0.153 -0.987 34 46 46
-7.3446 10.8190 70.1054 0.295 -0.608 -0.737 71 82 86
-6.5902 10.9260 70.6001 -0.062 -0.978 -0.201 73 84 86
-5.4585 10.7365 70.4551 0.378 -0.733 -0.566 54 67 75
-4.3102 10.3560 69.8307 0.256 -0.640 -0.725 60 71 80
-3.4720 10.4100 70.2159 0.187 -0.625 -0.758 66 84 88
-3.3029 10.4022 70.2462 0.236 -0.591 -0.772 62 77 82
-2.8817 10.3386 70.2099 -0.069 -0.272 -0.960 77 92 95
1.4967 10.0225 70.7060 -0.555 -0.340 -0.760 69 81 81
17.3172 8.4146 71.3179 0.355 -0.443 -0.823 103 107 108
17.4976 8.3822 71.2892 0.382 -0.239 -0.893 106 110 111
19.2310 8.4831 72.0590 0.495 -0.014 -0.869 107 121 121
19.3727 8.4836 72.1023 0.496 -0.040 -0.867 111 123 123
19.6255 8.5124 72.2501 0.241 -0.328 -0.913 109 121 121
22.5402 8.2990 72.5728 -0.100 -0.681 -0.725 82 86 85
22.6912 8.2888 72.5919 -0.079 -0.703 -0.707 87 91 90
25.3065 8.4995 73.9011 0.509 -0.637 -0.579 65 70 73
28.6174 8.5823 75.0924 0.380 -0.849 -0.366 68 73 79
29.2573 8.3068 74.5836 0.463 -0.347 -0.816 62 63 67
35.7626 8.8214 77.8165 -0.680 -0.561 -0.472 48 49 51
36.1790 9.0857 78.6100 0.761 -0.623 -0.181 36 40 41
36.3380 9.0535 78.5753 0.736 -0.603 -0.309 29 34 35
38.6902 9.1499 79.5172 -0.008 -0.486 -0.874 25 33 36
42.1939 9.6030 81.7044 0.344 -0.340 -0.875 69 82 64
42.3609 9.5317 81.5730 0.172 -0.320 -0.932 61 74 56
42.5044 9.5278 81.6057 0.356 -0.443 -0.823 56 69 51
42.6456 9.5303 81.6539 0.286 -0.461 -0.840 104 115 99
45.8292 11.1439 86.6888 0.990 -0.137 -0.038 74 78 79
46.5011 11.4964 87.7817 0.366 0.484 -0.795 81 83 80
55.9010 11.6113 90.8590 0.331 0.031 -0.943 75 85 77
59.8953 9.4865 86.6552 -0.036 -0.770 -0.637 94 97 88
61.2938 10.6688 90.0677 0.882 -0.426 -0.199 85 87 73
61.4671 10.7880 90.4213 0.871 -0.463 -0.167 76 78 64
61.5757 10.6506 90.1052 0.682 -0.010 -0.731 69 72 55
61.7193 10.6520 90.1513 0.855 -0.014 -0.519 101 104 87
62.3408 10.8284 90.7826 0.060 -0.230 -0.971 90 93 76
63.1405 11.0981 91.7034 -0.144 -0.797 -0.587 114 115 99
63.2822 11.0878 91.7193 -0.283 -0.752 -0.596 109 110 92
63.5942 11.1596 91.9939 0.526 -0.740 -0.420 115 118 97
-16.8125 12.2640 70.5028 0.596 -0.031 -0.803 79 98 104
-16.7505 12.3150 70.6498 0.570 0.147 -0.808 78 98 105
-13.3571 11.7714 70.2853 0.199 -0.008 -0.980 57 71 74
-12.3907 11.6102 70.1651 -0.113 -0.439 -0.891 81 91 93
-11.9542 11.5523 70.1486 -0.053 -0.609 -0.791 67 77 79
-11.7486 11.5296 70.1524 -0.053 -0.609 -0.791 61 75 75
-11.1474 11.4690 70.1779 0.276 -0.596 -0.754 44 58 58
-10.9925 11.4723 70.2321 0.276 -0.596 -0.754 47 61 61
-10.8265 11.4697 70.2749 0.247 -0.617 -0.747 48 62 62
-7.2920 10.9465 70.0035 0.282 -0.556 -0.782 73 84 86
-6.9545 10.8485 69.8565 0.076 -0.773 -0.630 72 82 84
-6.6895 10.9628 70.2234 -0.245 -0.754 -0.610 87 97 98
-5.4340 10.6158 69.7206 0.035 -0.580 -0.814 65 76 77
-5.1726 10.6444 69.8702 0.381 -0.400 -0.834 50 61 65
-4.4481 10.5002 69.7214 0.033 -0.376 -0.926 52 63 69
-4.2634 10.4837 69.7345 0.256 -0.640 -0.725 52 63 69
3.2309 9.6575 69.8736 0.373 -0.112 -0.921 75 88 88
