ply
format ascii 1.0
element vertex 876
property float x
property float y
property float z
property float nx
property float ny
property float nz
property uchar diffuse_red
property uchar diffuse_green
property uchar diffuse_blue
end_header
17.7181 2.3901 74.6695 0.340 -0.055 -0.939 133 142 140
21.2617 2.0456 75.4105 0.554 -0.496 -0.669 89 104 111
21.6473 2.0208 75.6164 0.290 -0.162 -0.943 129 147 152
22.9550 1.9313 76.2607 0.165 -0.472 -0.866 187 211 213
23.0802 1.9243 76.3383 0.292 -0.614 -0.733 180 204 208
23.7843 2.0918 78.8140 0.207 0.046 -0.977 141 166 173
25.0785 1.8970 78.4035 0.537 -0.330 -0.776 41 59 60
25.2403 1.8773 78.3976 0.518 -0.361 -0.776 40 54 61
26.0129 1.7912 78.4508 0.440 -0.361 -0.822 67 81 109
27.0684 1.8069 79.8395 0.088 -0.960 -0.266 63 75 100
30.4453 1.4734 80.4940 0.616 -0.360 -0.700 112 131 145
31.6502 1.5975 83.1264 0.447 -0.399 -0.801 118 145 162
32.2062 1.5560 83.3668 0.411 -0.209 -0.887 150 178 192
32.3624 1.5926 83.9101 0.669 -0.484 -0.563 145 171 186
32.4338 1.6144 84.2094 0.617 -0.377 -0.691 147 175 189
32.5490 1.6158 84.3578 0.622 -0.413 -0.665 201 230 244
32.8162 1.5448 83.9689 -0.510 -0.366 -0.778 197 229 244
33.6508 1.3684 83.2031 0.633 -0.551 -0.544 188 220 233
36.7052 1.1309 84.4284 0.414 -0.597 -0.687 149 179 191
37.1225 1.0980 84.5911 0.502 -0.487 -0.715 140 169 183
37.2632 1.0861 84.6379 0.511 -0.506 -0.695 146 174 186
41.0665 1.0133 88.3635 0.087 -0.857 -0.507 85 101 114
41.8053 0.8439 87.5551 -0.035 -0.826 -0.562 89 105 118
41.9618 0.8209 87.5110 0.566 -0.789 -0.240 84 100 114
42.1133 1.1899 91.3299 0.178 -0.947 -0.269 73 86 103
42.2400 1.1934 91.5123 0.124 -0.952 -0.281 96 109 125
42.3813 1.1856 91.6009 0.124 -0.952 -0.281 108 121 137
43.6532 1.0055 91.3092 0.311 -0.843 -0.438 118 134 147
43.7911 1.0001 91.4172 0.311 -0.843 -0.438 106 123 133
43.9441 0.9816 91.4130 0.066 -0.936 -0.346 99 115 128
44.0887 0.9703 91.4711 0.066 -0.936 -0.346 100 117 127
44.2432 0.9503 91.4537 0.161 -0.872 -0.462 107 124 134
44.4181 0.9116 91.2760 -0.083 -0.476 -0.875 114 131 139
44.5641 0.8987 91.3193 -0.099 -0.480 -0.872 116 135 141
46.7110 0.8958 93.8003 0.783 -0.251 -0.568 95 114 118
46.8454 0.8982 93.9803 0.740 -0.276 -0.614 98 117 121
46.9788 0.9020 94.1742 0.696 -0.356 -0.623 115 134 138
47.1198 0.8974 94.2935 0.773 -0.300 -0.559 111 130 134
47.2560 0.8988 94.4663 0.692 -0.286 -0.663 112 130 134
47.3796 0.9158 94.7785 0.705 -0.329 -0.628 120 138 142
47.7681 0.9500 95.5706 0.650 -0.696 -0.305 110 128 132
47.8974 0.9634 95.8530 0.665 -0.695 -0.275 109 126 133
49.1081 0.8393 96.0431 0.734 -0.475 -0.485 89 106 114
49.6656 0.8514 96.8141 0.446 -0.469 -0.763 109 124 131
49.8145 0.8400 96.8755 0.412 -0.457 -0.789 101 117 124
50.2008 0.9149 98.0666 0.678 -0.520 -0.519 108 127 131
51.6089 1.0334 100.8810 -0.710 -0.327 -0.623 118 142 146
54.9550 1.1782 106.2203 0.915 0.383 -0.129 101 101 111
55.1143 1.1723 106.3491 0.954 0.286 -0.086 75 87 93
55.9131 1.2779 108.3243 0.427 0.578 -0.696 59 84 79
56.0763 1.3572 109.2974 0.483 0.508 -0.713 63 90 82
57.5421 1.1847 109.3076 0.489 -0.034 -0.872 77 98 119
57.7062 1.1798 109.4516 0.459 -0.055 -0.887 78 98 122
57.8696 1.1695 109.5409 0.512 -0.060 -0.857 77 97 121
-22.7443 7.4338 75.4505 0.732 -0.283 -0.619 165 212 228
-22.8634 7.4822 75.7827 0.686 -0.376 -0.623 161 209 224
-22.6910 7.4678 75.8422 0.648 -0.376 -0.662 154 201 218
-23.0306 7.5641 76.3847 0.493 0.021 -0.870 146 192 213
-22.8825 7.5551 76.4686 0.493 0.021 -0.870 146 192 218
-22.7566 7.5509 76.5736 0.236 -0.175 -0.956 146 191 224
-20.4241 7.2279 76.1336 -0.267 -0.800 -0.537 176 218 236
-18.6870 6.9850 75.7837 -0.218 -0.454 -0.864 110 150 160
-15.4334 6.4934 74.7716 0.101 -0.568 -0.817 126 162 171
-15.2576 6.4772 74.8178 0.120 -0.561 -0.819 126 163 172
-14.9402 6.4525 74.9451 0.103 -0.577 -0.810 131 161 172
-14.6864 6.4187 74.9104 0.053 -0.512 -0.857 131 161 172
-14.4642 6.3920 74.9079 0.038 -0.543 -0.839 132 162 173
-12.9781 6.0794 73.5901 0.008 -0.190 -0.982 131 162 173
-12.8511 6.0737 73.6820 -0.006 -0.201 -0.980 132 163 173
-12.7451 6.0728 73.7960 -0.073 -0.169 -0.983 131 163 172
-12.6122 6.0659 73.8821 0.032 -0.107 -0.994 131 163 172
-13.4737 6.2852 75.0158 -0.334 -0.816 -0.472 131 163 170
-13.1478 6.2346 74.9015 -0.321 -0.820 -0.473 131 163 170
-12.7696 6.1720 74.7307 -0.307 -0.839 -0.450 134 164 174
-12.4399 6.1203 74.6099 -0.308 -0.833 -0.459 135 165 174
-12.1139 6.0693 74.4918 -0.186 -0.893 -0.411 138 168 172
-11.8110 6.0235 74.3974 -0.152 -0.911 -0.382 141 170 173
-9.7097 5.7045 73.7285 0.114 -0.147 -0.982 82 102 103
-9.2988 5.6328 73.5073 -0.086 -0.382 -0.920 84 102 104
-8.6426 5.5510 73.4717 -0.415 -0.257 -0.873 98 119 120
-7.1904 5.3294 72.9988 -0.052 -0.482 -0.875 78 102 104
-7.0203 5.3130 73.0371 -0.082 -0.475 -0.876 77 98 101
-6.4175 5.2422 73.0457 0.004 -0.646 -0.763 66 83 91
-6.2003 5.2146 73.0292 0.018 -0.658 -0.753 66 85 91
-4.8058 5.0262 72.8123 -0.027 -0.702 -0.711 74 91 99
-3.9763 4.9234 72.7732 0.122 -0.414 -0.902 46 65 72
-3.7798 4.9002 72.7752 0.432 -0.399 -0.809 62 81 87
-3.5752 4.8993 73.0030 0.470 -0.532 -0.704 89 108 114
-3.0471 4.8200 72.8431 -0.110 -0.503 -0.857 79 98 104
-2.7832 4.7802 72.7620 -0.093 -0.514 -0.853 83 102 108
-2.3117 4.7141 72.6652 0.158 -0.614 -0.773 88 105 113
-2.1098 4.6892 72.6570 0.124 -0.636 -0.762 87 104 112
1.3165 4.2851 72.6951 0.281 -0.261 -0.924 109 130 133
2.3918 4.2417 73.5168 -0.202 -0.401 -0.894 120 140 147
2.6014 4.2138 73.4882 -0.139 -0.366 -0.920 117 137 144
2.8421 4.1778 73.4172 -0.146 -0.356 -0.923 111 132 138
3.0074 4.1612 73.4471 0.229 -0.051 -0.972 105 124 130
5.0985 3.9052 73.3785 0.431 -0.674 -0.600 108 119 122
6.1954 3.7211 72.8590 -0.058 -0.724 -0.687 92 107 110
7.3056 3.5847 72.8181 -0.132 -0.485 -0.865 105 124 128
7.3824 3.5910 72.9681 0.571 -0.306 -0.762 105 121 124
7.6108 3.5563 72.8960 0.489 -0.157 -0.858 101 119 121
7.7593 3.5432 72.9405 -0.198 -0.434 -0.879 100 115 118
12.2687 3.0713 73.5717 0.485 -0.326 -0.812 104 110 109
12.3865 3.0665 73.6614 0.472 -0.300 -0.829 108 113 109
12.4863 3.0669 73.7809 -0.027 -0.445 -0.895 109 114 110
12.6330 3.0538 73.8233 0.021 -0.455 -0.890 101 106 102
15.1079 2.7731 73.9590 0.126 -0.886 -0.446 110 124 125
19.9408 2.3884 75.8128 -0.272 -0.278 -0.921 88 105 112
20.0563 2.3849 75.9118 -0.274 0.057 -0.960 89 106 113
20.2302 2.3619 75.8900 -0.280 0.065 -0.958 106 123 130
20.9976 2.1756 74.9675 0.823 -0.293 -0.487 108 126 130
21.6644 2.1611 75.5976 0.290 -0.162 -0.943 100 118 121
22.8491 2.0780 76.1607 0.165 -0.472 -0.866 210 234 236
23.1289 2.0538 76.2492 0.292 -0.614 -0.733 211 235 239
26.0487 1.9264 78.3889 0.527 -0.222 -0.821 73 86 113
26.3375 1.8574 78.0529 0.726 -0.043 -0.686 63 79 96
32.4537 1.7055 83.6512 0.791 -0.058 -0.609 153 181 195
32.5151 1.7324 83.9842 0.705 -0.357 -0.613 152 180 194
33.8635 1.4758 83.0513 0.798 -0.517 -0.309 198 230 245
34.2835 1.5010 83.7815 0.276 -0.498 -0.822 135 164 190
37.3387 1.1998 84.3896 0.518 -0.383 -0.765 146 174 188
37.4908 1.1811 84.3838 0.331 -0.383 -0.862 146 174 186
37.6314 1.1689 84.4284 0.335 -0.365 -0.868 146 174 185
37.7855 1.1489 84.4119 0.462 -0.459 -0.759 151 178 189
39.8936 1.2907 88.2273 0.029 -0.532 -0.846 35 45 63
40.1609 1.2806 88.4384 0.607 -0.378 -0.699 51 64 80
40.1587 1.3692 89.2964 0.823 -0.127 -0.554 88 98 115
41.0135 1.1261 87.9238 0.162 -0.944 -0.289 74 90 105
41.6875 1.0021 87.4988 -0.262 -0.735 -0.625 84 102 116
41.8287 0.9904 87.5487 -0.259 -0.727 -0.635 85 102 117
42.1763 1.1109 89.1213 0.829 -0.558 0.034 91 104 123
42.4539 1.3000 91.2796 -0.095 -0.967 -0.235 107 120 136
43.7177 1.1226 91.0181 0.350 -0.835 -0.424 101 118 130
43.8629 1.1106 91.0690 0.425 -0.770 -0.475 97 114 124
44.0034 1.1026 91.1542 0.153 -0.728 -0.668 90 107 118
44.1491 1.0901 91.2013 0.153 -0.728 -0.668 80 97 107
44.3564 1.0217 90.7766 0.107 -0.530 -0.841 78 95 105
44.4603 1.0468 91.1406 -0.168 -0.373 -0.913 79 96 104
44.5993 1.0402 91.2373 -0.099 -0.480 -0.872 81 100 107
44.7794 0.9952 91.0080 0.459 -0.752 -0.473 88 107 113
45.3718 1.0641 92.3632 0.690 -0.637 -0.345 110 129 133
45.7694 1.0696 92.8764 0.643 -0.400 -0.653 103 122 128
47.2861 1.0493 94.4329 0.692 -0.286 -0.663 102 120 124
47.4091 1.0675 94.7526 0.703 -0.342 -0.623 104 122 126
48.9791 1.0196 96.1033 0.357 -0.766 -0.534 94 111 121
49.1290 1.0060 96.1439 0.536 -0.605 -0.589 90 107 115
50.1003 1.0472 97.6674 0.632 -0.268 -0.727 119 137 141
50.2411 1.0526 97.8827 0.686 -0.149 -0.712 122 141 145
51.6449 1.1819 100.7621 -0.710 -0.327 -0.623 117 141 145
52.1369 1.0621 100.1678 0.783 -0.552 -0.286 120 140 147
57.5778 1.3551 109.3069 0.563 -0.360 -0.744 90 111 132
57.7411 1.3448 109.3964 0.566 -0.351 -0.746 82 102 126
57.9026 1.3235 109.3760 0.567 -0.263 -0.780 76 96 120
58.0661 1.3143 109.4756 0.479 -0.144 -0.866 76 96 120
58.2300 1.3065 109.5896 0.396 -0.101 -0.913 76 96 120
58.3915 1.2876 109.5930 0.295 -0.181 -0.938 76 96 121
-23.4233 7.8239 76.7343 -0.177 -0.018 -0.984 145 192 210
-23.0410 7.7638 76.5979 0.157 -0.055 -0.986 146 192 214
-22.8389 7.7431 76.6312 0.157 -0.167 -0.973 139 185 209
-22.6094 7.7164 76.6381 -0.088 -0.294 -0.952 139 185 210
-22.4458 7.7040 76.7077 -0.394 -0.589 -0.705 147 193 216
-22.0296 7.6362 76.5354 -0.387 -0.597 -0.702 157 204 226
-21.6654 7.5796 76.4116 -0.381 -0.602 -0.701 164 210 225
-18.7262 7.1641 75.8038 -0.106 -0.091 -0.990 132 170 182
-14.9948 6.6078 74.7574 -0.232 -0.544 -0.807 129 162 170
-14.8743 6.6041 74.8603 -0.278 -0.717 -0.640 131 161 168
-13.7002 6.3604 73.8743 0.025 0.132 -0.991 132 160 171
-13.4147 6.3187 73.8031 0.041 0.112 -0.993 131 159 169
-13.2041 6.2941 73.8090 0.041 0.112 -0.993 135 163 170
-12.8106 6.2511 73.8485 -0.040 -0.003 -0.999 134 162 170
-12.6530 6.2386 73.9090 -0.043 -0.081 -0.996 138 167 177
-13.1098 6.3673 74.6165 -0.334 -0.816 -0.472 138 167 177
-12.7284 6.3034 74.4425 -0.308 -0.836 -0.454 140 169 177
-12.0912 6.2042 74.2235 -0.308 -0.833 -0.459 141 169 177
-11.8086 6.1627 74.1508 -0.186 -0.893 -0.411 138 164 168
-11.5046 6.1162 74.0543 -0.152 -0.911 -0.382 113 138 139
-10.8909 6.0216 73.8521 -0.314 -0.688 -0.654 90 113 111
-10.5772 5.9725 73.7420 -0.388 -0.474 -0.790 74 97 96
-9.7018 5.8639 73.7056 0.114 -0.147 -0.982 83 102 106
-9.2072 5.7719 73.3926 0.023 -0.090 -0.996 83 102 106
-4.7202 5.1622 72.7009 0.059 -0.630 -0.775 67 84 92
-4.4868 5.1301 72.6611 0.135 -0.681 -0.720 64 81 89
-2.1575 4.8309 72.4679 0.317 -0.526 -0.789 82 101 108
-1.9255 4.7984 72.4225 0.511 -0.115 -0.852 84 101 109
-1.9471 4.8286 72.6866 -0.170 -0.602 -0.780 84 101 109
1.0033 4.4665 72.6030 -0.317 -0.589 -0.743 105 126 131
1.1758 4.4482 72.6249 0.011 -0.174 -0.985 103 124 127
1.3513 4.4290 72.6428 0.265 -0.259 -0.929 100 121 122
1.9080 4.4416 73.4004 0.554 0.126 -0.823 107 127 134
2.7335 4.3328 73.3052 -0.323 -0.701 -0.636 119 138 145
2.9836 4.2940 73.2209 -0.323 -0.701 -0.636 113 132 138
3.2328 4.2554 73.1369 -0.323 -0.701 -0.636 103 122 127
7.3642 3.7181 72.7305 0.627 -0.192 -0.755 108 118 123
7.4249 3.7289 72.9037 0.567 -0.314 -0.761 112 123 127
7.6009 3.7084 72.9085 0.572 -0.275 -0.773 106 121 126
7.7539 3.6940 72.9468 -0.224 -0.465 -0.856 99 114 120
15.6017 2.8315 73.6860 0.173 -0.877 -0.448 110 121 123
15.6386 2.8514 73.9189 -0.096 -0.202 -0.975 116 127 129
15.8346 2.8226 73.8676 -0.138 -0.581 -0.802 110 121 123
15.9435 2.8205 73.9725 -0.019 -0.553 -0.833 116 127 129
16.3109 2.7702 73.9117 0.099 -0.343 -0.934 119 130 132
16.4651 2.7540 73.9340 0.099 -0.343 -0.934 107 118 120
16.6192 2.7379 73.9563 0.099 -0.343 -0.934 104 115 117
16.7710 2.7225 73.9824 0.067 -0.342 -0.937 116 128 128
17.9312 2.6481 74.5996 0.213 -0.625 -0.751 104 113 110
20.0004 2.5160 75.7057 0.181 0.069 -0.981 105 123 127
20.4619 2.4667 75.7634 -0.220 -0.032 -0.975 99 116 123
20.6613 2.4348 75.6865 -0.238 0.003 -0.971 99 116 123
20.9609 2.3688 75.3982 0.570 -0.009 -0.822 101 116 121
21.6492 2.3125 75.6479 0.307 -0.208 -0.929 108 125 131
21.9927 2.2663 75.5995 0.349 -0.520 -0.780 110 127 134
22.2525 2.2490 75.7314 0.439 -0.481 -0.759 85 105 110
22.8874 2.2110 76.0954 0.165 -0.472 -0.866 78 102 106
23.0314 2.1974 76.1303 0.165 -0.472 -0.866 102 126 130
23.1726 2.1848 76.1714 0.276 -0.537 -0.797 126 149 152
23.3673 2.1530 76.0905 0.448 0.428 -0.785 148 168 175
23.4959 2.1448 76.1595 0.448 0.428 -0.785 167 185 195
23.9125 2.1091 76.2955 0.209 0.348 -0.914 188 205 215
32.6055 1.7882 83.1812 0.335 -0.538 -0.774 163 189 202
32.7391 1.7804 83.2589 0.185 -0.459 -0.869 158 186 200
32.8912 1.7635 83.2715 0.099 -0.415 -0.905 200 229 243
33.0401 1.7481 83.2948 0.099 -0.415 -0.905 198 229 244
35.0651 1.5586 83.8017 -0.090 0.173 -0.981 144 172 194
35.2112 1.5441 83.8301 0.079 0.326 -0.942 129 157 179
36.5721 1.4522 84.5105 -0.367 0.220 -0.904 187 216 232
37.3744 1.3359 84.3170 0.512 -0.360 -0.780 146 174 186
39.9145 1.4412 88.2322 0.040 -0.566 -0.823 31 46 65
40.0042 1.4665 88.5765 -0.102 0.140 -0.985 32 43 62
40.1922 1.4242 88.3879 0.607 -0.378 -0.699 49 62 81
40.2021 1.5059 89.1799 0.342 -0.558 -0.756 73 86 105
42.0432 1.0875 87.2875 0.738 -0.574 -0.355 82 95 112
42.2876 1.0929 87.6194 0.834 -0.418 -0.359 108 121 138
43.5444 1.2180 90.2551 0.533 -0.582 -0.615 103 117 130
44.2378 1.1833 90.7165 -0.038 -0.583 -0.812 107 124 132
44.3957 1.1588 90.6635 -0.200 -0.470 -0.859 85 102 110
44.6177 1.1976 91.2883 0.296 -0.760 -0.578 72 89 96
44.7864 1.1629 91.1497 0.218 -0.890 -0.400 83 100 107
45.5494 1.1983 92.3625 0.898 -0.256 -0.358 111 130 136
45.8210 1.1955 92.6461 0.753 -0.297 -0.587 99 118 124
46.6556 1.1710 93.3681 0.801 -0.464 -0.377 112 131 135
46.7850 1.1789 93.5918 0.813 -0.439 -0.382 92 111 115
49.0237 1.1504 95.8823 0.582 -0.588 -0.562 140 159 169
49.1659 1.1482 96.0244 0.539 -0.597 -0.595 116 135 142
49.7302 1.1518 96.7043 0.493 -0.613 -0.617 67 82 89
50.3145 1.1275 97.1412 0.167 -0.963 -0.213 120 139 143
51.6800 1.3322 100.6621 -0.718 -0.312 -0.622 94 118 122
54.2595 1.3406 103.6966 0.019 -0.086 -0.996 115 133 139
55.8187 1.7291 109.1964 0.896 0.248 -0.367 88 112 108
57.6127 1.5199 109.2503 0.556 -0.369 -0.745 73 93 114
57.7756 1.5071 109.3142 0.533 -0.360 -0.765 70 92 116
57.9379 1.4909 109.3454 0.567 -0.263 -0.780 73 95 119
58.1050 1.5000 109.6236 0.646 -0.364 -0.671 77 96 119
58.2793 1.5405 110.2105 0.820 -0.339 -0.461 77 95 118
58.4204 1.4254 109.2711 0.275 -0.195 -0.941 74 94 118
58.5816 1.4076 109.2860 0.263 -0.202 -0.944 73 94 119
-23.7037 7.9658 76.0830 -0.400 -0.007 -0.916 166 215 232
-24.0974 8.0997 76.8975 -0.377 -0.028 -0.926 156 205 221
-23.2662 7.9882 76.7902 -0.243 -0.405 -0.882 157 206 223
-22.7869 7.9062 76.5612 0.066 -0.397 -0.915 166 214 232
-22.5733 7.8828 76.5834 -0.088 -0.294 -0.952 178 227 242
-21.8151 7.7624 76.3099 -0.387 -0.597 -0.702 165 214 226
-19.1200 7.3753 75.7218 -0.088 -0.211 -0.973 128 167 182
-16.0779 6.9020 74.7154 -0.109 -0.494 -0.863 121 155 164
-15.8338 6.8703 74.6934 -0.104 -0.516 -0.851 124 157 164
-15.6153 6.8443 74.6967 -0.096 -0.507 -0.857 126 159 166
-15.2066 6.7988 74.7313 -0.218 -0.695 -0.685 130 163 170
-13.7376 6.5331 73.8964 0.025 0.132 -0.991 143 170 175
-13.5194 6.5067 73.8953 0.040 0.073 -0.997 146 174 177
-13.2887 6.4774 73.8806 0.033 0.074 -0.997 138 166 168
-13.0775 6.4525 73.8858 0.033 0.074 -0.997 132 160 163
-12.8626 6.4267 73.8869 -0.052 -0.021 -0.998 124 152 157
-12.6555 6.4027 73.8957 -0.043 -0.081 -0.996 90 117 124
-12.7087 6.4391 74.1782 -0.341 -0.811 -0.475 79 108 116
-12.3715 6.3849 74.0497 -0.308 -0.836 -0.454 62 91 99
-12.0280 6.3290 73.9133 -0.310 -0.831 -0.462 33 61 72
-11.7197 6.2813 73.8132 -0.314 -0.827 -0.467 21 48 57
-11.5257 6.2601 73.8337 -0.181 -0.887 -0.425 19 43 49
-10.7062 6.1406 73.6383 -0.314 -0.688 -0.654 41 63 62
-10.4642 6.1079 73.6051 -0.388 -0.474 -0.790 73 95 93
-9.6655 6.0167 73.6516 -0.008 -0.189 -0.982 84 103 107
-9.1700 5.9237 73.3378 0.031 -0.100 -0.994 83 102 106
-6.4804 5.5246 72.6308 -0.185 -0.368 -0.911 83 102 108
-4.6789 5.3087 72.6411 0.342 -0.347 -0.873 52 69 77
-4.3938 5.2637 72.5408 0.163 -0.052 -0.985 76 93 101
-2.0404 4.9564 72.3158 0.350 -0.486 -0.801 84 101 109
-1.9588 4.9612 72.4534 0.328 -0.501 -0.801 83 100 108
-1.8554 4.9606 72.5648 -0.170 -0.602 -0.780 73 90 98
-0.1027 4.7475 72.5466 0.314 -0.404 -0.859 98 116 122
0.4166 4.6923 72.6155 -0.000 -0.245 -0.970 96 114 121
1.1431 4.6095 72.6597 0.007 -0.201 -0.980 96 116 118
1.8194 4.6185 73.5111 0.483 0.166 -0.860 104 123 127
7.6906 3.8331 72.7748 -0.082 -0.643 -0.762 99 113 118
7.8848 3.8073 72.7520 0.001 -0.710 -0.704 91 106 111
8.2013 3.7755 72.8116 0.250 -0.537 -0.806 87 102 107
10.3933 3.4990 72.6944 0.538 -0.456 -0.709 101 115 118
12.3498 3.3431 73.4449 0.125 -0.591 -0.797 102 108 105
12.5010 3.3286 73.4794 0.125 -0.591 -0.797 99 104 100
12.6368 3.3186 73.5393 0.219 -0.611 -0.761 94 99 95
12.7784 3.3068 73.5895 0.219 -0.611 -0.761 100 105 101
12.9243 3.2938 73.6324 0.254 -0.611 -0.749 101 103 100
13.1098 3.2690 73.6089 0.228 -0.524 -0.821 98 103 99
15.9964 2.9506 73.8851 -0.019 -0.553 -0.833 118 129 131
16.1732 2.9275 73.8673 -0.172 -0.320 -0.932 118 129 131
19.2997 2.6873 75.1509 0.689 0.250 -0.680 110 125 128
19.6514 2.6048 74.7735 0.453 -0.747 -0.487 107 121 122
20.1328 2.6542 75.7848 0.128 -0.065 -0.990 108 125 133
21.6563 2.4565 75.6504 0.387 -0.214 -0.897 115 132 139
21.8061 2.4410 75.6743 0.312 -0.200 -0.929 130 147 154
22.0128 2.4054 75.5742 0.404 -0.497 -0.768 124 141 148
22.6791 2.3564 75.8677 0.388 -0.502 -0.773 88 112 116
22.9256 2.3439 76.0303 0.165 -0.472 -0.866 84 108 112
23.0695 2.3303 76.0651 0.165 -0.472 -0.866 80 104 108
23.1981 2.3222 76.1347 0.204 -0.432 -0.878 79 101 104
35.1918 1.7109 83.9784 0.710 0.181 -0.681 132 160 182
38.4199 1.4459 85.1443 0.669 -0.098 -0.737 155 183 186
38.5473 1.4424 85.2554 0.627 -0.118 -0.770 158 186 189
41.3970 1.4545 88.6008 -0.102 0.228 -0.968 74 87 104
42.2573 1.2820 87.9518 -0.333 0.290 -0.897 83 96 113
42.3927 1.2752 88.0415 0.806 -0.555 -0.207 77 90 107
43.1253 1.3037 89.1403 0.255 0.005 -0.967 79 93 106
44.1091 1.3541 90.7310 0.051 -0.516 -0.855 137 151 160
44.2761 1.3214 90.6123 -0.029 -0.576 -0.817 128 142 151
44.6577 1.3346 91.1687 0.392 -0.734 -0.555 83 98 105
44.9722 1.2861 91.0695 0.326 -0.188 -0.927 82 97 102
45.3993 1.3936 92.5656 0.842 -0.448 -0.300 115 133 137
45.5693 1.3569 92.4123 0.768 -0.628 -0.130 119 136 143
46.6877 1.3177 93.3116 0.800 -0.451 -0.396 104 122 126
49.0601 1.2932 95.7707 0.582 -0.588 -0.562 105 125 134
49.2022 1.2912 95.9136 0.539 -0.597 -0.595 106 125 132
50.2235 1.2410 96.5991 0.172 -0.961 -0.214 58 75 82
50.5251 1.2094 96.6428 0.409 -0.900 -0.154 113 132 136
50.6609 1.2235 96.9298 0.624 -0.675 -0.394 108 129 132
51.3070 1.3945 99.2718 0.884 -0.289 -0.367 111 135 139
51.4570 1.3874 99.3753 0.885 -0.306 -0.351 110 134 138
51.5954 1.4096 99.7409 0.866 -0.327 -0.377 124 148 152
51.7158 1.4806 100.5464 -0.718 -0.312 -0.622 130 154 158
52.0402 1.4094 100.2436 -0.550 -0.321 -0.771 95 116 121
54.4499 1.4866 103.7029 0.122 -0.303 -0.945 102 122 129
55.8536 1.9242 109.4134 0.896 0.248 -0.367 85 106 104
56.1678 1.0692 101.7217 0.216 -0.975 0.045 72 94 92
57.6468 1.6795 109.1432 0.533 -0.360 -0.765 59 73 94
57.8106 1.6723 109.2608 0.533 -0.360 -0.765 71 87 110
57.9731 1.6571 109.3020 0.566 -0.221 -0.794 75 93 117
58.1428 1.6798 109.7081 0.737 -0.260 -0.624 76 95 120
58.3090 1.6806 109.9042 0.737 -0.260 -0.624 74 95 120
58.4730 1.6699 109.9899 0.844 -0.232 -0.484 74 95 120
58.6462 1.6972 110.4433 0.872 -0.376 -0.314 73 95 121
58.8219 1.7300 110.9514 0.878 -0.388 -0.279 72 95 122
-24.1766 8.2933 76.9505 -0.252 -0.034 -0.967 147 195 213
-23.1890 8.1462 76.6964 -0.243 -0.405 -0.882 163 211 223
-22.7169 8.0651 76.4743 0.087 -0.448 -0.890 154 202 212
-22.5458 8.0511 76.5367 -0.076 -0.300 -0.951 137 185 195
-21.6115 7.8903 76.0949 -0.392 -0.588 -0.707 114 162 169
-19.0706 7.5107 75.4293 -0.166 -0.542 -0.824 129 168 184
-18.8307 7.4805 75.4184 -0.193 -0.514 -0.836 127 166 182
-18.6544 7.4646 75.4697 -0.126 -0.508 -0.852 125 164 179
-18.4085 7.4330 75.4520 -0.128 -0.490 -0.862 127 164 178
-18.1623 7.4011 75.4336 -0.128 -0.490 -0.862 127 165 176
-13.7915 6.7101 73.9355 -0.068 -0.069 -0.995 81 107 109
-13.5463 6.6773 73.9067 0.040 0.073 -0.997 60 86 86
-13.3156 6.6478 73.8923 0.033 0.074 -0.997 26 52 52
-13.1042 6.6227 73.8975 0.033 0.074 -0.997 17 43 45
-12.8753 6.5936 73.8841 -0.052 -0.021 -0.998 13 38 43
-12.6730 6.5706 73.8981 -0.001 -0.118 -0.993 25 52 60
-12.3241 6.5131 73.7574 -0.313 -0.838 -0.446 29 56 65
-12.0180 6.4656 73.6606 -0.308 -0.836 -0.454 32 59 69
-10.3552 6.2439 73.4727 -0.252 -0.772 -0.584 96 117 118
-6.4281 5.6697 72.5589 -0.213 -0.332 -0.919 85 104 110
-6.3017 5.6637 72.6453 -0.127 -0.362 -0.923 84 103 109
-1.9760 5.0947 72.2277 0.363 -0.504 -0.784 85 102 110
-1.8772 5.0952 72.3442 0.347 -0.521 -0.780 80 94 103
-1.6975 5.0754 72.3621 -0.115 -0.609 -0.784 63 77 86
-0.4011 4.8999 72.1911 0.478 -0.378 -0.792 82 99 106
-0.2040 4.9273 72.6660 0.191 -0.349 -0.917 80 97 104
1.7250 4.7976 73.6295 0.317 -0.173 -0.933 105 121 124
4.0287 4.3751 72.2998 0.093 -0.238 -0.967 95 113 117
5.5801 4.2292 72.6900 0.238 -0.617 -0.750 103 116 122
5.7235 4.2178 72.7448 0.238 -0.617 -0.750 102 117 122
5.8036 4.2237 72.8892 0.238 -0.630 -0.740 103 118 123
5.9270 4.2177 72.9726 -0.246 -0.655 -0.715 103 117 121
6.1063 4.1964 72.9765 -0.213 -0.529 -0.822 107 118 121
6.9898 4.0088 72.2291 0.253 -0.594 -0.764 107 118 120
7.2279 4.0267 72.6630 0.020 -0.605 -0.796 106 120 121
13.1389 3.4080 73.5645 0.261 -0.617 -0.743 93 98 94
13.7838 3.3368 73.6293 -0.132 -0.143 -0.981 102 113 115
18.2973 2.8217 73.9216 0.360 -0.576 -0.734 103 112 111
18.4507 2.8052 73.9411 0.596 -0.431 -0.677 105 114 113
18.6511 2.7732 73.8697 0.401 -0.387 -0.830 105 114 113
19.3593 2.7441 74.3957 0.220 -0.806 -0.549 113 123 125
21.2166 2.6834 75.9178 0.466 0.279 -0.840 110 126 133
22.9194 2.4929 76.0646 0.400 -0.237 -0.885 87 110 114
23.0814 2.4727 76.0593 0.369 -0.245 -0.896 89 111 116
23.2321 2.4566 76.0789 0.378 -0.239 -0.894 92 112 115
23.5818 2.4457 76.3709 0.451 0.327 -0.831 29 38 49
23.7383 2.4274 76.3767 0.209 0.348 -0.914 40 48 61
23.8851 2.4126 76.4047 0.209 0.348 -0.914 43 51 64
25.0150 2.2694 76.3459 0.457 0.053 -0.888 158 181 186
27.8215 2.1930 78.7889 0.287 -0.488 -0.824 22 36 45
35.1833 1.8724 84.0840 0.701 0.179 -0.691 133 161 183
37.3086 1.6180 84.1120 -0.226 -0.450 -0.864 207 235 247
44.1326 1.5061 90.7378 0.384 -0.616 -0.688 105 119 128
44.2932 1.4792 90.6683 0.408 -0.692 -0.596 110 124 133
44.4494 1.4560 90.6288 0.035 -0.484 -0.874 109 123 132
44.5763 1.4608 90.8156 0.058 -0.411 -0.910 95 109 118
44.7605 1.4100 90.5520 -0.030 -0.387 -0.922 85 100 107
44.8936 1.4088 90.6899 -0.067 -0.432 -0.899 91 106 113
44.9975 1.4369 91.0667 0.336 -0.204 -0.920 88 103 108
45.1416 1.4254 91.1218 0.336 -0.204 -0.920 85 100 105
45.2897 1.4097 91.1426 0.428 -0.148 -0.892 89 104 109
45.4627 1.3681 90.9519 0.573 -0.732 -0.368 93 108 113
46.1449 1.4998 92.9384 0.053 -0.443 -0.895 107 126 132
46.4356 1.4781 93.0641 0.321 -0.513 -0.796 169 187 191
46.5705 1.4796 93.2294 0.648 -0.524 -0.553 117 135 139
46.9769 1.4841 93.7272 0.745 -0.439 -0.502 136 154 158
48.3850 1.4517 95.0080 0.455 -0.585 -0.671 136 154 159
50.2100 1.4779 97.3000 0.644 -0.698 -0.313 53 71 75
50.3523 1.4808 97.4874 0.652 -0.675 -0.345 72 91 95
50.4938 1.4863 97.6971 0.911 -0.369 -0.184 114 133 137
50.8987 1.5508 98.7493 0.815 -0.331 -0.476 113 132 136
51.3278 1.5763 99.4679 0.731 -0.460 -0.503 107 131 135
51.4803 1.5641 99.5264 0.819 -0.384 -0.427 108 132 136
51.6294 1.5608 99.6624 0.862 -0.330 -0.384 109 133 137
54.4896 1.5994 103.2328 -0.305 -0.117 -0.945 105 128 134
57.6818 1.8446 109.0898 0.533 -0.360 -0.765 19 29 47
57.8455 1.8374 109.2074 0.533 -0.360 -0.765 23 32 52
58.0095 1.8304 109.3261 0.588 -0.201 -0.784 35 43 64
58.1804 1.8588 109.7819 0.774 -0.256 -0.579 47 60 82
58.3473 1.8617 109.9963 0.760 -0.282 -0.585 64 79 101
58.5143 1.8635 110.2004 0.836 -0.317 -0.449 77 93 116
58.6853 1.8801 110.5462 0.870 -0.328 -0.368 77 94 117
-24.2608 8.4885 77.0081 -0.361 -0.555 -0.749 158 202 218
-23.1227 8.3065 76.6128 -0.240 -0.397 -0.886 119 163 170
-22.6523 8.2251 76.3924 0.065 -0.448 -0.892 121 164 170
-17.7050 7.4903 75.1861 -0.224 -0.439 -0.870 130 168 179
-13.7954 6.8757 73.9230 -0.064 -0.075 -0.995 26 51 56
-13.5649 6.8462 73.9094 -0.035 -0.079 -0.996 30 56 59
-13.3006 6.8086 73.8604 -0.047 -0.032 -0.998 36 60 64
-13.0748 6.7800 73.8506 -0.047 -0.032 -0.998 38 61 67
-12.8510 6.7519 73.8426 -0.054 -0.028 -0.998 39 64 71
-6.3801 5.8157 72.4918 -0.230 -0.330 -0.915 90 109 115
-6.2566 5.8105 72.5816 -0.127 -0.362 -0.923 92 111 117
-4.6809 5.6228 72.6204 0.507 -0.051 -0.861 75 92 100
-1.8301 5.2379 72.2770 0.172 -0.638 -0.751 73 88 95
-1.6055 5.2065 72.2400 -0.221 -0.677 -0.702 68 83 90
0.0182 5.0502 72.6193 0.172 -0.261 -0.950 81 96 103
1.7422 4.8928 73.0999 0.472 -0.035 -0.881 102 116 116
1.8397 4.8942 73.2209 0.305 -0.019 -0.952 102 116 117
1.9630 4.8887 73.3083 0.275 0.038 -0.961 105 120 123
4.0933 4.5086 72.2070 0.081 -0.288 -0.954 101 118 125
7.3447 4.1436 72.4910 0.471 -0.630 -0.617 115 129 130
7.5383 4.1464 72.7315 -0.008 -0.579 -0.815 104 118 121
11.7375 3.6690 73.0429 0.513 -0.101 -0.853 83 92 97
11.9196 3.6451 73.0279 0.334 -0.302 -0.893 88 97 102
12.1058 3.6507 73.2859 -0.177 -0.608 -0.774 90 98 100
12.3441 3.6099 73.1783 -0.261 -0.531 -0.806 101 109 109
17.4386 3.0794 74.0009 0.378 -0.705 -0.600 142 151 148
18.4621 2.9470 73.9304 0.615 -0.371 -0.696 122 130 132
18.6550 2.9172 73.8735 0.431 -0.331 -0.839 123 131 133
21.0504 2.8521 75.9435 0.202 -0.259 -0.944 113 125 131
21.5076 2.8033 76.0062 -0.276 -0.369 -0.887 123 135 141
22.6907 2.6456 75.8818 0.364 -0.568 -0.738 90 109 115
22.9544 2.6271 76.0066 0.344 -0.373 -0.862 104 122 128
23.0772 2.6212 76.0895 0.329 -0.380 -0.864 101 120 124
23.7235 2.5802 76.4335 0.202 0.133 -0.970 72 78 90
23.8739 2.5640 76.4535 0.151 0.121 -0.981 86 92 104
25.0408 2.4060 76.3089 0.492 0.021 -0.870 51 67 72
27.8586 2.3271 78.7225 0.287 -0.488 -0.824 28 39 47
27.9772 2.3240 78.8261 0.494 -0.447 -0.746 24 36 38
29.9134 2.1633 79.5126 0.172 -0.482 -0.859 164 182 192
30.0416 2.1563 79.5913 0.388 -0.456 -0.801 121 139 149
30.1732 2.1478 79.6598 0.388 -0.456 -0.801 107 126 133
31.8497 2.2227 82.2083 0.503 -0.488 -0.713 94 120 135
33.8007 2.0070 82.4096 0.202 -0.550 -0.810 182 211 225
34.1168 1.9645 82.3732 0.277 -0.498 -0.822 161 190 206
34.2428 1.9600 82.4720 0.310 -0.483 -0.819 176 205 223
36.9363 1.7822 83.8447 0.369 -0.474 -0.799 201 230 246
37.3482 1.7515 84.0223 -0.120 -0.262 -0.957 202 230 243
38.4897 1.7200 85.0040 0.315 -0.396 -0.863 149 177 181
38.6196 1.7149 85.1027 0.285 -0.421 -0.861 154 182 186
38.7707 1.6962 85.0999 0.294 -0.395 -0.870 157 185 188
44.8925 1.4545 89.7022 0.241 -0.365 -0.899 86 101 108
45.0244 1.4534 89.8389 0.270 -0.314 -0.910 103 118 125
45.1478 1.5959 91.2776 0.671 -0.187 -0.718 106 119 125
45.2839 1.5929 91.4014 0.629 -0.100 -0.771 117 129 135
46.1855 1.6366 92.8036 -0.021 -0.443 -0.896 133 152 156
46.3314 1.6250 92.8598 0.035 -0.402 -0.915 82 100 104
46.4813 1.6088 92.8782 0.382 -0.443 -0.811 88 106 110
47.0175 1.6208 93.5847 0.772 -0.376 -0.512 98 113 118
47.8893 1.5608 94.0066 0.139 -0.673 -0.726 100 118 120
49.4257 1.5600 95.7078 0.590 -0.354 -0.726 106 121 128
49.5649 1.5636 95.8962 0.607 -0.319 -0.728 98 113 118
50.9382 1.6886 98.5650 0.663 -0.628 -0.407 113 132 136
51.3703 1.7068 99.2119 0.583 -0.712 -0.392 100 124 128
51.5151 1.7131 99.4306 0.804 -0.449 -0.390 101 125 129
51.6622 1.7147 99.6086 0.826 -0.453 -0.335 114 138 142
52.1088 1.7105 100.0672 -0.553 -0.250 -0.795 109 129 136
52.2622 1.6969 100.1137 -0.197 -0.200 -0.960 108 127 134
54.2007 1.8474 103.6441 -0.248 -0.083 -0.965 112 132 139
54.3614 1.8089 103.4708 0.258 -0.213 -0.942 108 131 137
54.5182 1.7948 103.5170 0.258 -0.213 -0.942 111 134 140
54.6749 1.7818 103.5724 0.306 -0.228 -0.924 118 137 147
54.8315 1.7688 103.6275 0.306 -0.228 -0.924 121 135 146
54.9816 1.8297 104.3510 0.733 -0.538 -0.416 110 120 132
55.1394 1.8133 104.3766 0.540 -0.687 -0.486 90 98 111
55.6070 1.9214 105.8839 0.180 -0.981 -0.071 82 91 102
57.8849 2.0294 109.4035 0.451 0.014 -0.892 24 28 46
58.0496 2.0243 109.5406 0.757 -0.291 -0.585 23 27 45
58.2174 2.0340 109.8161 0.786 -0.257 -0.562 22 26 43
58.3843 2.0368 110.0274 0.761 -0.299 -0.576 29 34 49
58.5525 2.0432 110.2726 0.838 -0.298 -0.458 42 48 63
58.7203 2.0457 110.4816 0.870 -0.328 -0.368 68 76 90
-27.0395 9.0408 77.3038 0.091 -0.235 -0.968 161 202 223
-25.7168 8.8438 76.9900 -0.389 -0.034 -0.921 168 212 231
-25.1271 8.7859 77.1187 -0.084 -0.835 -0.544 155 195 208
-24.7891 8.7346 77.0296 0.194 -0.830 -0.523 151 191 201
-24.4788 8.6895 76.9655 -0.008 -0.749 -0.662 144 182 192
-24.1176 8.6327 76.8528 -0.345 -0.568 -0.748 131 169 180
-23.0673 8.4692 76.5398 -0.312 -0.396 -0.864 124 161 167
-22.5350 8.3730 76.2606 0.037 -0.458 -0.888 123 160 166
-22.1794 8.3168 76.1474 -0.051 -0.428 -0.902 126 161 170
-18.7710 7.7826 75.0977 -0.197 -0.402 -0.894 126 165 183
-4.6906 5.7822 72.6202 0.505 -0.053 -0.861 70 85 92
-1.9961 5.4090 72.2324 0.251 -0.560 -0.789 71 84 92
-1.8473 5.3970 72.2883 0.251 -0.560 -0.789 72 85 93
-1.5798 5.3543 72.1991 -0.152 -0.602 -0.784 74 87 95
0.3925 5.1597 72.6223 0.161 -0.410 -0.898 101 116 123
1.4527 5.0143 72.4824 0.132 -0.289 -0.948 113 129 128
1.6563 4.9873 72.4635 0.039 -0.394 -0.918 114 129 126
1.9398 4.9662 72.5861 0.137 -0.139 -0.981 102 117 114
1.9518 4.9904 72.8177 0.219 -0.752 -0.621 103 117 117
2.0932 4.9801 72.8802 0.219 -0.752 -0.621 101 117 117
2.1601 4.9897 73.0410 0.203 -0.737 -0.644 107 122 125
4.4116 4.6003 72.0192 0.340 -0.446 -0.828 112 129 136
4.5274 4.5964 72.1116 0.333 -0.450 -0.828 112 129 136
5.6789 4.4749 72.2880 0.192 -0.539 -0.820 106 119 125
7.1667 4.3729 73.0095 0.285 -0.033 -0.958 119 130 134
8.0179 4.2469 72.8145 0.165 -0.453 -0.876 97 112 119
8.9456 4.1270 72.7578 -0.149 -0.406 -0.902 104 113 117
9.5334 4.0452 72.6700 0.138 -0.696 -0.705 98 108 110
10.9893 3.8874 72.8551 0.337 -0.035 -0.941 84 93 98
11.1351 3.8745 72.8994 0.338 -0.031 -0.941 81 90 95
11.9277 3.7905 73.0172 0.267 -0.197 -0.943 88 97 102
11.9806 3.8056 73.2112 -0.336 -0.641 -0.690 80 89 94
12.1666 3.7804 73.1898 -0.280 -0.683 -0.675 75 83 86
12.6947 3.6822 72.8884 0.340 -0.563 -0.753 68 74 72
12.8260 3.6734 72.9542 0.340 -0.563 -0.753 68 74 70
12.9124 3.6784 73.0941 0.192 -0.592 -0.783 69 74 72
15.7193 3.3473 73.2086 0.017 -0.517 -0.856 95 105 106
15.8464 3.3395 73.2792 0.045 -0.513 -0.857 97 107 108
16.0186 3.3840 73.8685 -0.083 -0.128 -0.988 100 111 113
16.4665 3.2727 73.3608 0.264 -0.834 -0.485 103 114 116
16.4438 3.3473 74.0069 0.426 0.072 -0.902 111 122 124
18.2206 3.1040 73.7772 0.600 -0.259 -0.757 129 139 140
18.4732 3.0890 73.9203 0.615 -0.261 -0.744 115 125 126
18.6257 3.0727 73.9415 0.286 -0.267 -0.920 115 123 125
21.3710 2.9618 75.9695 0.277 -0.493 -0.825 110 118 122
21.5201 2.9466 75.9973 0.097 0.023 -0.995 108 117 120
23.4301 2.7571 76.3973 0.303 -0.240 -0.922 86 95 104
23.7661 2.7115 76.3574 -0.272 -0.340 -0.900 91 97 109
23.8007 2.7394 76.6466 -0.095 0.246 -0.965 96 102 114
24.2892 2.6766 76.6202 -0.091 0.291 -0.952 79 88 96
25.0555 2.5470 76.2985 0.488 0.022 -0.872 69 80 82
27.8957 2.4611 78.6561 0.287 -0.488 -0.824 26 34 37
28.0217 2.4549 78.7390 0.271 -0.510 -0.816 44 52 54
31.5851 2.3357 81.5937 -0.187 -0.569 -0.801 81 104 118
32.0349 2.2862 81.6444 0.021 -0.726 -0.687 89 112 126
33.8343 2.1442 82.3495 0.217 -0.550 -0.806 187 215 229
34.3691 2.0473 82.0676 0.392 -0.418 -0.820 153 180 197
34.4980 2.0411 82.1535 0.360 -0.403 -0.842 139 168 187
34.6042 2.0472 82.3259 0.159 -0.496 -0.853 134 165 186
34.5833 2.2534 84.1577 0.043 -0.265 -0.963 143 171 193
35.6474 2.1994 84.8446 0.484 -0.417 -0.769 146 174 195
36.0037 2.1337 84.6466 0.242 -0.278 -0.929 161 189 210
36.8626 1.9116 83.5945 -0.129 -0.420 -0.898 199 230 248
38.5208 1.8593 84.9514 0.315 -0.396 -0.863 154 182 188
38.8191 1.8241 84.9636 0.170 -0.184 -0.968 145 173 178
41.4881 1.8860 88.4624 -0.181 0.289 -0.940 71 84 101
41.6447 1.8636 88.4328 -0.184 0.289 -0.939 67 80 97
41.8063 1.8369 88.3711 0.364 0.263 -0.894 85 98 115
41.9216 1.8474 88.5926 -0.137 0.559 -0.818 115 128 145
42.0825 1.8210 88.5326 0.371 0.400 -0.838 81 94 111
42.2244 1.8100 88.5902 0.371 0.400 -0.838 66 79 96
42.5045 1.7912 88.7293 0.677 0.097 -0.729 63 76 93
43.4595 1.7487 89.3999 0.259 -0.698 -0.668 120 132 146
43.6153 1.7254 89.3621 0.264 -0.691 -0.673 112 124 138
45.3082 1.7457 91.4099 0.621 -0.099 -0.778 103 114 120
46.9152 1.7645 93.3500 0.813 -0.411 -0.413 131 146 151
48.4480 1.7505 94.9138 0.477 -0.302 -0.825 123 141 143
49.6206 1.6715 95.4950 0.244 -0.210 -0.947 116 131 134
50.8290 1.8324 98.2738 0.651 -0.587 -0.482 118 136 140
52.2963 1.8476 100.0279 -0.249 -0.380 -0.891 109 128 134
52.5691 1.9337 101.1033 0.078 -0.939 -0.335 111 130 136
54.2501 1.9028 102.6777 0.729 0.058 -0.682 112 132 139
55.4897 1.9109 104.1163 0.703 0.164 -0.692 89 98 113
57.9154 2.1676 109.0997 0.713 -0.108 -0.693 25 27 42
58.0816 2.1730 109.3315 0.548 -0.189 -0.815 30 32 46
58.2530 2.2029 109.7888 0.786 -0.257 -0.562 38 37 50
58.4197 2.2039 109.9814 0.789 -0.268 -0.552 23 22 35
58.5849 2.1967 110.0989 0.838 -0.296 -0.459 25 26 38
58.7553 2.2112 110.4170 0.870 -0.328 -0.368 29 32 43
-26.6082 9.1730 77.3367 -0.314 -0.157 -0.936 167 208 223
-26.2417 9.1153 77.2256 -0.416 -0.113 -0.902 177 217 232
-25.7476 9.0285 76.9963 -0.389 -0.034 -0.921 169 209 224
-25.5033 8.9984 76.9955 -0.352 -0.649 -0.674 145 184 197
-25.1703 8.9479 76.9123 -0.278 -0.777 -0.565 118 156 167
-24.9209 8.9165 76.9057 -0.091 -0.826 -0.556 115 153 162
-24.6330 8.8762 76.8628 0.194 -0.830 -0.523 115 151 157
-22.8232 8.6138 76.5131 0.462 0.055 -0.885 128 159 167
-12.2730 6.9663 73.4306 0.199 -0.015 -0.980 42 70 77
-11.6513 6.9177 73.6787 -0.182 -0.293 -0.938 45 72 80
-11.4377 6.8913 73.6786 -0.151 -0.349 -0.925 50 75 81
-2.3712 5.5815 71.9687 0.115 -0.628 -0.769 83 100 108
-2.1921 5.5616 71.9881 -0.030 -0.556 -0.831 79 94 101
-1.7214 5.5191 72.1252 0.214 -0.644 -0.735 82 95 103
-1.1994 5.4630 72.1983 0.034 -0.695 -0.718 79 92 100
0.5708 5.2663 72.3873 0.126 -0.346 -0.930 96 113 120
4.4420 4.7426 71.9727 0.152 -0.319 -0.935 117 134 141
4.7470 4.7145 72.0572 0.407 -0.705 -0.581 127 144 152
5.2462 4.6893 72.3787 0.411 -0.698 -0.586 110 123 131
5.6793 4.6252 72.2834 0.259 -0.714 -0.651 111 124 132
7.5937 4.5199 73.4404 -0.456 -0.510 -0.729 96 111 115
7.8946 4.4626 73.2614 -0.466 -0.512 -0.721 99 114 118
11.5996 3.9444 72.7138 0.511 -0.110 -0.852 85 94 99
11.7507 3.9610 73.0261 0.400 -0.213 -0.891 100 110 112
12.0917 3.9199 73.0337 -0.470 -0.432 -0.770 91 100 105
12.6998 3.8280 72.8832 0.235 -0.135 -0.963 93 102 100
12.8479 3.8140 72.9214 0.235 -0.135 -0.963 82 88 86
12.9782 3.8056 72.9889 0.016 -0.214 -0.977 79 85 85
13.1404 3.7872 73.0034 0.213 -0.145 -0.966 101 110 108
13.2900 3.7728 73.0385 0.213 -0.145 -0.966 114 120 119
13.4108 3.7673 73.1216 0.039 -0.228 -0.973 124 131 129
13.5176 3.7662 73.2286 0.058 -0.222 -0.973 118 127 128
16.5369 3.4296 73.5423 0.036 -0.575 -0.818 110 121 123
16.4663 3.4870 73.9745 0.410 0.146 -0.900 119 130 132
17.3824 3.3564 73.8165 0.275 -0.465 -0.842 116 126 127
17.4887 3.3557 73.9268 0.469 -0.158 -0.869 129 139 140
17.5943 3.3553 74.0388 0.456 -0.149 -0.877 127 137 138
17.7649 3.3332 74.0285 0.302 -0.421 -0.856 125 135 136
18.5090 3.2228 73.8628 0.246 -0.338 -0.908 123 133 135
18.6543 3.2088 73.8977 0.261 -0.324 -0.909 123 133 135
18.7835 3.2004 73.9639 0.118 -0.414 -0.903 124 134 136
18.9369 3.1836 73.9828 0.108 -0.400 -0.910 125 135 137
19.0872 3.1679 74.0075 0.108 -0.400 -0.910 119 129 131
19.2557 3.1459 73.9964 0.198 -0.188 -0.962 112 122 124
21.3580 3.1146 76.0149 0.324 -0.439 -0.838 97 102 106
21.5353 3.0891 75.9826 0.135 0.031 -0.990 94 99 103
24.2874 2.7830 76.2749 0.532 -0.155 -0.832 85 94 103
24.4011 2.7809 76.3799 0.388 -0.100 -0.916 79 88 96
30.8992 2.5405 81.3453 0.646 0.138 -0.751 104 127 143
31.6457 2.4599 81.4468 0.036 -0.767 -0.641 81 103 116
32.3474 2.3421 81.1685 0.190 -0.825 -0.532 86 106 118
33.8630 2.2839 82.3074 0.215 -0.528 -0.822 140 166 181
34.0081 2.2693 82.3365 0.203 -0.527 -0.825 142 168 183
34.1523 2.2552 82.3691 0.684 -0.351 -0.640 134 160 175
34.2709 2.2549 82.4960 0.684 -0.351 -0.640 145 171 188
35.4321 2.3426 84.5412 0.469 -0.430 -0.772 128 159 180
35.5497 2.3449 84.6900 0.370 -0.526 -0.766 110 138 159
35.6864 2.3361 84.7621 0.370 -0.526 -0.766 173 201 223
36.8808 2.0576 83.5976 -0.144 -0.409 -0.901 198 229 249
39.1801 1.9897 85.5069 0.028 -0.166 -0.986 151 180 189
39.3345 1.9685 85.4874 -0.118 -0.248 -0.961 152 181 190
39.4740 1.9575 85.5422 -0.050 -0.376 -0.925 154 182 193
39.7304 1.9513 85.7674 0.502 0.185 -0.845 154 181 192
39.8655 1.9436 85.8459 0.502 0.185 -0.845 163 190 201
40.0025 1.9344 85.9148 0.507 0.191 -0.840 150 177 188
40.4203 1.9022 86.0856 0.714 0.289 -0.638 87 103 121
40.5340 1.9104 86.2823 0.718 0.175 -0.674 81 94 113
42.4810 1.9806 89.0305 0.701 -0.005 -0.713 62 75 92
43.2020 1.9177 89.2605 0.655 -0.632 -0.414 90 102 115
44.7389 1.8255 90.1214 0.720 -0.596 -0.356 105 119 128
44.8804 1.8157 90.1889 -0.350 -0.365 -0.863 100 115 122
46.8304 1.8862 92.9436 0.752 -0.488 -0.444 151 166 171
46.9572 1.8987 93.1931 0.631 -0.582 -0.513 164 179 184
47.0939 1.8993 93.3478 0.535 -0.664 -0.522 170 185 190
47.4448 1.9829 94.4718 0.675 -0.270 -0.687 101 119 123
47.8884 1.9472 94.6402 -0.038 -0.584 -0.811 131 149 151
48.0388 1.9317 94.6668 -0.153 -0.489 -0.859 127 145 147
48.1931 1.9102 94.6442 -0.149 -0.492 -0.858 118 136 138
48.3466 1.8896 94.6294 -0.149 -0.492 -0.858 111 129 131
48.4979 1.8718 94.6375 0.364 -0.597 -0.715 108 126 128
48.9200 1.8687 95.0703 0.686 -0.503 -0.525 129 145 144
49.0564 1.8755 95.2794 0.669 -0.526 -0.524 108 124 123
49.9472 1.7983 95.5686 0.549 -0.063 -0.833 125 141 141
50.3540 1.8366 96.3518 0.974 0.056 -0.218 100 115 118
50.7259 1.9628 97.8768 0.565 -0.537 -0.627 84 99 104
50.8711 1.9635 98.0411 0.528 -0.534 -0.660 123 138 143
51.0182 1.9602 98.1731 0.665 -0.390 -0.637 115 133 137
51.1653 1.9574 98.3087 0.530 -0.492 -0.691 107 126 130
53.5307 2.0029 101.2953 0.792 -0.218 -0.570 119 138 142
53.6846 1.9913 101.3605 0.679 -0.473 -0.561 125 144 148
54.2797 2.0859 102.8493 0.713 0.071 -0.697 113 134 139
54.4340 2.0854 103.0131 0.718 0.019 -0.696 109 128 135
54.5883 2.0875 103.2007 0.705 0.033 -0.708 103 122 129
55.0544 2.0824 103.6643 0.705 0.033 -0.708 115 126 138
55.2103 2.0807 103.8194 0.705 0.033 -0.708 116 124 137
55.3662 2.0855 104.0324 0.703 0.164 -0.692 106 114 127
55.8383 1.9472 103.3219 0.365 -0.631 -0.684 86 100 106
58.1147 2.3277 109.1803 0.740 -0.054 -0.671 31 30 45
58.2851 2.3529 109.5904 0.853 -0.254 -0.456 27 28 42
58.7809 2.3367 109.9878 0.730 -0.003 -0.683 23 29 40
59.7928 2.3507 111.2174 0.642 0.537 -0.547 90 99 109
60.3170 2.3923 112.1582 0.668 -0.007 -0.744 89 99 111
-26.5959 9.3492 77.3031 -0.314 -0.157 -0.936 164 201 213
-25.7784 9.2136 77.0026 -0.389 -0.034 -0.921 125 161 173
-25.2624 9.1209 76.7516 -0.352 -0.649 -0.674 114 150 162
-24.9438 9.0734 76.6811 -0.167 -0.764 -0.624 117 151 161
-24.7072 9.0446 76.6858 -0.002 -0.754 -0.657 131 165 172
-22.0864 8.6179 75.7945 -0.490 -0.449 -0.747 126 159 168
-14.8476 7.4962 73.8296 -0.072 -0.760 -0.646 98 129 134
-12.1781 7.1324 73.5405 -0.113 -0.467 -0.877 41 70 85
-11.1731 6.9897 73.3814 0.015 -0.649 -0.760 56 80 93
-10.8389 6.9594 73.4784 0.018 -0.460 -0.888 63 84 86
-10.6820 6.9467 73.5376 -0.029 -0.335 -0.942 69 91 88
-10.4814 6.9232 73.5497 -0.116 -0.323 -0.939 73 99 90
-4.6725 6.0921 72.5760 0.264 -0.574 -0.775 73 88 95
-4.5233 6.0805 72.6354 0.264 -0.574 -0.775 65 80 87
-4.1149 6.0555 72.8598 0.457 -0.273 -0.847 82 99 107
-3.9803 6.0477 72.9366 0.467 -0.293 -0.834 82 99 107
-3.8601 6.0435 73.0307 0.463 -0.300 -0.834 81 98 106
-3.1112 5.9298 72.8475 -0.312 -0.383 -0.870 82 99 107
0.0440 5.3962 71.6010 0.157 -0.453 -0.878 74 87 95
0.6035 5.4112 72.3377 0.126 -0.346 -0.930 100 115 122
5.0323 4.8427 72.1638 0.363 -0.812 -0.458 95 110 117
6.8063 4.7490 73.2657 -0.352 -0.228 -0.908 116 130 131
11.5321 4.1129 72.8235 0.316 -0.683 -0.659 79 89 91
12.5681 3.9843 72.8212 -0.069 -0.635 -0.770 111 121 122
12.6964 3.9765 72.8920 0.243 -0.145 -0.959 114 122 122
12.8496 3.9610 72.9220 0.058 -0.242 -0.969 119 125 127
13.0059 3.9444 72.9466 0.023 -0.262 -0.965 127 132 135
13.1683 3.9259 72.9607 0.071 -0.189 -0.979 141 149 151
13.3152 3.9123 73.0005 0.222 -0.169 -0.960 135 143 144
13.4567 3.9003 73.0490 0.086 -0.266 -0.960 125 134 133
13.7112 3.8854 73.1941 -0.037 -0.841 -0.539 107 118 120
16.6210 3.5138 73.0971 0.274 0.130 -0.953 121 132 134
17.6516 3.4827 73.9411 0.183 -0.057 -0.981 120 130 131
20.0745 3.2632 74.6458 0.453 0.021 -0.891 104 114 116
20.2044 3.2547 74.7117 0.453 0.021 -0.891 104 114 116
20.4848 3.2302 74.8014 0.597 -0.036 -0.802 111 119 122
20.9228 3.1871 74.8991 0.646 -0.021 -0.763 120 125 128
21.4067 3.1660 75.2386 0.007 -0.698 -0.716 105 113 116
24.5302 2.8351 75.7283 0.508 -0.380 -0.773 84 93 102
24.9137 2.8977 76.6906 0.054 -0.324 -0.945 73 78 81
24.9991 2.9513 77.2509 0.539 0.072 -0.839 56 62 62
25.2390 2.8988 77.0519 -0.005 -0.040 -0.999 41 50 49
31.2513 2.6362 81.2652 0.002 -0.676 -0.737 158 181 195
31.6921 2.5909 81.3465 0.110 -0.822 -0.559 84 106 119
33.8897 2.4246 82.2720 0.297 -0.432 -0.852 143 166 182
34.0354 2.4097 82.2995 0.255 -0.390 -0.885 141 164 180
34.1658 2.4031 82.3829 0.256 -0.402 -0.879 160 183 199
35.7350 2.4671 84.6404 0.371 -0.536 -0.759 173 204 225
39.6222 2.1021 85.6590 0.478 0.227 -0.848 153 181 193
40.1405 2.0874 86.0916 0.632 0.345 -0.694 143 170 183
41.1330 2.0981 87.2594 0.404 0.190 -0.895 63 79 95
41.8213 2.1615 88.5580 -0.014 0.270 -0.963 65 81 97
43.5294 2.0284 89.2438 0.212 -0.590 -0.779 105 117 131
43.6415 2.0456 89.5154 0.192 -0.777 -0.600 92 104 118
46.8545 2.0426 92.9669 0.317 -0.784 -0.534 135 150 155
46.9957 2.0371 93.0721 0.535 -0.664 -0.522 139 154 159
47.1321 2.0381 93.2285 0.708 -0.512 -0.486 141 156 161
47.2787 2.0258 93.2799 0.441 -0.670 -0.597 104 119 124
47.4224 2.0176 93.3634 -0.063 -0.367 -0.928 111 126 131
48.5134 2.0455 94.7885 0.356 -0.754 -0.552 109 127 129
50.7724 2.0836 97.5662 0.679 -0.343 -0.649 89 104 109
50.9045 2.1135 97.9697 0.455 -0.769 -0.450 117 131 136
51.0510 2.1119 98.1144 0.665 -0.390 -0.637 116 132 137
51.3480 2.1003 98.3344 0.868 -0.361 -0.340 106 125 131
52.2054 2.1801 99.9596 -0.517 -0.226 -0.826 117 138 141
52.3643 2.1489 99.8592 -0.519 -0.219 -0.827 121 140 144
52.5106 2.1584 100.1006 0.252 -0.820 -0.513 123 143 144
52.6581 2.1657 100.3238 0.284 -0.835 -0.471 128 148 149
53.2562 2.1805 101.1011 0.603 -0.747 -0.279 115 133 137
54.4598 2.3033 103.4760 0.035 -0.423 -0.905 109 128 134
54.6187 2.2724 103.3788 0.373 -0.266 -0.889 101 120 126
54.7746 2.2673 103.5028 0.133 -0.358 -0.924 92 111 117
54.9317 2.2500 103.5216 0.360 -0.243 -0.901 95 111 120
55.0882 2.2384 103.5896 0.381 -0.218 -0.898 109 122 131
55.4007 2.2268 103.8267 0.376 0.020 -0.926 115 123 136
55.8704 2.2429 104.4752 0.505 0.417 -0.756 91 104 110
58.4964 2.5667 110.1462 0.644 0.044 -0.763 32 35 51
60.0104 2.5568 111.6984 0.729 0.397 -0.557 47 55 67
60.3573 2.5734 112.2191 0.643 -0.057 -0.764 89 99 111
60.6708 2.4987 111.9056 0.019 -0.695 -0.719 85 97 97
-26.5836 9.5256 77.2694 -0.314 -0.157 -0.936 120 155 165
-25.5194 9.3578 76.9665 -0.227 0.021 -0.974 128 162 172
-24.8443 9.2274 76.5674 0.010 -0.716 -0.698 125 159 168
-24.5713 9.1900 76.5382 -0.005 -0.745 -0.667 121 156 162
-24.3008 9.1531 76.5109 -0.003 -0.783 -0.622 122 155 160
-24.0904 9.1302 76.5389 -0.003 -0.783 -0.622 125 159 161
-22.4379 8.8741 76.1068 -0.463 -0.630 -0.624 120 154 163
-21.8874 8.7969 76.0326 -0.387 -0.797 -0.464 121 155 164
-7.5914 6.5971 72.4257 -0.204 -0.285 -0.937 28 44 44
-4.2526 6.1946 72.5409 -0.036 -0.789 -0.614 68 83 90
-4.0411 6.2213 72.9977 0.388 -0.764 -0.515 77 94 102
-2.6082 6.0090 72.7067 -0.061 0.235 -0.970 90 103 111
-2.2020 5.9289 72.4525 -0.304 -0.304 -0.903 98 111 119
-0.4566 5.6010 71.5017 0.011 -0.170 -0.985 80 93 101
-0.2700 5.5785 71.5076 0.011 -0.170 -0.985 85 98 106
-0.0518 5.5474 71.4739 0.016 -0.194 -0.981 90 103 111
0.1329 5.5252 71.4813 0.016 -0.194 -0.981 86 99 107
1.1294 5.5063 72.3877 -0.242 -0.320 -0.916 108 122 126
5.2393 4.9639 72.1259 -0.057 -0.056 -0.997 60 78 85
7.1993 4.8160 72.9551 0.571 -0.430 -0.699 109 125 126
11.4672 4.2492 72.6526 -0.200 -0.459 -0.865 85 93 96
11.5829 4.2454 72.7442 0.287 -0.692 -0.663 80 88 91
12.6147 4.1173 72.7480 0.033 -0.747 -0.664 97 107 109
12.7531 4.1064 72.8022 0.124 -0.795 -0.594 108 116 118
12.9136 4.0884 72.8199 0.013 -0.656 -0.755 119 127 129
13.0299 4.0845 72.9105 -0.025 -0.548 -0.836 127 133 137
13.1973 4.0643 72.9163 0.143 -0.462 -0.875 125 133 136
13.3513 4.0483 72.9441 0.168 -0.463 -0.870 117 125 127
13.5090 4.0312 72.9656 -0.037 -0.553 -0.832 111 119 121
13.6271 4.0266 73.0532 -0.050 -0.848 -0.528 109 119 121
13.7888 4.0082 73.0676 -0.050 -0.848 -0.528 106 119 122
17.7274 3.6035 73.8086 0.289 0.022 -0.957 117 127 128
18.6380 3.5068 73.9521 0.149 -0.133 -0.980 103 112 117
19.6641 3.4053 74.1787 0.498 -0.202 -0.843 92 102 104
20.2584 3.4205 74.9480 0.366 -0.827 -0.427 100 109 114
20.9717 3.3160 74.8130 0.591 -0.331 -0.736 107 115 118
22.5185 3.1777 75.2812 0.259 -0.099 -0.961 106 119 120
24.5602 2.9698 75.6812 0.747 -0.277 -0.605 85 94 103
24.3739 3.1749 77.2478 0.596 -0.111 -0.795 78 86 89
24.4976 3.1695 77.3341 0.127 -0.316 -0.940 77 85 88
24.6340 3.1590 77.3899 0.249 0.059 -0.967 76 84 86
24.7529 3.1556 77.4881 0.393 0.017 -0.919 70 78 80
29.6320 2.6869 78.6865 0.631 -0.585 -0.510 147 166 173
30.2135 2.6794 79.2461 0.382 -0.429 -0.818 100 118 128
31.7827 2.7585 81.6103 0.561 -0.643 -0.521 64 86 100
32.9096 2.4786 80.4089 -0.099 -0.163 -0.982 116 138 150
35.7876 2.5952 84.5016 0.415 -0.474 -0.777 181 212 234
43.1281 2.2099 89.0582 -0.222 -0.590 -0.776 87 99 114
43.5766 2.1564 89.0791 0.169 -0.747 -0.643 100 112 125
45.2115 2.0987 90.3365 0.443 -0.667 -0.599 95 108 114
47.1712 2.1754 93.0990 0.791 -0.410 -0.454 99 114 119
47.4590 2.1580 93.2579 0.090 -0.345 -0.934 113 128 133
47.8605 2.1760 93.8441 0.823 -0.383 -0.420 119 134 137
50.6627 2.2289 97.3064 0.720 -0.429 -0.546 102 117 122
51.3806 2.2525 98.2791 0.878 -0.335 -0.341 121 140 146
52.8527 2.2764 100.0649 0.790 -0.463 -0.402 119 139 140
53.0011 2.2819 100.2710 0.788 -0.458 -0.410 121 140 144
53.2951 2.3106 100.8341 0.763 -0.477 -0.435 116 134 138
55.1215 2.4007 103.5698 0.390 -0.226 -0.893 112 127 135
55.5963 2.2124 102.4573 0.142 -0.020 -0.990 107 118 129
55.7514 2.1798 102.3428 0.215 -0.090 -0.973 104 113 125
55.9038 2.4598 104.9180 0.198 0.331 -0.923 95 107 114
58.5301 2.7259 110.0269 0.480 -0.233 -0.845 38 41 56
59.0249 2.6958 110.2984 0.682 -0.372 -0.629 32 38 46
59.1964 2.7101 110.6063 0.679 -0.072 -0.730 28 35 43
59.3638 2.7072 110.7605 0.708 -0.092 -0.700 23 30 39
59.5436 2.7457 111.2848 0.718 -0.148 -0.680 22 30 40
60.2283 2.7599 112.1416 0.812 0.342 -0.474 10 19 34
60.3979 2.7558 112.2883 0.636 -0.067 -0.769 31 40 54
-24.0332 9.2669 76.2406 -0.088 -0.795 -0.600 127 160 165
-23.2562 9.1895 76.4096 -0.328 -0.801 -0.501 133 166 174
-19.9346 8.5854 74.8133 0.283 -0.820 -0.498 180 217 233
-15.1631 7.8528 73.6684 -0.354 -0.407 -0.842 140 173 186
-8.3124 6.8068 72.0734 0.129 0.115 -0.985 84 102 104
-8.3039 6.8312 72.2898 0.265 0.191 -0.945 87 105 107
-5.7750 6.5311 72.4316 -0.285 0.051 -0.957 77 94 100
-5.4729 6.4797 72.3167 -0.273 0.045 -0.961 77 92 99
-0.0149 5.6903 71.4191 -0.023 -0.253 -0.967 104 117 125
0.2093 5.6573 71.3773 -0.014 -0.248 -0.969 101 114 121
0.3927 5.6353 71.3858 -0.026 -0.254 -0.967 102 115 122
0.5559 5.6188 71.4193 -0.008 -0.280 -0.960 102 115 121
5.0202 5.1184 71.9190 0.231 -0.326 -0.917 94 109 114
5.1829 5.1013 71.9467 0.244 -0.336 -0.910 86 102 109
7.5932 4.9122 72.9045 0.430 0.151 -0.890 109 123 123
9.1243 4.6085 71.9551 0.168 -0.287 -0.943 98 108 107
9.2609 4.5984 72.0144 0.151 -0.468 -0.871 93 103 102
11.6638 4.3684 72.6170 0.152 -0.659 -0.736 80 90 92
11.8849 4.3316 72.5396 0.606 -0.503 -0.616 90 100 102
13.0014 4.2081 72.6785 0.138 -0.805 -0.577 82 90 92
13.1420 4.1963 72.7285 0.138 -0.805 -0.577 80 88 90
13.2383 4.1988 72.8519 0.143 -0.462 -0.875 78 84 87
13.3971 4.1812 72.8717 0.155 -0.507 -0.848 77 83 86
13.5644 4.1609 72.8769 -0.037 -0.553 -0.832 88 96 98
