ply
format ascii 1.0
element vertex 862
property float x
property float y
property float z
property float nx
property float ny
property float nz
property uchar diffuse_red
property uchar diffuse_green
property uchar diffuse_blue
end_header
-41.5074 28.5278 81.2978 -0.020 -0.755 -0.655 140 151 137
-41.3627 28.4933 81.2679 0.077 -0.807 -0.585 143 149 137
-41.2084 28.4963 81.3158 0.029 -0.767 -0.641 58 60 49
-41.0519 28.5067 81.3791 0.029 -0.773 -0.634 62 63 55
-40.8841 28.5588 81.5290 0.083 -0.777 -0.624 54 55 47
-39.6196 27.0643 78.8764 0.148 0.420 -0.896 65 68 62
-39.4599 27.0883 78.9677 -0.287 0.071 -0.955 71 74 66
-39.3473 26.9606 78.7424 -0.221 -0.156 -0.963 70 75 69
-33.8273 24.9051 76.1189 -0.128 0.488 -0.864 178 203 210
-26.9689 22.2262 72.6090 -0.094 0.427 -0.900 185 203 207
-20.9807 19.8866 69.5431 -0.212 -0.580 -0.787 88 82 70
-19.3102 19.3431 68.9066 -0.207 -0.435 -0.876 70 67 52
-18.9711 19.3345 68.9813 -0.255 -0.536 -0.805 82 79 64
-18.5295 19.2592 68.9501 0.061 -0.489 -0.870 101 97 85
-18.3738 19.2413 68.9565 -0.598 -0.411 -0.688 101 97 86
-18.2894 19.1605 68.8173 -0.576 -0.433 -0.694 110 105 98
-17.8010 18.9717 68.5714 -0.345 -0.491 -0.800 107 102 96
-17.6660 18.9358 68.5361 -0.317 -0.473 -0.822 93 88 82
-16.5800 18.8005 68.5594 -0.636 -0.308 -0.707 82 80 81
-16.0138 18.3856 67.8812 -0.288 -0.589 -0.755 83 83 73
-13.8702 18.0735 67.8368 -0.221 -0.431 -0.875 87 86 82
-13.7262 18.0433 67.8153 -0.221 -0.431 -0.875 109 108 104
-13.5834 18.0122 67.7917 -0.328 -0.481 -0.813 111 110 106
-13.1614 17.9137 67.7087 -0.007 -0.381 -0.925 77 76 72
-12.9210 17.6848 67.3150 -0.313 0.028 -0.949 77 72 69
-10.7963 17.4586 67.4377 -0.157 -0.532 -0.832 57 54 45
-10.6451 17.4317 67.4248 -0.596 -0.522 -0.610 53 49 38
-10.1645 17.3681 67.4276 -0.137 -0.557 -0.819 49 45 34
-10.0752 17.3000 67.3152 -0.028 -0.480 -0.877 50 46 35
-7.7972 16.7650 66.8606 -0.231 -0.211 -0.950 69 64 45
-0.3648 15.6134 66.5675 -0.074 -0.474 -0.878 74 77 50
-0.3054 15.5352 66.4268 0.093 -0.431 -0.898 77 80 53
1.5724 15.2743 66.4129 -0.292 -0.567 -0.770 65 67 43
1.7128 15.2356 66.3734 -0.295 -0.572 -0.766 65 67 45
1.8476 15.1942 66.3270 -0.294 -0.573 -0.765 67 69 47
3.4837 15.1162 66.6142 -0.347 -0.208 -0.915 73 86 58
3.6465 15.0866 66.5990 -0.348 -0.259 -0.901 71 87 58
4.3092 14.9722 66.5495 0.041 -0.801 -0.597 71 85 56
4.5774 14.7854 66.2477 -0.076 -0.812 -0.579 72 85 52
4.7595 14.7639 66.2540 -0.076 -0.812 -0.579 71 84 51
4.9420 14.7424 66.2603 -0.076 -0.812 -0.579 71 83 53
5.5509 14.7034 66.3472 -0.491 -0.475 -0.731 73 90 48
11.2044 14.3342 67.1399 -0.262 -0.276 -0.925 86 81 62
10.5881 14.0023 66.3076 -0.083 -0.076 -0.994 87 84 67
10.7592 13.9722 66.2937 0.136 -0.116 -0.984 88 85 66
11.0690 13.9945 66.4224 0.189 -0.265 -0.946 88 85 66
19.0852 13.7331 68.0716 -0.040 -0.582 -0.812 68 90 59
-57.5703 37.1450 93.8317 -0.981 -0.127 -0.144 61 63 52
-57.3421 36.6050 92.8154 -0.980 -0.134 -0.149 49 49 37
-45.1412 32.4831 87.8673 -0.739 0.533 -0.413 33 40 32
-45.0282 32.1486 87.2302 -0.746 0.524 -0.410 31 38 30
-42.8069 28.8904 81.3246 -0.127 -0.746 -0.654 155 167 155
-41.6208 28.7516 81.3661 -0.073 -0.850 -0.521 139 151 137
-41.5049 28.5978 81.0904 0.076 -0.802 -0.593 140 151 137
-41.3561 28.5805 81.0958 0.089 -0.798 -0.596 146 152 140
-41.2027 28.5810 81.1380 0.085 -0.806 -0.586 72 74 63
-41.0450 28.5970 81.2124 0.106 -0.782 -0.614 48 49 41
-40.8832 28.6269 81.3156 0.077 -0.761 -0.644 53 54 46
-39.5690 26.8096 78.0418 -0.232 0.298 -0.926 69 75 65
-39.3233 27.1125 78.7123 -0.221 -0.156 -0.963 69 74 68
-35.5573 25.2980 76.1029 -0.620 0.010 -0.785 180 205 212
-34.0211 25.9123 77.7417 -0.588 -0.684 -0.432 180 205 210
-33.5444 25.2537 76.5554 -0.860 0.307 -0.407 179 202 208
-33.4438 24.5149 75.1079 -0.394 -0.190 -0.899 183 198 201
-26.7719 22.3761 72.6323 -0.063 0.211 -0.975 192 210 214
-26.6293 22.3469 72.6122 0.004 0.219 -0.976 192 210 214
-26.5078 22.2899 72.5311 0.093 0.312 -0.946 192 210 214
-19.2944 19.4693 68.8401 -0.207 -0.435 -0.876 70 67 52
-18.2811 19.2805 68.7355 -0.576 -0.433 -0.694 117 112 105
-18.0266 19.1949 68.6330 -0.621 -0.463 -0.633 117 112 106
-17.6535 19.0595 68.4632 -0.338 -0.489 -0.805 93 88 82
-16.1772 18.8031 68.3481 -0.647 -0.385 -0.658 82 81 78
-16.0373 18.7705 68.3206 -0.277 -0.568 -0.775 82 82 73
-15.9906 18.5179 67.8291 -0.462 -0.182 -0.868 89 89 79
-15.5353 18.5938 68.1029 -0.391 -0.273 -0.879 99 99 89
-15.2479 18.5345 68.0618 -0.485 -0.225 -0.845 87 87 79
-15.1081 18.5017 68.0339 -0.363 -0.338 -0.868 82 81 75
-13.8451 18.2078 67.7868 -0.375 -0.460 -0.805 80 79 75
-13.7122 18.1694 67.7457 -0.303 -0.505 -0.808 103 102 98
-13.2650 18.0897 67.7069 -0.215 -0.371 -0.903 81 80 76
-13.1388 18.0462 67.6540 -0.007 -0.381 -0.925 71 70 66
-12.3836 17.7851 67.3358 -0.377 -0.117 -0.919 81 76 73
-11.4410 17.5251 67.0701 -0.266 -0.659 -0.704 85 82 73
-10.7770 17.5893 67.3766 -0.358 -0.393 -0.847 51 48 39
-10.6354 17.5559 67.3481 -0.602 -0.129 -0.788 42 40 28
-8.8416 17.0889 66.8981 -0.352 -0.251 -0.902 68 65 46
-8.5572 17.0221 66.8411 -0.202 -0.413 -0.888 68 65 46
-7.9259 16.9263 66.8196 -0.186 -0.384 -0.904 57 52 33
-7.7764 16.8970 66.8012 -0.174 -0.213 -0.961 66 61 42
-5.5033 16.6985 67.0159 -0.687 -0.087 -0.721 71 76 48
-4.8799 16.3563 66.5004 -0.346 -0.476 -0.808 81 82 48
-0.5248 15.7659 66.4924 -0.487 0.015 -0.873 90 90 66
-0.3551 15.7425 66.4913 -0.356 -0.080 -0.931 88 91 64
-0.2633 15.6802 66.3917 0.066 -0.390 -0.919 91 94 67
2.7141 15.2019 66.2370 -0.474 -0.236 -0.848 85 83 64
3.6595 15.2195 66.5260 -0.360 -0.253 -0.898 76 84 60
3.8320 15.1942 66.5219 -0.240 -0.403 -0.883 75 86 61
5.0030 14.8964 66.2423 0.077 -0.716 -0.694 81 87 60
6.1597 15.0934 66.9464 -0.509 -0.391 -0.767 85 95 59
6.4562 14.9168 66.6735 -0.840 -0.154 -0.520 83 94 52
15.2233 14.0411 67.2814 0.044 -0.491 -0.870 107 106 78
16.1776 13.8139 67.0844 -0.219 -0.606 -0.764 102 102 74
19.4279 13.7076 67.7457 -0.080 -0.222 -0.972 76 90 61
21.1807 14.0032 68.8065 0.064 -0.297 -0.953 83 92 65
-56.5873 34.6055 88.6667 -0.987 -0.027 -0.157 56 54 41
-56.6883 37.6850 94.7595 -0.841 -0.486 -0.236 58 56 42
-50.3182 35.0593 91.2380 -0.883 -0.417 -0.217 82 93 85
-45.8898 30.2370 82.8343 0.198 -0.715 -0.671 50 57 49
-45.7693 30.0104 82.4160 0.254 -0.586 -0.770 47 54 46
-44.9355 31.6893 85.9743 -0.425 0.539 -0.728 34 42 31
-44.2538 31.0524 84.8903 -0.678 0.383 -0.627 33 43 32
-44.1454 30.7671 84.3521 -0.893 0.196 -0.405 43 53 42
-41.5695 29.0242 81.5746 0.058 -0.772 -0.633 140 152 140
-41.4939 28.7018 80.9540 0.092 -0.793 -0.602 139 149 138
-41.3428 28.6947 80.9802 0.076 -0.802 -0.593 146 152 142
-41.1884 28.6996 81.0310 0.091 -0.795 -0.599 83 84 76
-41.0329 28.7074 81.0879 0.085 -0.780 -0.621 38 39 33
-40.8716 28.7361 81.1880 0.077 -0.761 -0.644 53 54 46
-39.2982 27.2677 78.6889 -0.210 -0.144 -0.967 68 73 66
-37.9491 27.1654 78.8449 -0.852 -0.227 -0.472 177 203 210
-37.7970 27.1568 78.8683 -0.789 -0.131 -0.601 180 205 212
-36.3510 26.4537 77.8561 -0.664 0.095 -0.741 184 208 218
-36.2264 26.3758 77.7345 -0.664 0.095 -0.741 184 208 218
-36.1097 26.2796 77.5744 -0.573 0.220 -0.789 183 207 217
-35.6964 26.1475 77.4219 -0.074 -0.046 -0.996 182 206 216
-35.5503 26.1230 77.4122 -0.074 -0.046 -0.996 182 206 216
-35.4158 26.0717 77.3459 -0.233 -0.004 -0.972 183 208 215
-35.3329 25.9021 77.0311 -0.763 -0.065 -0.643 183 208 215
-34.7761 25.7453 76.8678 -0.538 -0.792 -0.288 181 206 213
-32.0483 23.9978 74.1214 -0.442 -0.062 -0.895 175 192 200
-29.4594 24.0409 74.8966 -0.562 -0.817 0.128 185 206 211
-29.3222 23.9999 74.8516 -0.582 -0.803 0.127 185 206 211
-29.2349 23.8817 74.6399 -0.582 -0.806 0.108 186 205 211
-29.1510 23.7595 74.4194 -0.478 -0.876 0.062 186 205 211
-29.0313 23.6932 74.3196 -0.458 -0.887 0.055 186 205 211
-28.9069 23.6344 74.2358 -0.199 -0.980 -0.017 186 205 211
-28.7651 23.6019 74.2091 -0.195 -0.981 0.008 186 205 211
-27.1576 22.8501 73.1431 -0.372 -0.764 -0.527 196 214 218
-27.0295 22.8002 73.0780 -0.389 -0.710 -0.588 195 213 217
-26.9946 22.6247 72.7385 -0.144 0.176 -0.974 195 213 217
-26.8541 22.5924 72.7119 -0.144 0.176 -0.974 196 214 218
-26.2972 22.4564 72.5898 -0.003 0.238 -0.971 193 212 218
-26.1128 21.6402 71.0169 -0.602 -0.174 -0.779 195 214 220
-21.7404 20.7240 70.3607 -0.259 -0.621 -0.740 95 88 82
-21.6086 20.6833 70.3149 -0.253 -0.624 -0.739 95 88 82
-21.4670 20.6528 70.2921 -0.253 -0.624 -0.739 95 88 82
-20.7741 20.1429 69.4631 -0.201 -0.134 -0.970 88 82 70
-19.5262 19.6874 68.8903 -0.251 -0.492 -0.833 78 71 62
-19.2786 19.5955 68.7737 -0.207 -0.435 -0.876 70 67 52
-18.8191 19.5383 68.7824 -0.221 -0.471 -0.854 111 108 93
-18.5051 19.5061 68.8020 -0.073 -0.558 -0.827 112 109 94
-15.8971 18.8524 68.1975 -0.198 -0.633 -0.749 97 97 87
-15.4973 18.7385 68.0776 -0.398 -0.341 -0.852 104 104 94
-15.3526 18.7097 68.0589 -0.402 -0.401 -0.824 99 99 89
-15.2082 18.6805 68.0392 -0.666 -0.359 -0.653 93 93 85
-15.0866 18.6333 67.9779 -0.389 -0.416 -0.822 87 86 80
-13.8424 18.3253 67.6972 -0.303 -0.505 -0.808 78 77 73
-13.7037 18.2913 67.6664 -0.303 -0.505 -0.808 99 98 94
-13.4256 18.2236 67.6060 -0.365 -0.503 -0.783 88 87 83
-13.2258 18.2345 67.6808 -0.220 -0.431 -0.875 74 73 69
-13.1088 18.1841 67.6119 -0.024 -0.382 -0.924 69 68 64
-12.9522 18.1628 67.6112 -0.167 -0.335 -0.927 82 78 75
-11.5739 17.6800 67.0188 -0.194 -0.607 -0.771 59 56 47
-11.4198 17.6563 67.0127 -0.191 -0.618 -0.763 59 56 47
-11.2840 17.6199 66.9766 -0.217 -0.618 -0.756 67 67 57
-10.9065 17.7483 67.3322 -0.093 -0.262 -0.961 60 57 48
-10.7762 17.7073 67.2856 -0.316 -0.306 -0.898 48 45 36
-10.6298 17.6774 67.2650 -0.567 -0.130 -0.813 39 37 25
-10.4879 17.6442 67.2368 -0.310 -0.306 -0.900 39 35 24
-10.3504 17.6081 67.2017 -0.310 -0.306 -0.900 46 42 31
-10.2129 17.5720 67.1666 -0.310 -0.306 -0.900 53 49 38
-10.1002 17.5194 67.0920 -0.163 -0.345 -0.924 59 55 44
-9.9519 17.4904 67.0741 -0.290 -0.299 -0.909 61 57 46
-9.7973 17.4655 67.0657 -0.264 -0.322 -0.909 60 56 45
-8.8376 17.2099 66.8134 -0.317 -0.428 -0.846 74 71 52
-8.7263 17.1571 66.7379 -0.332 -0.418 -0.846 73 70 51
-8.5942 17.1174 66.6944 -0.358 -0.663 -0.657 71 68 49
-5.6481 16.8535 66.9544 -0.148 -0.428 -0.892 70 75 37
-5.5705 16.7808 66.8305 -0.461 -0.458 -0.760 75 81 45
-5.4168 16.7521 66.8145 -0.462 -0.450 -0.764 84 88 53
-4.9207 16.4542 66.3546 -0.424 -0.256 -0.869 81 82 46
-4.0159 16.5007 66.6880 -0.387 0.089 -0.918 91 91 57
-3.6161 16.3786 66.5517 -0.211 -0.333 -0.919 82 87 46
-0.4479 15.9287 66.5014 -0.712 -0.202 -0.672 98 98 74
-0.1300 15.7628 66.2564 0.166 -0.815 -0.556 96 101 71
15.1803 14.1612 67.1506 -0.025 -0.466 -0.885 116 115 85
16.0657 14.0041 67.0743 -0.372 -0.283 -0.884 111 111 83
16.2174 13.9636 67.0341 -0.377 -0.270 -0.886 111 112 82
20.0547 13.7758 67.6827 -0.234 -0.642 -0.730 83 93 66
21.3967 14.1216 68.7272 0.055 -0.318 -0.947 83 93 66
-50.2980 35.1373 91.0203 -0.895 -0.386 -0.224 81 92 84
-49.9898 34.8011 90.4364 -0.826 -0.281 -0.488 81 90 85
-49.8366 34.6491 90.1760 -0.851 -0.229 -0.472 74 83 78
-49.6821 34.5837 90.0875 -0.610 -0.583 -0.536 76 82 80
-49.5271 34.5436 90.0490 -0.360 -0.718 -0.596 76 82 80
-49.3711 34.5336 90.0704 -0.372 -0.721 -0.585 81 87 85
-45.0547 31.9545 86.1061 -0.565 0.022 -0.825 32 39 31
-44.9109 31.8661 85.9692 -0.551 0.025 -0.834 39 47 36
-44.2356 31.1850 84.7996 -0.802 0.298 -0.517 38 48 39
-44.1168 30.9631 84.3919 -0.814 0.360 -0.456 42 52 41
-42.7690 29.1643 81.1883 0.110 -0.495 -0.862 159 171 159
-42.3943 28.1216 79.2238 -0.583 -0.542 -0.605 151 161 150
-41.7688 29.5447 82.2048 -0.755 -0.483 -0.443 151 161 150
-41.6297 29.4783 82.1102 -0.755 -0.488 -0.437 149 159 148
-41.4870 29.4279 82.0482 -0.737 -0.502 -0.453 142 152 143
-41.4533 28.9281 81.0680 -0.577 -0.230 -0.783 137 147 138
-41.3151 28.8672 80.9841 -0.577 -0.230 -0.783 145 150 143
-41.1735 28.8207 80.9294 -0.551 -0.213 -0.807 91 92 86
-41.0348 28.7627 80.8512 -0.648 -0.152 -0.747 35 36 28
-40.8926 28.7191 80.8025 -0.679 -0.283 -0.678 58 59 51
-36.2435 26.8100 78.2519 -0.600 -0.116 -0.791 189 213 223
-36.1052 26.7637 78.1968 -0.582 -0.057 -0.812 190 214 224
-34.9049 25.5544 76.1206 -0.741 -0.132 -0.658 189 214 221
-34.7954 25.4533 75.9495 -0.699 -0.052 -0.714 188 213 220
-33.2679 24.7448 74.9506 -0.065 -0.154 -0.986 183 201 203
-31.8848 24.1074 74.0543 -0.332 -0.002 -0.943 181 198 206
-31.7529 24.0621 73.9995 -0.343 -0.010 -0.939 188 207 214
-31.6274 24.0059 73.9215 -0.493 -0.035 -0.870 197 216 223
-31.3780 23.8915 73.7609 -0.534 0.178 -0.826 196 216 223
-31.0562 23.9009 73.8643 -0.678 -0.404 -0.614 201 221 228
-30.9276 23.8503 73.7981 -0.542 -0.534 -0.649 201 221 228
-28.5544 23.5339 73.7985 -0.262 -0.965 0.025 197 216 222
-21.9361 20.6307 69.8004 -0.515 -0.354 -0.781 92 85 79
-21.2280 20.4841 69.6972 -0.496 -0.828 -0.260 93 87 75
-21.1090 20.4317 69.6248 -0.489 -0.830 -0.268 93 87 75
-20.6224 20.2343 69.3627 -0.174 -0.214 -0.961 80 74 62
-20.4863 20.1994 69.3296 -0.077 -0.126 -0.989 80 74 62
-20.3342 20.1801 69.3315 0.028 -0.094 -0.995 73 66 58
-20.1951 20.1479 69.3046 -0.135 -0.194 -0.972 73 66 58
-20.0398 20.1313 69.3127 -0.187 -0.247 -0.951 73 66 58
-19.5147 19.8096 68.8147 -0.251 -0.492 -0.833 68 61 52
-19.2619 19.7226 68.7092 -0.194 -0.413 -0.890 73 70 55
-18.9520 19.6880 68.7226 -0.219 -0.510 -0.832 85 82 67
-18.8069 19.6615 68.7084 -0.230 -0.476 -0.849 93 90 75
-18.3686 19.5837 68.6702 -0.541 -0.438 -0.718 124 120 108
-16.0597 18.9805 68.0858 -0.084 -0.670 -0.737 94 94 85
-15.6197 18.8996 68.0419 -0.206 -0.553 -0.807 106 106 96
-15.4829 18.8645 68.0085 -0.451 -0.232 -0.862 106 106 96
-15.3245 18.8467 68.0151 -0.458 -0.247 -0.854 118 118 108
-15.1990 18.8024 67.9606 -0.458 -0.247 -0.854 111 111 103
-13.5481 18.3854 67.5712 -0.326 -0.435 -0.840 90 89 85
-13.3743 18.3774 67.6012 -0.174 -0.372 -0.912 89 88 84
-13.2184 18.3559 67.5997 -0.185 -0.364 -0.913 86 85 81
-13.0947 18.3104 67.5424 -0.064 -0.330 -0.942 79 78 74
-10.7659 17.8318 67.2100 -0.309 -0.357 -0.881 57 54 45
-10.6449 17.7846 67.1486 -0.547 -0.203 -0.812 66 64 52
-10.4954 17.7567 67.1328 -0.356 -0.183 -0.916 88 84 73
-9.9430 17.6141 66.9964 -0.258 -0.431 -0.865 84 80 69
-9.7885 17.5893 66.9880 -0.259 -0.429 -0.865 77 73 62
-9.4985 17.5267 66.9407 -0.261 -0.455 -0.852 90 87 72
-9.3570 17.4931 66.9115 -0.267 -0.451 -0.852 101 98 80
-9.2210 17.4558 66.8737 -0.268 -0.435 -0.860 101 98 79
-9.1166 17.3982 66.7873 -0.381 -0.578 -0.721 102 99 80
-8.8312 17.3324 66.7324 -0.300 -0.590 -0.750 89 86 67
-8.0884 17.1854 66.6374 -0.106 -0.548 -0.830 66 61 42
-7.9220 17.1668 66.6446 -0.110 -0.541 -0.834 72 67 48
-6.8605 17.0898 66.7725 0.149 -0.304 -0.941 96 91 62
-6.6816 17.0774 66.7950 0.105 -0.235 -0.966 82 76 50
-3.7415 16.5456 66.5186 -0.127 -0.406 -0.905 70 72 34
-3.5891 16.5154 66.4991 -0.135 -0.408 -0.903 80 86 43
-3.4481 16.4789 66.4641 -0.178 -0.327 -0.928 93 99 55
-1.2055 16.1044 66.3149 -0.086 -0.673 -0.735 86 86 60
-0.6205 16.0746 66.4104 -0.291 -0.088 -0.953 100 100 76
-0.4239 16.0650 66.4433 -0.709 -0.208 -0.673 100 100 75
-0.3371 15.9998 66.3372 -0.692 -0.243 -0.680 96 100 71
1.3053 16.1644 67.0963 -0.909 -0.224 -0.353 89 94 64
11.3594 14.5976 66.6494 -0.192 -0.351 -0.917 84 83 63
11.5441 14.5720 66.6474 -0.171 -0.366 -0.915 84 83 63
19.4964 14.1011 67.8143 -0.067 -0.835 -0.546 97 99 74
22.9092 13.8216 68.1620 -0.051 -0.454 -0.890 87 100 70
-53.8458 38.2686 95.8870 -0.521 0.495 -0.695 79 90 86
-53.6790 38.1642 95.7250 -0.595 0.467 -0.654 82 93 89
-50.2783 35.1802 90.7347 -0.870 -0.303 -0.388 73 85 75
-50.1239 35.0328 90.4848 -0.842 -0.336 -0.422 75 85 77
-49.9696 34.9189 90.3006 -0.825 -0.293 -0.484 75 84 78
-49.8162 34.7835 90.0739 -0.851 -0.229 -0.472 67 76 71
-49.6635 34.6518 89.8544 -0.686 -0.533 -0.494 70 76 72
-49.5079 34.6394 89.8706 -0.157 -0.435 -0.886 69 75 71
-49.3523 34.6236 89.8803 -0.162 -0.428 -0.889 81 87 83
-49.1997 34.5137 89.7036 -0.199 -0.363 -0.910 75 81 77
-45.7040 31.7135 85.1004 -0.051 -0.920 -0.388 50 57 49
-44.2244 31.2740 84.6216 -0.787 0.093 -0.610 37 47 36
-44.0907 31.1445 84.4013 -0.834 0.151 -0.530 40 52 40
-43.4544 30.3736 83.0488 0.133 -0.413 -0.901 48 60 47
-42.7485 29.3090 81.1358 0.106 -0.505 -0.857 159 171 159
-42.4141 28.0832 78.8079 -0.923 -0.008 -0.386 151 161 149
-42.3124 27.8796 78.4335 -0.836 0.011 -0.549 151 161 150
-41.4756 29.5340 81.9120 -0.737 -0.502 -0.453 142 152 141
-41.4180 29.1329 81.1367 -0.735 -0.003 -0.678 139 147 136
-40.9151 28.6955 80.4065 -0.914 0.094 -0.394 58 59 51
-40.8065 28.5265 80.1019 -0.875 0.145 -0.461 55 56 48
-34.8836 25.6934 76.0688 -0.741 -0.132 -0.658 194 219 226
-34.7631 25.6164 75.9485 -0.741 -0.132 -0.658 194 219 226
-34.5166 25.4763 75.7370 -0.696 -0.232 -0.679 194 219 224
-34.3998 25.3935 75.6044 -0.558 0.015 -0.829 194 219 224
-33.2175 24.9395 75.0191 -0.360 -0.121 -0.925 201 219 221
-32.8242 24.7903 74.8279 -0.392 -0.144 -0.909 183 201 203
-32.1120 24.3623 74.1709 -0.304 -0.135 -0.943 161 178 185
-31.0591 23.9961 73.7247 -0.686 -0.435 -0.583 200 220 227
-22.0183 20.8320 69.8550 -0.675 -0.176 -0.716 75 68 62
-21.2122 20.4380 69.2895 -0.531 -0.802 -0.275 89 83 71
-20.1610 20.2923 69.2774 -0.332 0.193 -0.923 73 66 58
-20.0067 20.2747 69.2829 -0.210 -0.101 -0.973 73 66 58
-19.0678 19.8533 68.6983 -0.056 -0.283 -0.957 80 77 62
-18.9291 19.8209 68.6707 -0.222 -0.448 -0.866 85 82 67
-18.8124 19.7684 68.5978 -0.055 -0.337 -0.940 93 90 75
-18.5010 19.7344 68.6122 0.099 -0.462 -0.881 105 101 89
-18.4816 19.4385 68.0343 -0.263 0.117 -0.958 115 110 103
-16.6436 19.6555 68.9427 -0.437 -0.450 -0.779 93 91 92
-16.3249 19.1708 68.0710 -0.551 -0.573 -0.607 79 77 78
-16.2097 19.1182 67.9974 0.050 -0.495 -0.867 78 77 74
-15.5842 19.0425 68.0119 -0.367 -0.332 -0.869 103 103 93
-15.4579 18.9990 67.9592 -0.451 -0.232 -0.862 106 106 96
-15.3206 18.9643 67.9267 -0.381 -0.368 -0.848 119 119 109
-15.1761 18.9352 67.9071 -0.494 -0.408 -0.768 112 112 104
-15.0623 18.8818 67.8316 -0.489 -0.292 -0.822 93 93 86
-14.9386 18.8362 67.7743 -0.489 -0.292 -0.822 82 78 76
-14.7875 18.8124 67.7668 -0.295 -0.225 -0.929 82 78 77
-13.2669 18.4356 67.4221 -0.370 -0.623 -0.689 91 90 86
-11.1549 18.0732 67.2605 -0.211 -0.571 -0.793 51 48 39
-10.7253 17.9770 67.1832 -0.405 -0.365 -0.838 49 46 37
-10.5910 17.9388 67.1430 -0.512 -0.260 -0.819 58 54 45
-10.4442 17.9090 67.1227 -0.524 -0.250 -0.814 77 73 62
-10.1974 17.8178 67.0076 -0.355 -0.391 -0.849 78 74 63
-9.9178 17.7487 66.9447 -0.345 -0.580 -0.738 91 87 76
-9.7839 17.7102 66.9037 -0.291 -0.632 -0.718 101 97 86
-8.5564 17.3781 66.5705 -0.337 -0.589 -0.734 83 78 59
-6.8639 17.2076 66.6773 0.136 -0.627 -0.767 94 88 62
-6.7034 17.1842 66.6731 -0.039 -0.709 -0.705 84 79 50
-6.2115 17.0004 66.4397 -0.280 -0.445 -0.851 89 87 52
-6.0684 16.9665 66.4103 -0.280 -0.445 -0.851 92 94 52
-5.9252 16.9326 66.3809 -0.280 -0.445 -0.851 90 95 48
-5.7683 16.9067 66.3708 -0.194 -0.452 -0.871 90 97 48
-5.6446 16.8614 66.3139 -0.293 -0.488 -0.822 89 96 46
-5.4936 16.8319 66.2953 -0.248 -0.490 -0.836 84 91 41
-3.8908 16.9303 66.9085 -0.904 0.101 -0.415 90 90 55
-3.6984 16.6913 66.4879 -0.104 -0.481 -0.871 70 72 35
-3.5697 16.6480 66.4362 -0.135 -0.408 -0.903 82 84 45
-3.4453 16.6024 66.3789 -0.736 -0.130 -0.664 94 100 57
21.2342 14.2571 68.2126 -0.089 -0.727 -0.681 97 107 80
-53.8153 38.2906 95.5475 -0.451 -0.515 -0.729 71 82 78
-53.1519 37.8598 94.8743 -0.570 0.563 -0.598 70 79 76
-50.2557 35.4893 90.9740 -0.951 -0.159 -0.263 68 80 70
-50.1036 35.1504 90.3484 -0.813 -0.528 -0.245 69 79 70
-49.9501 35.0023 90.0977 -0.797 -0.579 -0.170 69 79 70
-49.7973 34.8503 89.8390 -0.789 -0.589 -0.176 61 71 63
-49.6500 34.5139 89.2172 -0.787 -0.611 -0.089 63 70 63
-45.6797 31.8931 85.1043 -0.060 -0.857 -0.512 48 58 49
-43.5477 30.7390 83.3925 -0.850 -0.040 -0.525 44 57 40
-43.4109 30.6450 83.2436 -0.803 -0.042 -0.595 64 77 60
-43.2772 30.5363 83.0649 0.193 -0.575 -0.795 85 97 82
-43.1234 30.5353 83.1028 0.193 -0.575 -0.795 131 143 129
-42.7317 29.4353 81.0462 0.091 -0.435 -0.896 159 171 157
-41.5648 29.8694 82.2002 -0.871 0.163 -0.463 152 160 147
-41.4725 29.6050 81.7054 -0.557 -0.374 -0.742 143 154 140
-40.8386 29.0558 80.7922 -0.494 0.251 -0.833 57 57 47
-40.7030 28.9862 80.6908 -0.494 0.251 -0.833 57 57 47
-39.0348 27.8466 78.8873 -0.846 0.226 -0.483 73 76 76
-37.0441 26.9268 77.5986 -0.509 0.050 -0.859 203 225 236
-34.8690 25.8178 75.9865 -0.751 -0.255 -0.609 218 241 249
-34.7516 25.7339 75.8524 -0.755 -0.238 -0.611 218 243 250
-34.6312 25.6574 75.7336 -0.755 -0.238 -0.611 216 241 246
-34.5056 25.5929 75.6395 -0.737 -0.233 -0.635 212 237 242
-34.3818 25.5249 75.5382 -0.583 0.000 -0.812 212 237 242
-34.2473 25.4802 75.4853 -0.565 -0.160 -0.809 212 237 242
-34.1142 25.4328 75.4268 -0.567 -0.177 -0.805 212 237 242
-30.9223 24.0596 73.5600 -0.493 -0.105 -0.864 185 205 212
-30.7921 24.0123 73.5008 -0.403 -0.037 -0.914 186 206 213
-30.6659 23.9585 73.4281 -0.404 -0.019 -0.915 180 201 206
-30.4121 23.8539 73.2886 -0.415 -0.005 -0.910 172 193 198
-29.0930 23.9111 73.7427 -0.307 0.177 -0.935 166 185 191
-22.0072 20.9535 69.7765 -0.526 -0.624 -0.578 68 61 55
-21.9544 20.8311 69.5500 -0.565 -0.280 -0.776 70 63 57
-21.8376 20.7764 69.4730 -0.611 -0.303 -0.732 70 63 57
-21.7103 20.7329 69.4205 -0.640 -0.353 -0.682 70 63 57
-21.6029 20.6689 69.3229 -0.643 -0.365 -0.673 70 63 56
-21.1595 20.4298 68.9686 -0.328 -0.915 -0.236 82 76 64
-20.3918 20.1786 68.6748 -0.555 -0.582 -0.595 73 66 58
-18.3539 19.8216 68.5026 -0.263 -0.460 -0.848 125 121 110
-18.2511 19.7568 68.4022 -0.437 -0.319 -0.841 124 119 112
-17.2524 19.5524 68.2600 -0.140 -0.374 -0.917 97 93 88
-17.1042 19.5276 68.2497 -0.281 -0.387 -0.878 101 98 96
-16.6760 19.7422 68.7817 -0.419 -0.475 -0.774 100 98 99
-16.4568 19.3232 68.0164 -0.309 -0.561 -0.768 92 90 91
-16.3270 19.2827 67.9706 -0.290 -0.551 -0.782 85 83 84
-16.1909 19.2474 67.9367 0.020 -0.452 -0.892 82 81 78
-15.6041 19.1406 67.8792 -0.109 -0.454 -0.884 98 98 88
-15.4473 19.1218 67.8830 -0.391 -0.353 -0.850 107 107 97
-15.3032 19.0926 67.8631 -0.381 -0.368 -0.848 118 118 108
-15.1693 19.0551 67.8242 -0.484 -0.399 -0.779 112 112 104
-14.7459 18.9598 67.7469 -0.288 -0.215 -0.933 82 78 75
-13.1203 18.5230 67.3113 -0.322 -0.721 -0.613 91 90 86
-12.4288 18.3508 67.1525 -0.323 -0.383 -0.866 99 94 91
-12.3126 18.3003 67.0836 -0.348 -0.248 -0.904 79 74 71
-11.3754 18.1681 67.0672 -0.146 0.007 -0.989 46 41 35
-11.1515 18.1928 67.1736 -0.211 -0.571 -0.793 48 45 38
-10.5686 18.0716 67.0869 -0.512 -0.260 -0.819 65 61 52
-10.4131 18.0477 67.0804 -0.535 -0.232 -0.813 77 73 64
-10.1800 17.9471 66.9434 -0.479 -0.321 -0.817 79 72 62
-9.7666 17.8395 66.8394 -0.311 -0.636 -0.706 76 69 59
-9.2207 17.6923 66.6921 -0.389 -0.561 -0.731 91 86 67
-9.1026 17.6435 66.6270 -0.371 -0.585 -0.722 95 92 73
-5.9185 17.0567 66.3009 -0.298 -0.451 -0.841 92 96 47
-5.7512 17.0369 66.3056 -0.177 -0.452 -0.874 90 97 45
-5.6199 16.9960 66.2593 -0.272 -0.518 -0.811 88 95 44
-5.4848 16.9573 66.2185 -0.051 -0.573 -0.818 86 93 41
-4.3525 16.9077 66.4145 0.250 -0.384 -0.889 81 78 47
-3.7548 17.1295 67.0046 -0.967 -0.254 -0.022 91 88 58
-3.6600 16.8346 66.4507 0.021 -0.305 -0.952 70 72 37
-3.5107 16.8027 66.4267 0.007 -0.265 -0.964 84 86 49
-3.4024 16.7480 66.3476 -0.120 -0.206 -0.971 95 97 59
10.7730 14.9247 66.4445 0.384 -0.385 -0.839 82 76 58
11.9848 14.9103 66.7303 -0.199 -0.318 -0.927 77 72 53
12.1494 14.8765 66.7066 -0.199 -0.318 -0.927 81 76 57
14.4395 14.7742 67.0995 -0.075 -0.156 -0.985 107 101 81
16.5459 14.2050 66.5287 -0.294 -0.624 -0.724 114 114 91
-53.1320 38.0486 94.8622 -0.778 0.319 -0.542 67 76 73
-52.5886 36.4749 91.9272 -0.836 0.384 -0.391 72 83 75
-50.2383 35.3374 90.3085 -0.818 -0.519 -0.247 65 75 66
-50.0843 35.2018 90.0833 -0.818 -0.519 -0.247 65 76 64
-49.9316 35.0285 89.7838 -0.783 -0.597 -0.176 65 75 64
-49.7827 34.7244 89.2279 -0.747 -0.663 -0.046 62 70 59
-49.4717 34.7600 89.3773 -0.331 -0.869 -0.366 62 69 60
-43.7865 31.1643 83.8128 -0.885 -0.020 -0.465 43 57 37
-43.6535 31.0417 83.6073 -0.892 -0.009 -0.453 45 58 39
-43.0958 30.7188 83.1197 0.244 -0.361 -0.900 114 127 111
-42.6231 30.7608 83.3232 0.250 -0.393 -0.885 159 170 155
-42.7170 29.5517 80.9369 0.189 -0.255 -0.948 160 171 156
-41.6612 30.1793 82.4342 -0.877 0.182 -0.444 153 162 144
-41.5405 30.0306 82.1746 -0.872 0.186 -0.452 147 155 138
-41.4405 29.7977 81.7454 -0.716 -0.418 -0.559 143 153 136
-41.3933 29.3528 80.8883 -0.540 -0.126 -0.832 141 149 133
-41.2540 29.2964 80.8138 -0.144 -0.056 -0.988 149 153 139
-41.1020 29.2908 80.8419 -0.184 -0.042 -0.982 126 126 114
-40.9530 29.2727 80.8449 -0.203 -0.060 -0.977 68 68 57
-40.8005 29.2674 80.8737 -0.186 -0.028 -0.982 52 51 41
-40.7701 28.7939 79.9565 -0.644 -0.347 -0.682 57 57 46
-31.3887 24.4448 73.8693 -0.518 0.074 -0.852 162 181 188
-30.3676 24.0276 73.3163 -0.456 0.014 -0.890 139 160 165
-30.2396 23.9771 73.2506 -0.482 0.022 -0.876 141 162 167
-21.8332 20.8906 69.3797 -0.600 -0.297 -0.743 60 53 48
-21.5964 20.7853 69.2348 -0.439 -0.322 -0.839 60 53 47
-21.4816 20.7292 69.1546 -0.490 -0.291 -0.822 76 71 61
-21.3870 20.6525 69.0292 -0.753 -0.093 -0.651 76 71 61
-21.0330 20.4962 68.8146 -0.803 -0.234 -0.548 79 74 64
-20.9237 20.4356 68.7243 -0.296 -0.365 -0.883 79 74 64
-18.3620 19.9265 68.3878 -0.307 -0.496 -0.813 125 121 111
-18.2412 19.8779 68.3238 -0.405 -0.347 -0.846 129 124 117
-18.1052 19.8431 68.2908 -0.448 -0.327 -0.832 122 117 111
-16.7726 19.7735 68.4970 -0.230 -0.386 -0.893 105 103 104
-16.0108 19.3623 67.8893 -0.170 -0.392 -0.904 78 78 69
-15.8757 19.3260 67.8532 -0.159 -0.392 -0.906 84 84 74
-15.7558 19.2773 67.7888 -0.050 -0.475 -0.879 90 90 80
-15.5588 19.2916 67.8674 -0.382 -0.353 -0.854 96 96 86
-15.4171 19.2606 67.8431 -0.481 -0.347 -0.805 107 107 97
-15.2927 19.2154 67.7868 -0.394 -0.352 -0.849 118 118 108
-15.1704 19.1686 67.7268 -0.427 -0.406 -0.808 112 112 104
-14.7685 19.0566 67.6113 -0.292 -0.446 -0.846 82 78 75
-13.5941 18.6967 67.2098 -0.534 -0.206 -0.820 106 105 99
-12.8438 18.5698 67.1546 -0.319 -0.510 -0.799 79 76 70
-12.7074 18.5341 67.1198 -0.301 -0.473 -0.828 84 79 76
-12.5571 18.5085 67.1083 -0.360 -0.355 -0.863 92 87 84
-12.4113 18.4795 67.0891 -0.323 -0.383 -0.866 97 92 89
-11.6579 18.4840 67.2916 -0.430 -0.470 -0.771 64 60 54
-11.4142 18.3901 67.1706 -0.406 -0.541 -0.736 73 66 62
-11.2926 18.3431 67.1100 -0.438 -0.511 -0.740 72 67 62
-10.6879 18.2375 67.0590 -0.347 -0.327 -0.879 73 66 62
-10.4274 18.1555 66.9657 -0.398 -0.406 -0.822 68 60 53
-10.3318 18.0909 66.8641 -0.279 -0.526 -0.804 69 61 51
-9.6471 17.9092 66.6850 -0.417 -0.539 -0.732 75 68 57
-6.2216 17.2341 66.2460 -0.296 -0.601 -0.743 91 88 54
-5.6087 17.1228 66.1859 -0.219 -0.514 -0.829 89 93 45
-3.6656 16.9534 66.3540 0.161 -0.184 -0.970 74 73 44
-3.4835 16.9398 66.3742 0.155 -0.176 -0.972 81 81 48
12.1443 15.0074 66.6132 -0.287 -0.364 -0.886 76 69 51
14.3724 14.8841 66.9446 -0.025 -0.327 -0.945 102 93 74
15.9931 14.5206 66.6507 -0.005 -0.270 -0.963 111 104 85
17.9362 14.5458 67.1991 0.061 -0.508 -0.859 119 113 96
-54.0737 38.3574 94.8382 -0.215 -0.967 -0.137 78 89 83
-53.9243 38.4944 95.1429 -0.428 -0.731 -0.531 71 80 75
-53.7617 38.4425 95.0833 -0.428 -0.731 -0.531 66 75 70
-53.0918 37.8302 94.0627 -0.831 0.399 -0.388 69 75 75
-42.5813 31.0118 83.4728 0.569 -0.123 -0.813 162 170 153
-42.6974 29.6919 80.8754 0.123 -0.325 -0.938 162 171 153
-41.5838 29.9017 81.5670 -0.606 0.441 -0.662 144 152 128
-41.4242 29.9246 81.6523 -0.689 -0.117 -0.715 146 153 130
-41.3659 29.5252 80.8900 -0.530 -0.104 -0.842 147 150 130
-41.2277 29.4634 80.8050 -0.557 -0.136 -0.820 156 157 141
-41.0747 29.4616 80.8403 -0.186 -0.029 -0.982 124 124 112
-40.9273 29.4367 80.8295 -0.203 -0.060 -0.977 76 74 61
-40.7740 29.4343 80.8639 -0.186 -0.028 -0.982 52 48 36
-40.7181 29.0573 80.1446 -0.334 -0.188 -0.924 62 59 47
-35.0541 26.2837 76.1903 -0.523 0.192 -0.831 152 171 177
-31.9069 24.7434 73.9949 -0.039 -0.075 -0.996 106 124 128
-30.3363 24.1799 73.2984 -0.391 0.107 -0.914 112 130 137
-29.9458 24.5576 74.1326 -0.379 0.315 -0.870 112 130 137
-29.8188 24.5022 74.0571 -0.379 0.315 -0.870 116 133 140
-29.6795 24.4666 74.0233 -0.381 0.328 -0.864 119 137 144
-29.1499 24.2812 73.7974 -0.286 0.200 -0.937 113 131 135
-29.0210 24.2297 73.7300 -0.281 0.192 -0.940 113 131 135
-28.8952 24.1736 73.6529 -0.256 0.218 -0.942 113 131 135
-28.7661 24.1228 73.5869 -0.290 0.196 -0.937 114 132 136
-28.6331 24.0782 73.5339 -0.416 0.226 -0.881 114 132 136
-23.9743 21.3936 69.4970 0.027 -0.123 -0.992 104 113 110
-23.7786 21.4289 69.6155 -0.304 -0.543 -0.783 109 117 113
-22.3024 20.6819 68.5380 -0.574 -0.527 -0.626 55 51 48
-22.2136 20.6001 68.4014 -0.476 -0.444 -0.759 55 51 48
-20.8965 20.5726 68.6832 -0.331 -0.329 -0.885 76 74 68
-19.7026 20.5694 68.9809 -0.581 -0.372 -0.723 74 70 67
-19.3549 20.4061 68.7517 -0.586 -0.249 -0.771 74 70 67
-18.5908 20.1478 68.4436 -0.231 -0.455 -0.860 94 92 86
-18.4749 20.0944 68.3692 -0.217 -0.510 -0.833 100 99 93
-18.3514 20.0482 68.3108 -0.340 -0.499 -0.797 105 103 97
-18.2316 19.9987 68.2449 -0.398 -0.427 -0.812 104 99 95
-18.0979 19.9618 68.2073 -0.424 -0.428 -0.798 111 106 102
-17.6899 19.8573 68.1078 -0.419 -0.333 -0.845 93 88 84
-16.8034 19.8606 68.3398 -0.397 -0.559 -0.728 112 112 110
-16.7424 19.7603 68.1603 -0.467 -0.475 -0.746 112 112 110
-16.2941 19.5372 67.8403 -0.168 -0.315 -0.934 84 85 81
-16.1454 19.5125 67.8301 -0.179 -0.310 -0.934 77 78 72
-16.0010 19.4842 67.8118 -0.179 -0.310 -0.934 79 79 72
-15.8421 19.4676 67.8200 -0.168 -0.387 -0.906 85 85 77
-15.7372 19.4064 67.7277 -0.023 -0.398 -0.917 91 91 83
-15.5404 19.4208 67.8058 -0.316 -0.349 -0.882 98 98 90
-15.3926 19.3947 67.7925 -0.488 -0.356 -0.797 107 107 99
-15.2711 19.3471 67.7309 -0.371 -0.370 -0.852 113 113 105
-15.1391 19.3082 67.6888 -0.486 -0.310 -0.818 119 118 113
-15.0150 19.2629 67.6323 -0.486 -0.310 -0.818 120 119 114
-14.8873 19.2205 67.5823 -0.491 -0.411 -0.768 92 91 90
-14.7564 19.1808 67.5383 -0.360 -0.471 -0.806 78 77 75
-14.6175 19.1473 67.5085 -0.144 -0.605 -0.783 90 89 87
-14.3764 19.0516 67.3837 -0.768 -0.318 -0.557 85 83 84
-14.4395 18.8609 66.9968 0.045 -0.137 -0.990 85 83 83
-14.1691 18.9302 67.2002 -0.579 -0.195 -0.791 85 84 81
-13.2047 18.8287 67.2484 -0.236 -0.302 -0.924 98 98 87
-13.1027 18.7672 67.1546 -0.269 -0.416 -0.869 93 90 80
-12.9715 18.7276 67.1111 -0.190 -0.428 -0.884 68 66 55
-12.8317 18.6944 67.0821 -0.223 -0.375 -0.900 45 42 32
-12.6882 18.6639 67.0593 -0.223 -0.375 -0.900 61 56 44
-12.5169 18.6538 67.0831 -0.350 -0.365 -0.863 81 74 65
-11.6414 18.6126 67.2259 -0.567 -0.385 -0.728 52 44 40
-11.5314 18.5571 67.1459 -0.535 -0.435 -0.724 47 38 39
-11.4222 18.5012 67.0650 -0.411 -0.537 -0.736 47 35 43
-11.2602 18.4828 67.0703 -0.039 -0.208 -0.977 47 37 42
-9.5182 17.9852 66.5457 -0.182 -0.256 -0.949 76 65 53
-6.1955 17.3696 66.1939 -0.368 -0.585 -0.723 93 86 59
-6.0786 17.3201 66.1274 -0.145 -0.705 -0.694 99 97 64
-5.9213 17.2949 66.1183 -0.187 -0.744 -0.641 94 94 58
-3.4499 17.0805 66.3304 0.106 -0.202 -0.974 79 73 52
-3.1853 16.8830 66.0135 -0.538 -0.263 -0.801 89 85 62
4.9062 15.2098 64.8178 0.123 0.451 -0.884 87 73 64
6.7864 15.7318 66.3121 -0.155 -0.912 -0.380 89 75 66
9.4961 15.4641 66.4811 -0.724 -0.369 -0.583 88 76 63
11.7626 15.1869 66.5185 -0.230 -0.293 -0.928 82 70 58
13.7551 15.0771 66.8121 -0.590 -0.457 -0.666 99 86 69
14.2246 15.0603 66.8989 -0.003 -0.321 -0.947 105 91 74
15.2090 14.7518 66.5494 -0.022 -0.183 -0.983 108 100 81
21.0333 14.4245 67.3952 -0.432 0.082 -0.898 104 100 73
-54.0435 38.3866 94.5199 -0.208 -0.975 -0.082 79 90 84
-45.6276 32.2618 84.7769 0.127 0.432 -0.893 47 58 49
-42.6767 29.8371 80.8240 0.088 -0.337 -0.938 162 171 152
-41.5391 30.1499 81.7170 -0.609 0.454 -0.651 144 152 128
-41.3819 30.1607 81.7774 -0.908 0.033 -0.419 146 151 128
-41.2829 29.9285 81.3526 -0.908 -0.073 -0.413 147 150 129
-41.0444 29.6446 80.8627 -0.225 -0.082 -0.971 121 121 109
-40.8906 29.6443 80.9009 -0.547 -0.063 -0.835 80 78 66
-40.7518 29.5845 80.8201 -0.549 -0.061 -0.834 56 54 42
-40.6811 29.2634 80.2159 -0.543 -0.100 -0.834 61 59 47
-34.4747 26.6226 76.6653 -0.414 0.090 -0.906 105 124 130
-34.3449 26.5618 76.5803 -0.453 0.090 -0.887 107 126 132
-34.2052 26.5227 76.5397 -0.451 0.113 -0.885 111 128 135
-34.0741 26.4653 76.4617 -0.483 0.090 -0.871 111 129 133
-33.9448 26.4044 76.3762 -0.457 0.106 -0.883 110 128 132
-33.8144 26.3461 76.2962 -0.454 0.107 -0.885 114 132 136
-30.2988 24.3425 73.3014 -0.391 0.107 -0.914 140 157 164
-29.8488 24.5559 73.8283 -0.269 -0.649 -0.711 137 154 161
-28.0847 24.0293 73.2530 -0.368 0.349 -0.862 142 159 166
-27.8465 23.9004 73.0634 -0.287 0.332 -0.898 142 159 166
-27.7192 23.8483 72.9947 -0.311 0.331 -0.891 143 160 167
-25.9488 22.4840 70.7981 -0.531 -0.082 -0.843 139 156 163
-23.7615 21.5559 69.5518 -0.280 -0.571 -0.771 109 117 113
-22.2348 20.6856 68.2508 -0.517 -0.461 -0.721 55 51 48
-22.0999 20.6527 68.2211 -0.566 -0.420 -0.710 55 51 48
-20.8849 20.6940 68.6077 -0.226 -0.186 -0.956 84 83 78
-20.7443 20.6650 68.5870 -0.233 -0.238 -0.943 84 83 78
-20.1200 20.6085 68.6349 -0.106 -0.692 -0.714 78 74 71
-18.6032 20.2482 68.3195 -0.270 -0.529 -0.804 84 83 79
-18.4694 20.2113 68.2819 -0.280 -0.522 -0.805 90 89 85
-18.3347 20.1754 68.2461 -0.297 -0.531 -0.794 95 94 90
-18.2013 20.1382 68.2078 -0.370 -0.352 -0.860 99 94 90
-18.0740 20.0954 68.1571 -0.385 -0.417 -0.824 109 104 100
-17.9304 20.0675 68.1392 -0.427 -0.402 -0.810 103 98 94
-16.8429 19.9399 68.1664 -0.374 -0.650 -0.662 112 112 110
-16.4397 19.6777 67.7600 -0.357 -0.186 -0.915 97 97 95
-16.1324 19.6370 67.7586 -0.236 -0.230 -0.944 77 78 72
-15.9925 19.6048 67.7316 -0.236 -0.230 -0.944 79 79 72
-15.4065 19.4975 67.6715 -0.308 -0.435 -0.846 107 107 99
-15.2539 19.4754 67.6671 -0.280 -0.451 -0.847 113 113 105
-15.1127 19.4438 67.6416 -0.479 -0.319 -0.818 119 118 113
-14.9959 19.3926 67.5718 -0.486 -0.310 -0.818 120 119 115
-14.8658 19.3521 67.5262 -0.469 -0.437 -0.767 92 91 90
-14.7674 19.2864 67.4237 -0.273 -0.659 -0.701 78 77 75
-14.6491 19.2368 67.3574 -0.287 -0.609 -0.740 89 88 86
-14.3792 19.1640 67.2846 -0.707 -0.426 -0.565 79 77 78
-12.9612 18.8508 67.0354 -0.164 -0.317 -0.934 69 67 55
-12.8140 18.8231 67.0190 -0.164 -0.317 -0.934 50 48 36
-12.5138 18.7719 66.9954 -0.336 -0.372 -0.865 78 71 61
-11.5569 18.6556 67.0115 -0.426 -0.493 -0.759 40 30 31
-11.3762 18.6507 67.0477 -0.056 -0.183 -0.982 41 29 34
-11.2202 18.6280 67.0430 -0.056 -0.183 -0.982 41 29 33
-10.0513 18.1286 66.3704 -0.024 -0.538 -0.842 78 64 55
-9.8877 18.1108 66.3772 -0.024 -0.538 -0.842 78 64 55
-6.1754 17.5014 66.1329 -0.416 -0.525 -0.743 90 82 57
-6.0450 17.4601 66.0857 -0.407 -0.539 -0.738 93 89 59
-3.2513 17.0828 66.0596 -0.130 -0.488 -0.863 85 80 60
-3.1796 17.0079 65.9326 -0.441 -0.383 -0.812 83 78 58
-0.8282 17.1453 66.7919 -0.954 -0.031 -0.300 82 73 58
1.6151 16.8400 66.8167 0.223 -0.772 -0.595 93 80 69
1.7130 16.7788 66.7230 0.181 -0.614 -0.768 92 79 71
3.7961 15.8560 65.4605 -0.157 -0.348 -0.924 89 72 64
3.9423 15.8197 65.4271 -0.169 -0.334 -0.927 89 72 65
4.0996 15.7884 65.4062 -0.329 -0.145 -0.933 85 70 63
17.0848 14.7085 66.5895 -0.061 -0.273 -0.960 100 94 78
-53.5146 37.9945 93.5154 -0.717 -0.685 0.129 62 68 68
-47.6236 33.8085 86.9122 0.208 -0.704 -0.679 54 62 50
-47.4779 33.6948 86.7291 -0.383 -0.044 -0.923 49 57 44
-47.3303 33.6113 86.6051 -0.672 0.099 -0.734 52 60 47
-45.2966 32.4341 84.8423 -0.632 -0.682 -0.368 58 72 60
-45.1504 32.3744 84.7637 -0.637 -0.684 -0.356 58 72 58
-42.6534 29.9954 80.7982 0.091 -0.320 -0.943 162 171 152
-40.6529 29.4362 80.2195 -0.511 -0.081 -0.856 61 59 47
-40.4827 29.4994 80.3838 -0.156 -0.390 -0.908 61 59 47
-40.3317 29.4883 80.4002 -0.177 -0.402 -0.898 59 59 49
-39.8970 28.8384 79.2551 -0.437 0.668 -0.602 60 56 53
-25.6376 22.5707 70.7276 -0.293 -0.082 -0.952 153 170 177
-25.0838 22.4430 70.6198 -0.511 -0.425 -0.747 145 162 169
-24.9404 22.4171 70.6057 -0.415 -0.326 -0.849 145 162 169
-24.8097 22.3754 70.5579 -0.415 -0.326 -0.849 151 168 175
-24.6812 22.3311 70.5045 -0.377 -0.304 -0.875 143 160 167
-23.7521 21.6740 69.4690 -0.414 -0.322 -0.851 109 117 113
-21.9302 20.7641 68.1691 -0.753 -0.292 -0.589 55 51 48
-20.8491 20.8399 68.5854 -0.219 -0.201 -0.955 78 77 72
-20.7319 20.7872 68.5131 -0.206 -0.202 -0.957 78 77 72
-20.5820 20.7674 68.5125 -0.256 -0.291 -0.922 77 76 71
-19.7636 20.7326 68.6498 -0.266 -0.636 -0.725 63 59 56
-19.3748 20.6099 68.5103 -0.430 -0.579 -0.692 63 59 56
-18.9082 20.5607 68.5320 -0.502 -0.515 -0.695 61 60 56
-18.8130 20.4874 68.4144 -0.361 -0.072 -0.930 61 60 56
-18.7035 20.4277 68.3267 -0.304 -0.647 -0.699 66 65 61
-18.1826 20.2671 68.1471 -0.370 -0.352 -0.860 90 85 81
-18.0380 20.2402 68.1312 -0.205 -0.469 -0.859 106 101 97
-17.2560 20.1554 68.1631 -0.513 -0.029 -0.858 95 90 86
-16.1033 19.7748 67.7171 -0.338 -0.238 -0.910 77 78 72
-15.2405 19.6004 67.5962 -0.280 -0.451 -0.847 113 113 105
-15.1610 19.5187 67.4586 -0.364 -0.367 -0.856 119 118 113
-14.9121 19.5745 67.6284 -0.120 -0.690 -0.713 121 120 115
-14.8171 19.5055 67.5191 -0.256 -0.348 -0.902 92 91 89
-14.6862 19.4657 67.4748 -0.302 -0.327 -0.895 77 76 74
-14.5525 19.4280 67.4356 -0.504 -0.377 -0.777 89 88 84
-14.3280 19.3188 67.2810 -0.769 -0.266 -0.582 73 71 72
-14.0884 19.3645 67.4290 -0.080 -0.311 -0.947 73 72 70
-12.9299 18.9897 66.9955 -0.134 -0.178 -0.975 71 69 57
-11.5150 18.8022 66.9876 -0.365 -0.330 -0.870 50 40 38
-11.1762 18.7762 67.0221 -0.004 -0.106 -0.994 51 40 39
-10.9265 18.4223 66.4017 -0.431 -0.506 -0.747 55 43 43
-10.0635 18.2373 66.2607 -0.097 -0.714 -0.694 78 64 55
-8.6746 18.1432 66.4262 -0.064 -0.232 -0.971 97 85 73
-8.6902 17.8819 65.9182 -0.297 -0.148 -0.943 99 85 74
-8.5563 17.8440 65.8785 -0.285 -0.163 -0.944 96 78 68
-6.0174 17.5964 66.0355 -0.484 -0.056 -0.873 84 80 51
-5.7844 17.4971 65.9021 -0.246 -0.669 -0.701 79 78 47
-5.6088 17.4827 65.9184 -0.034 -0.558 -0.829 59 58 28
-3.0821 17.0691 65.7520 -0.459 -0.387 -0.800 77 72 52
-2.9844 17.0091 65.6606 -0.632 -0.364 -0.685 77 72 52
-2.7634 16.9036 65.5123 -0.457 -0.139 -0.878 85 76 59
2.9106 16.7310 66.5976 -0.228 0.259 -0.939 90 77 68
3.0781 16.7039 66.5872 0.267 -0.149 -0.952 91 77 68
4.0282 15.9854 65.4385 -0.205 0.168 -0.964 83 66 59
9.7694 15.4389 65.8194 -0.271 -0.873 -0.407 101 87 76
10.3983 15.4974 66.0894 0.207 -0.561 -0.802 103 89 78
11.6637 15.6107 66.6243 -0.153 0.179 -0.972 100 88 76
16.1791 14.9941 66.5634 0.023 -0.201 -0.979 103 95 76
18.1234 14.9286 66.9230 -0.279 -0.477 -0.833 85 79 63
-54.1135 34.0410 85.3959 -0.981 0.053 -0.186 63 71 63
-53.8219 38.3811 93.8062 -0.705 -0.697 0.133 60 69 66
-53.4743 37.8182 92.8108 -0.712 -0.690 0.130 57 63 63
-52.6429 36.6629 90.7973 -0.505 -0.511 -0.696 66 75 73
-47.8983 34.1496 87.1441 -0.166 -0.079 -0.983 58 70 50
-47.7464 34.1141 87.1135 -0.189 -0.091 -0.978 55 66 51
-47.6010 33.9873 86.9058 -0.274 0.070 -0.959 57 65 53
-47.4571 33.8486 86.6750 -0.491 0.200 -0.848 56 64 51
-47.1570 33.7440 86.5483 -0.772 -0.078 -0.631 54 62 47
-44.9812 32.4813 84.6615 -0.608 -0.133 -0.783 43 56 41
-42.6429 31.6144 83.5753 0.650 0.081 -0.756 162 169 151
-42.4763 31.6656 83.7149 0.646 0.064 -0.761 160 167 151
-41.4928 30.4615 81.6452 -0.438 0.350 -0.828 144 149 126
-41.3381 30.4616 81.6838 -0.963 -0.042 -0.266 140 145 122
-40.3486 29.4915 80.0652 -0.509 -0.534 -0.675 75 72 63
-39.8696 29.0048 79.2486 -0.433 0.360 -0.826 55 51 48
-37.7892 28.2787 78.3690 -0.531 0.156 -0.833 160 178 182
-36.7099 27.8285 77.7714 -0.447 0.412 -0.794 158 177 181
-36.5901 27.7341 77.6198 -0.462 0.409 -0.787 158 178 179
-36.4637 27.6582 77.5052 -0.537 0.395 -0.745 157 176 180
-36.0919 27.4163 77.1327 -0.465 0.335 -0.820 161 178 185
-35.9643 27.3466 77.0303 -0.389 0.332 -0.859 160 177 184
-35.8368 27.2773 76.9287 -0.375 0.332 -0.865 159 176 183
-31.1341 25.2906 74.2769 -0.546 0.087 -0.833 165 182 189
-31.0064 25.2350 74.2017 -0.561 0.072 -0.825 165 182 189
-30.8883 25.1631 74.0928 -0.672 -0.046 -0.739 163 180 187
-30.7543 25.1190 74.0412 -0.586 0.072 -0.807 157 174 181
-30.6361 25.0480 73.9342 -0.586 0.067 -0.808 158 175 182
-30.5226 24.9694 73.8113 -0.617 -0.270 -0.739 158 175 182
-30.3987 24.9091 73.7262 -0.661 -0.252 -0.706 159 176 183
-30.2686 24.8594 73.6629 -0.652 -0.250 -0.716 160 177 184
-25.0640 22.5744 70.5621 -0.475 -0.443 -0.760 152 169 176
-20.8416 20.9571 68.5009 -0.206 -0.202 -0.957 60 59 54
-20.7023 20.9268 68.4772 -0.206 -0.202 -0.957 60 59 54
-20.5768 20.8824 68.4231 -0.185 -0.284 -0.941 60 59 54
-18.9132 20.6676 68.4223 -0.518 -0.443 -0.732 56 55 51
-18.7757 20.6340 68.3919 -0.618 -0.422 -0.663 56 55 51
-18.6788 20.5625 68.2785 -0.453 -0.672 -0.586 56 55 51
-18.2943 20.4361 68.1310 -0.276 -0.507 -0.817 72 71 67
-18.1552 20.4041 68.1040 -0.276 -0.507 -0.817 84 79 75
-18.0070 20.3804 68.0951 -0.188 -0.439 -0.879 105 100 96
-15.3468 19.7746 67.5901 -0.341 -0.395 -0.853 106 106 98
-14.4779 19.6022 67.4741 -0.623 -0.473 -0.624 89 88 84
-14.2667 19.4819 67.2953 -0.051 -0.350 -0.935 70 68 69
-14.0741 19.4906 67.3598 -0.101 -0.347 -0.932 70 69 67
-11.1517 18.9107 66.9695 0.053 -0.060 -0.997 68 58 50
-11.1815 18.6227 66.4089 -0.429 -0.536 -0.727 51 40 34
-11.0523 18.5818 66.3624 -0.438 -0.543 -0.716 54 44 37
-10.9218 18.5419 66.3180 -0.431 -0.506 -0.747 59 49 41
-10.4375 18.7491 66.8361 -0.812 -0.126 -0.569 67 54 46
-10.0071 18.3926 66.2578 0.085 -0.415 -0.906 81 67 58
-8.7653 18.3286 66.4424 -0.117 -0.146 -0.982 125 113 101
-8.6077 18.3054 66.4368 -0.112 -0.177 -0.978 127 115 103
-8.4547 18.2790 66.4240 -0.112 -0.177 -0.978 122 110 98
-8.3195 18.2409 66.3844 -0.628 -0.298 -0.719 116 102 91
-7.6862 18.0234 66.1233 -0.114 -0.070 -0.991 84 64 57
-7.5358 17.9951 66.1062 0.113 -0.181 -0.977 90 70 61
-7.3671 17.9782 66.1156 0.087 -0.198 -0.976 83 63 52
-6.3303 17.8884 66.1998 -0.033 -0.077 -0.996 84 68 52
-5.8729 17.6833 65.9190 -0.377 0.005 -0.926 70 69 38
-5.5942 17.6113 65.8497 -0.365 0.060 -0.929 59 58 28
-5.4147 17.5992 65.8711 0.055 -0.414 -0.909 54 54 21
-2.9224 17.1649 65.6541 -0.566 -0.312 -0.763 69 64 44
-2.7236 17.0468 65.4764 -0.453 -0.125 -0.883 79 70 53
1.5547 17.0618 66.5649 0.227 -0.779 -0.585 83 71 59
10.0279 15.5761 65.8094 -0.161 -0.355 -0.921 105 91 80
10.1882 15.5424 65.7844 -0.156 -0.365 -0.918 106 92 81
14.2882 15.4882 66.6957 -0.295 -0.144 -0.945 111 98 81
18.1232 15.0657 66.8339 -0.267 -0.476 -0.838 86 80 64
-52.6243 36.8675 90.8287 -0.133 0.392 -0.910 67 76 74
-52.4675 36.7925 90.7238 -0.197 0.382 -0.903 70 82 73
-47.8761 34.3254 87.1307 -0.184 -0.086 -0.979 63 73 50
-47.7258 34.2641 87.0503 -0.176 -0.083 -0.981 68 79 62
-47.5783 34.1675 86.9017 -0.293 0.041 -0.955 70 78 63
-47.4328 34.0475 86.7079 -0.491 0.200 -0.848 69 77 62
-47.2849 33.9657 86.5877 -0.702 0.043 -0.711 67 76 60
-47.1375 33.8817 86.4631 -0.779 0.006 -0.627 61 70 54
-46.5465 33.5882 86.0466 -0.288 -0.646 -0.707 52 57 54
-46.1340 33.1065 85.2263 -0.495 0.130 -0.859 50 57 50
-45.9805 33.1033 85.2579 -0.789 -0.067 -0.610 50 57 50
-45.8294 33.0779 85.2464 -0.819 -0.052 -0.571 45 55 46
-45.6881 32.9685 85.0718 -0.670 0.001 -0.743 45 55 46
-45.5436 32.8899 84.9570 -0.448 -0.037 -0.893 45 55 46
-45.3967 32.8316 84.8813 -0.463 -0.046 -0.885 50 60 51
-44.9543 32.6756 84.6916 -0.591 -0.130 -0.796 58 70 57
-44.8112 32.5934 84.5693 -0.784 -0.043 -0.619 57 70 52
-44.6672 32.5199 84.4641 -0.847 -0.115 -0.519 56 69 50
-42.6106 31.8205 83.6308 0.719 -0.205 -0.664 162 169 151
-42.4385 31.8978 83.8209 0.579 -0.302 -0.758 160 167 149
-41.4542 30.6840 81.7404 -0.424 0.338 -0.840 144 149 126
-40.1084 29.3139 79.4493 -0.633 -0.023 -0.773 53 48 42
-39.9962 29.1671 79.1962 -0.599 -0.019 -0.801 54 49 45
-39.8801 29.0372 78.9760 0.099 -0.481 -0.871 52 48 45
-39.7297 29.0292 78.9976 0.099 -0.481 -0.871 50 46 43
-39.4499 28.9396 78.8950 -0.223 -0.282 -0.933 49 45 42
-37.9015 28.4837 78.4028 -0.507 0.166 -0.846 146 161 168
-37.6254 28.3859 78.2835 -0.517 0.129 -0.846 164 181 188
-37.2718 28.0719 77.7696 -0.787 -0.373 -0.491 160 177 184
-36.7745 27.7423 77.2610 -0.692 -0.600 -0.402 160 179 183
-36.5372 27.1556 76.1968 -0.672 -0.507 -0.541 163 182 186
-35.8879 26.8616 75.7937 -0.488 -0.702 -0.519 170 187 194
-35.7465 26.8317 75.7711 -0.499 -0.715 -0.490 170 187 194
-31.0416 25.8398 75.0283 -0.855 -0.149 -0.497 169 186 193
-30.4425 25.2066 73.9639 -0.720 -0.671 -0.176 170 187 194
-30.3399 25.1094 73.8032 -0.709 -0.682 -0.179 170 187 194
-30.2240 25.0354 73.6900 -0.469 -0.860 -0.203 170 187 194
-28.8935 24.8430 73.6484 -0.061 0.222 -0.973 170 188 192
-27.3796 24.4192 73.2093 -0.229 0.717 -0.659 169 186 193
-26.6963 23.3167 71.2678 -0.799 -0.492 -0.345 167 186 192
-25.0772 22.2592 69.6420 -0.569 -0.402 -0.717 165 182 189
-23.8361 21.9819 69.4160 -0.213 -0.438 -0.873 109 118 115
-23.1335 22.0286 69.6779 -0.149 -0.239 -0.960 105 108 101
-22.9782 21.6419 68.9762 -0.495 -0.155 -0.855 102 105 98
-20.8514 21.0567 68.3786 -0.541 -0.524 -0.658 45 44 39
-18.9054 20.7865 68.3393 -0.467 -0.258 -0.846 50 49 45
-18.7592 20.7612 68.3267 -0.540 -0.342 -0.769 51 50 46
-18.6834 20.6697 68.1703 -0.464 -0.665 -0.586 59 58 54
-18.2896 20.5522 68.0422 -0.262 -0.509 -0.820 59 58 54
-15.9190 20.0072 67.5813 -0.477 -0.302 -0.825 85 84 78
-15.7933 19.9630 67.5277 -0.422 -0.365 -0.830 85 85 77
-15.3469 19.8884 67.4945 -0.410 -0.544 -0.732 90 90 82
-14.2597 19.6020 67.2134 -0.085 -0.381 -0.921 74 73 71
-14.0595 19.6170 67.2912 -0.139 -0.369 -0.919 74 73 71
-11.6849 19.0472 66.7839 -0.255 -0.456 -0.853 68 60 49
-11.5398 19.0173 66.7624 -0.263 -0.387 -0.884 73 65 53
-10.3488 18.9286 66.8850 -0.513 -0.823 -0.245 79 67 55
-10.3924 18.6344 66.3113 -0.296 -0.444 -0.846 90 76 67
-9.9118 18.5747 66.3152 -0.011 -0.308 -0.951 81 67 58
-9.7457 18.5586 66.3251 -0.015 -0.270 -0.963 87 73 64
-9.6241 18.5120 66.2659 0.087 -0.256 -0.963 94 80 71
-9.3458 18.5714 66.4478 -0.509 -0.371 -0.777 94 82 70
-8.7241 18.4740 66.4140 -0.128 -0.238 -0.963 117 105 93
-8.5711 18.4478 66.4014 -0.117 -0.276 -0.954 104 92 80
-8.3911 18.4391 66.4291 -0.189 -0.301 -0.935 89 77 65
-8.2944 18.3757 66.3314 -0.694 -0.341 -0.634 81 67 56
-8.0525 18.2811 66.2098 -0.375 -0.327 -0.868 87 67 58
-7.6494 18.1655 66.0875 -0.121 -0.041 -0.992 78 58 49
-7.5204 18.1235 66.0389 -0.087 -0.028 -0.996 85 65 56
-7.3584 18.1025 66.0385 -0.158 -0.017 -0.987 93 73 62
-7.2235 18.0643 65.9985 -0.199 0.023 -0.980 90 72 58
-7.0194 18.0695 66.0585 0.099 -0.112 -0.989 87 72 54
-6.0945 18.0312 66.2123 -0.811 -0.011 -0.585 79 67 46
-5.3696 17.7461 65.8448 0.078 -0.135 -0.988 44 43 10
-1.6729 17.0628 65.4449 -0.129 -0.609 -0.782 85 73 57
-1.3648 17.0038 65.4075 -0.045 -0.727 -0.686 85 76 61
4.2286 16.7561 66.3065 -0.330 -0.111 -0.938 84 65 58
4.3681 16.7151 66.2624 -0.330 -0.111 -0.938 82 65 57
11.5816 15.9429 66.5556 0.133 0.257 -0.957 97 85 73
11.8712 15.9600 66.6594 0.137 0.316 -0.939 102 90 78
12.1372 15.9671 66.7383 0.150 0.303 -0.941 105 93 81
14.0108 15.4182 66.1480 0.154 -0.571 -0.806 110 97 80
-52.6077 37.1227 90.9553 0.095 0.572 -0.815 67 76 73
-52.4527 37.1064 90.9620 0.095 0.572 -0.815 70 81 75
-51.2050 36.8892 90.8515 -0.814 0.088 -0.574 74 85 72
-50.8914 36.6373 90.4480 -0.710 0.063 -0.701 80 90 79
-50.7353 36.6517 90.5133 -0.676 -0.480 -0.559 74 84 73
-50.2679 36.4044 90.1559 -0.691 -0.592 -0.415 71 81 72
-50.1128 36.3074 90.0087 -0.626 -0.596 -0.502 71 81 72
-49.9573 36.2537 89.9443 -0.636 -0.591 -0.496 72 81 72
-47.8573 34.4497 87.0181 -0.137 -0.202 -0.970 60 73 48
-47.7050 34.4183 86.9951 -0.173 -0.209 -0.963 60 73 56
-47.5577 34.3176 86.8392 -0.191 -0.184 -0.964 60 72 55
-47.4050 34.2933 86.8301 -0.740 -0.114 -0.663 63 75 59
-47.2612 34.1561 86.6035 -0.681 0.108 -0.724 54 66 49
-47.1149 34.0556 86.4477 -0.708 0.069 -0.703 47 58 43
-46.2519 33.3993 85.4071 -0.509 0.125 -0.852 49 59 52
-46.1043 33.3399 85.3299 -0.488 0.119 -0.865 48 58 51
-45.9614 33.2403 85.1748 -0.633 0.154 -0.759 48 58 49
-45.8178 33.1494 85.0366 -0.633 0.154 -0.759 44 55 46
-45.6678 33.1154 85.0083 -0.632 0.042 -0.774 44 56 47
-45.5219 33.0479 84.9153 -0.498 -0.055 -0.866 44 55 46
-45.3724 33.0097 84.8788 -0.606 -0.150 -0.781 41 52 43
-45.2267 32.9425 84.7861 -0.594 -0.276 -0.756 46 59 48
-45.0840 32.8547 84.6536 -0.619 -0.338 -0.709 59 72 59
-44.9360 32.8075 84.5998 -0.783 -0.398 -0.478 62 75 60
-44.7930 32.7253 84.4778 -0.835 -0.352 -0.423 57 72 54
-44.6548 32.6119 84.2955 -0.854 -0.325 -0.407 58 74 53
-44.5180 32.4922 84.1006 -0.851 -0.339 -0.400 57 72 50
-43.2712 31.6472 82.7941 0.481 -0.409 -0.776 67 83 60
