ply
format ascii 1.0
element vertex 878
property float x
property float y
property float z
property float nx
property float ny
property float nz
property uchar diffuse_red
property uchar diffuse_green
property uchar diffuse_blue
end_header
40.4197 3.5040 84.5891 0.442 -0.043 -0.896 53 90 67
41.4980 3.4261 85.6131 0.701 -0.170 -0.692 57 97 73
-51.0536 20.8837 88.5194 -0.915 -0.037 -0.402 140 173 180
-48.2346 19.9319 84.8387 -0.135 -0.532 -0.836 246 255 253
-47.9190 20.1870 87.4801 -0.784 -0.365 -0.503 52 86 89
-47.6029 20.0834 87.0933 -0.784 -0.358 -0.507 50 81 84
-40.1601 17.8657 79.8676 -0.241 0.005 -0.971 95 130 150
-36.4380 17.0157 78.4409 0.142 -0.307 -0.941 64 85 90
-35.7234 16.8460 78.1121 -0.089 -0.479 -0.873 63 84 85
-33.9251 16.3384 76.6045 -0.055 -0.562 -0.825 68 90 91
-33.6182 16.2813 76.5965 -0.120 -0.604 -0.788 61 83 86
-33.1260 16.1752 76.4618 -0.242 -0.339 -0.909 76 93 101
-32.9659 16.1423 76.4314 -0.242 -0.339 -0.909 67 84 93
-31.2192 15.7126 75.5017 -0.429 0.330 -0.841 55 69 96
-30.8667 15.6227 75.2869 -0.528 0.305 -0.793 58 72 98
-30.7037 15.5866 75.2338 -0.444 -0.276 -0.853 32 46 70
-30.5638 15.5663 75.2789 -0.127 -0.693 -0.709 29 44 65
-30.4164 15.5409 75.2921 -0.053 -0.764 -0.644 41 56 77
-30.2443 15.4983 75.1984 -0.316 -0.749 -0.582 67 82 103
-30.0644 15.4501 75.0693 -0.467 -0.611 -0.639 72 88 109
-29.8853 15.4023 74.9420 -0.655 -0.421 -0.628 30 47 68
-29.7484 15.3841 75.0004 -0.422 -0.810 -0.408 19 34 56
-28.6834 15.1816 74.9361 -0.440 -0.720 -0.536 169 201 219
-28.8936 15.5092 77.3763 -0.520 -0.326 -0.789 169 205 221
-28.5695 15.4412 77.3027 0.297 0.094 -0.950 171 207 223
-23.5924 14.2709 75.1113 0.196 -0.820 -0.537 72 80 82
-20.4217 13.4009 72.6644 0.126 -0.240 -0.963 65 66 68
-16.5840 12.6984 72.6610 -0.514 -0.434 -0.740 197 209 207
-16.4237 12.6489 72.4910 -0.343 -0.329 -0.880 170 179 178
-16.2760 12.6216 72.4889 -0.263 -0.480 -0.837 155 164 163
-16.1232 12.5847 72.4137 -0.357 -0.383 -0.852 89 98 97
-15.9722 12.5510 72.3622 -0.392 -0.231 -0.891 122 131 130
-14.4838 12.2474 72.0984 -0.256 -0.769 -0.585 99 104 108
-14.3370 12.2215 72.1063 -0.271 -0.757 -0.595 99 103 106
-13.8871 12.1165 71.9150 -0.100 -0.468 -0.878 93 94 98
-13.7400 12.0893 71.9119 -0.063 -0.469 -0.881 79 80 82
-13.5927 12.0612 71.9025 -0.104 -0.463 -0.880 70 71 73
-13.4439 12.0281 71.8529 -0.319 -0.281 -0.905 61 62 66
-13.2951 11.9948 71.8012 -0.258 -0.177 -0.950 60 64 67
-13.1469 11.9629 71.7608 -0.284 -0.161 -0.945 70 75 78
-12.9984 11.9294 71.7079 -0.352 -0.199 -0.915 82 87 90
-6.4073 10.6455 71.0496 -0.542 -0.774 -0.328 92 94 78
-5.8465 10.4880 70.5862 -0.436 -0.860 -0.264 62 78 88
-5.4107 10.4053 70.5615 0.209 -0.840 -0.500 57 84 67
-5.2668 10.3754 70.5316 0.305 -0.750 -0.588 73 78 80
-5.1161 10.3571 70.6093 0.320 -0.741 -0.590 65 68 72
-4.9621 10.3436 70.7338 0.342 -0.743 -0.575 66 68 72
-4.8100 10.3264 70.8235 0.312 -0.705 -0.637 63 57 68
-3.9360 10.1601 70.7693 -0.269 -0.352 -0.897 84 91 97
-3.7921 10.1301 70.7380 -0.269 -0.352 -0.897 89 96 102
-3.6535 10.0935 70.6432 0.231 -0.231 -0.945 87 94 100
-3.5059 10.0685 70.6604 -0.201 -0.354 -0.913 68 75 81
-3.0853 9.9673 70.4561 0.207 0.337 -0.919 89 96 101
-1.5393 9.6185 69.8987 0.207 -0.690 -0.693 92 102 104
-0.7960 9.5001 70.0476 0.494 -0.756 -0.429 89 97 100
-0.6256 9.4937 70.2573 0.497 -0.754 -0.430 90 98 100
-0.2836 9.4797 70.6672 0.415 -0.757 -0.504 99 108 107
-0.1324 9.4564 70.7040 0.357 -0.834 -0.421 102 111 110
1.8455 9.0318 70.1747 -0.121 -0.625 -0.772 77 85 87
2.0307 9.0286 70.4337 0.218 -0.585 -0.781 82 87 91
2.1524 8.9870 70.2705 -0.215 -0.478 -0.851 84 89 93
2.2914 8.9560 70.2235 -0.226 -0.492 -0.841 78 83 87
3.7009 8.7622 70.7644 0.172 -0.504 -0.846 87 96 95
5.3829 8.4912 71.0749 0.517 -0.726 -0.453 102 111 110
8.2670 7.8424 70.0524 0.117 0.014 -0.993 110 122 120
9.2409 7.7839 71.0627 0.350 -0.290 -0.891 123 135 135
10.0546 7.6686 71.3458 -0.104 -0.182 -0.978 100 109 108
12.4256 7.2902 71.8140 0.257 -0.812 -0.525 83 97 97
12.6511 7.2812 72.0867 0.168 -0.846 -0.507 85 99 99
14.4541 6.9469 72.0488 -0.592 -0.120 -0.797 76 86 87
14.4886 6.8942 71.6577 -0.485 -0.393 -0.781 64 74 75
16.8655 6.5569 72.4813 0.494 0.150 -0.856 99 109 111
17.4541 6.4964 72.8801 -0.642 -0.537 -0.548 108 117 122
19.7985 6.2377 74.3175 0.585 -0.571 -0.576 105 115 114
22.6107 5.7716 74.7259 -0.059 -0.414 -0.908 113 131 133
23.5759 5.6973 75.5894 -0.087 -0.893 -0.442 115 133 135
24.1674 5.6235 75.8801 0.056 -0.833 -0.550 114 130 129
24.5446 5.5718 76.0262 0.168 -0.851 -0.498 101 117 116
27.1424 5.1967 76.8722 0.120 -0.749 -0.652 67 78 80
28.2373 5.2558 79.0623 0.687 -0.499 -0.529 62 76 77
30.7209 4.8438 79.4207 0.244 -0.787 -0.567 65 81 80
31.4106 4.7667 79.8352 0.463 0.339 -0.819 68 84 83
32.3953 4.7099 80.8769 0.575 -0.522 -0.630 57 73 70
31.0005 4.5663 77.5101 0.369 -0.615 -0.697 50 66 63
34.4044 4.2946 80.4736 0.232 -0.238 -0.943 54 71 78
38.6072 3.9089 83.7092 0.452 -0.655 -0.605 69 99 79
39.1005 3.8512 83.9841 0.337 -0.513 -0.790 72 102 80
39.3402 3.8218 84.1068 0.273 -0.523 -0.808 54 84 64
39.5513 3.7911 84.1735 0.230 -0.412 -0.882 91 121 99
39.8033 3.7621 84.3181 0.243 -0.426 -0.872 90 119 95
39.9905 3.7303 84.3380 0.376 -0.496 -0.783 57 89 63
40.2308 3.7006 84.4585 0.441 -0.277 -0.853 57 90 64
40.4714 3.6708 84.5789 0.437 -0.280 -0.855 86 119 93
40.6978 3.6403 84.6714 0.429 -0.212 -0.878 81 114 88
41.0114 3.6132 84.9271 0.502 -0.339 -0.796 72 107 80
41.4086 3.5891 85.3372 0.620 -0.313 -0.719 87 122 93
-50.8958 20.9885 88.1502 -0.915 -0.037 -0.402 141 174 181
-48.2055 20.0917 84.7845 -0.253 -0.419 -0.872 244 255 253
-48.1906 20.4480 87.7697 -0.766 -0.353 -0.538 46 84 85
-47.8758 20.3447 87.3895 -0.766 -0.353 -0.538 44 78 82
-42.7387 18.6337 80.9752 -0.037 0.080 -0.996 130 167 186
-42.4385 18.5849 81.0262 0.023 0.028 -0.999 118 155 173
-41.0586 18.2372 80.2335 -0.491 -0.277 -0.826 105 144 162
-39.5233 17.8548 79.3889 -0.345 0.086 -0.934 172 210 223
-32.5069 16.1492 75.8773 -0.330 0.299 -0.895 66 85 102
-32.3292 16.1042 75.7733 -0.266 0.342 -0.901 64 83 101
-32.1916 16.0855 75.8272 -0.057 0.323 -0.945 63 83 101
-30.6765 15.7306 75.1796 -0.420 -0.253 -0.872 116 136 154
-30.5172 15.6968 75.1413 -0.067 -0.603 -0.795 113 133 153
-30.3657 15.6685 75.1365 -0.053 -0.764 -0.644 114 134 155
-30.1912 15.6240 75.0315 -0.334 -0.700 -0.631 137 160 179
-30.0191 15.5810 74.9357 -0.483 -0.591 -0.646 154 178 193
-29.8465 15.5374 74.8361 -0.633 -0.400 -0.662 119 144 160
-29.5230 15.4655 74.7299 -0.541 -0.611 -0.578 83 110 128
-28.8700 15.6600 77.3401 -0.454 -0.261 -0.852 172 205 220
-28.5517 15.5964 77.2950 0.306 0.098 -0.947 173 208 224
-24.0980 14.4583 74.6055 0.194 -0.560 -0.805 73 81 83
-20.4143 13.5632 72.7642 0.104 -0.179 -0.978 65 66 68
-20.2743 13.5453 72.8282 0.119 -0.174 -0.978 54 56 57
-20.1277 13.5196 72.8375 0.134 -0.185 -0.974 73 78 78
-19.8375 13.4722 72.8851 0.271 0.201 -0.941 105 115 116
-16.8644 12.9107 72.7378 -0.592 -0.447 -0.670 83 96 97
-16.3978 12.7882 72.4287 -0.343 -0.329 -0.880 22 29 28
-15.7981 12.6616 72.2876 -0.448 -0.375 -0.812 110 116 116
-14.7505 12.4351 71.9981 0.332 0.476 -0.814 72 77 80
-14.6026 12.4061 71.9816 0.294 0.416 -0.861 67 72 75
-14.4531 12.3728 71.9318 -0.356 -0.464 -0.812 76 81 84
-14.3052 12.3433 71.9118 -0.311 -0.732 -0.607 61 65 68
-13.5662 12.1960 71.8104 -0.151 -0.565 -0.811 47 48 52
-13.4188 12.1671 71.7942 -0.269 -0.316 -0.910 45 49 52
-13.2703 12.1346 71.7500 -0.244 -0.230 -0.942 64 68 71
-13.1226 12.1044 71.7234 -0.280 -0.182 -0.943 80 84 87
-12.9740 12.0705 71.6679 -0.352 -0.199 -0.915 80 84 87
-12.8246 12.0325 71.5785 -0.707 -0.112 -0.698 81 85 88
-7.4335 10.8892 70.2714 -0.549 -0.654 -0.521 90 110 111
-4.9439 10.4728 70.5946 0.109 -0.882 -0.458 50 58 67
-4.7959 10.4495 70.6257 0.053 -0.856 -0.514 54 47 65
-4.6500 10.4226 70.6240 0.047 -0.843 -0.536 76 71 93
-0.6016 9.6324 70.2101 0.423 -0.732 -0.534 98 107 107
-0.4379 9.6201 70.3573 0.403 -0.751 -0.523 99 108 107
1.5841 9.2284 70.1747 -0.515 -0.704 -0.489 67 72 76
3.7266 8.9029 70.7268 -0.474 -0.519 -0.711 87 97 96
9.1067 7.9487 70.9746 0.294 -0.291 -0.910 127 137 136
9.6327 7.8924 71.3060 0.366 -0.135 -0.921 128 137 136
9.7684 7.8608 71.2500 -0.099 -0.234 -0.967 123 132 131
13.6726 7.2796 72.3544 -0.630 -0.231 -0.741 86 97 99
14.0844 7.1863 72.2048 -0.345 -0.005 -0.939 72 82 83
14.2438 7.1603 72.2315 -0.280 0.116 -0.953 76 86 87
17.5002 6.6448 72.8968 -0.444 0.228 -0.867 101 110 115
19.9282 6.3482 74.1230 -0.523 0.032 -0.852 112 122 123
22.7084 5.8798 74.4564 -0.287 -0.125 -0.950 104 123 127
23.7691 5.8188 75.5624 -0.284 -0.785 -0.550 111 128 129
24.1434 5.7675 75.7048 0.047 -0.843 -0.536 106 121 118
27.1105 5.4349 77.4520 -0.870 -0.470 -0.151 67 77 78
32.2675 4.9011 80.8560 0.486 -0.581 -0.653 57 73 72
35.2508 4.3794 81.0546 -0.287 -0.235 -0.929 57 78 79
35.4306 4.3488 81.0738 -0.289 -0.233 -0.928 39 63 63
38.5522 4.0689 83.4937 0.454 -0.659 -0.600 96 125 108
38.8279 4.0419 83.6885 0.425 -0.675 -0.603 90 117 96
39.0889 4.0140 83.8533 0.338 -0.504 -0.795 100 128 109
39.3005 3.9836 83.9220 0.053 -0.653 -0.756 92 121 101
39.5511 3.9549 84.0650 0.273 -0.443 -0.854 90 118 96
39.7999 3.9261 84.2032 0.309 -0.464 -0.830 97 125 101
40.0122 3.8954 84.2713 0.366 -0.506 -0.781 112 141 114
40.2705 3.8668 84.4258 0.417 -0.422 -0.805 69 99 71
41.4845 3.7584 85.3707 0.219 -0.841 -0.495 110 141 110
-50.7390 21.0926 87.7834 -0.915 -0.037 -0.402 143 175 182
-48.1206 20.5927 87.6092 -0.745 -0.392 -0.539 45 81 81
-40.8327 18.3388 80.0607 -0.399 -0.232 -0.887 48 85 103
-40.6331 18.2868 79.9343 -0.358 -0.206 -0.911 70 107 126
-40.4622 18.2507 79.8938 -0.289 -0.115 -0.950 151 190 209
-40.2874 18.2122 79.8409 -0.389 -0.220 -0.894 144 183 201
-40.0966 18.1649 79.7385 -0.139 -0.288 -0.947 170 207 221
-39.9430 18.1381 79.7496 -0.404 -0.245 -0.881 177 211 223
-39.7404 18.0840 79.6094 -0.450 -0.267 -0.852 175 208 218
-39.5380 18.0297 79.4683 -0.349 0.106 -0.931 183 213 222
-37.2700 17.5222 78.7073 -0.567 -0.002 -0.824 70 86 99
-34.3110 16.7727 76.9989 -0.660 -0.252 -0.708 66 86 91
-34.1354 16.7304 76.9156 -0.566 -0.478 -0.672 67 90 96
-32.5091 16.3140 75.9398 -0.268 0.427 -0.864 90 114 136
-32.3399 16.2745 75.8699 -0.258 0.345 -0.902 96 120 144
-32.1971 16.2526 75.9046 -0.061 0.335 -0.940 103 127 150
-32.0622 16.2361 75.9714 -0.043 0.438 -0.898 125 149 172
-29.3306 15.9113 77.4013 0.547 0.307 -0.779 209 243 250
-28.8413 15.8070 77.2798 -0.454 -0.261 -0.852 197 233 245
-28.7039 15.7919 77.3619 -0.204 0.173 -0.964 197 230 241
-28.5485 15.7631 77.3584 0.297 0.110 -0.948 192 226 238
-25.3740 14.6020 72.6019 -0.484 -0.213 -0.849 154 182 191
-25.2136 14.5632 72.5242 -0.485 -0.217 -0.847 36 52 54
-24.9471 14.5332 72.6773 -0.273 -0.499 -0.822 70 80 82
-16.3722 12.9281 72.3712 -0.251 -0.712 -0.655 113 115 117
-15.3176 12.6919 72.0157 0.082 0.493 -0.866 52 57 60
-15.1690 12.6615 71.9892 0.076 0.536 -0.841 54 59 62
-15.0263 12.6448 72.0659 0.334 0.398 -0.854 55 60 63
-14.8820 12.6250 72.1194 0.322 0.368 -0.872 40 45 48
-14.7386 12.6078 72.1938 0.278 0.420 -0.864 37 42 45
-14.5868 12.5698 72.1094 0.215 0.362 -0.907 49 54 57
-14.4311 12.5205 71.9389 -0.365 -0.188 -0.912 58 63 66
-14.2797 12.4817 71.8481 -0.360 -0.535 -0.765 45 49 52
-14.1321 12.4529 71.8330 -0.399 -0.505 -0.765 55 59 62
-13.8351 12.3898 71.7606 -0.207 -0.330 -0.921 80 84 87
-13.6871 12.3591 71.7313 -0.110 -0.547 -0.830 90 94 97
-13.5400 12.3313 71.7239 -0.144 -0.573 -0.807 91 95 98
-13.3934 12.3050 71.7280 -0.280 -0.302 -0.911 92 96 99
-13.2459 12.2758 71.7093 -0.244 -0.230 -0.942 94 98 101
-13.0983 12.2460 71.6862 -0.279 -0.219 -0.935 93 97 100
-12.9448 12.1922 71.4757 -0.299 -0.734 -0.610 93 97 100
-12.8012 12.1774 71.5691 -0.254 -0.777 -0.576 94 98 101
-12.6480 12.1211 71.3378 -0.494 -0.210 -0.844 87 88 92
-5.8205 10.7202 70.0868 -0.339 -0.216 -0.916 45 210 226
-5.3778 10.6546 70.2123 0.298 -0.479 -0.826 54 209 208
-4.1932 10.4733 70.5014 0.158 -0.740 -0.654 77 75 92
-3.7390 10.4150 70.7039 -0.311 0.031 -0.950 65 72 78
-3.3364 10.2889 70.2745 -0.862 -0.187 -0.471 79 86 92
-2.7426 10.1947 70.3914 0.458 0.080 -0.885 79 86 92
-3.4304 9.2415 61.5537 -0.232 -0.272 -0.934 86 93 99
-2.3301 10.0873 70.1297 0.540 -0.729 -0.420 90 97 103
-2.2260 10.0176 69.7143 -0.608 0.035 -0.793 96 103 109
-2.0937 9.9782 69.5903 -0.621 0.014 -0.784 103 110 116
-2.0116 9.8893 68.9847 -0.543 -0.159 -0.825 110 118 122
-1.0979 9.7776 69.4384 0.050 -0.496 -0.867 100 108 110
-0.4117 9.7609 70.3287 -0.257 0.070 -0.964 107 113 113
-0.2733 9.7278 70.2651 -0.051 0.093 -0.994 106 112 112
0.0137 9.6702 70.2233 -0.634 0.173 -0.754 104 110 110
0.1511 9.6368 70.1553 -0.648 0.209 -0.733 98 104 104
2.5923 9.1569 69.8802 0.259 -0.418 -0.871 90 95 99
2.7470 9.1354 69.9354 0.272 -0.394 -0.878 94 100 103
2.9013 9.1135 69.9869 0.398 -0.392 -0.830 91 100 102
3.0615 9.0946 70.0725 0.398 -0.392 -0.830 92 100 102
3.5572 9.0449 70.4077 0.455 -0.334 -0.826 89 97 99
8.0567 8.1868 70.1170 0.143 -0.416 -0.898 106 112 105
9.1359 8.0911 70.9490 0.278 -0.235 -0.932 120 130 129
9.7963 8.0032 71.2179 -0.133 -0.163 -0.978 121 127 125
14.0832 7.3234 72.0691 -0.333 -0.238 -0.912 76 86 87
20.1697 6.4762 74.2445 -0.327 -0.182 -0.927 95 107 109
19.6288 6.3372 72.2957 -0.366 -0.304 -0.879 97 112 112
22.7717 6.0325 74.5066 -0.336 0.408 -0.849 98 117 123
25.0154 5.8259 76.1743 -0.463 -0.699 -0.545 94 106 106
29.1540 5.3728 78.6607 -0.224 -0.804 -0.551 63 78 81
31.5015 5.0843 79.8127 0.578 -0.657 -0.484 73 89 88
32.0432 5.0398 80.2594 0.545 -0.661 -0.516 54 70 70
35.1747 4.5746 81.1383 0.369 -0.010 -0.930 37 56 60
35.2620 4.5380 80.9695 -0.308 -0.373 -0.875 42 63 64
35.6482 4.4786 81.0613 -0.323 -0.348 -0.880 36 59 62
37.6548 4.3063 82.6551 0.452 -0.471 -0.757 58 96 86
38.7469 4.2005 83.4235 0.429 -0.683 -0.591 62 91 71
39.9844 4.0581 84.1104 0.390 -0.568 -0.724 60 89 61
41.2950 3.9160 84.9088 0.171 -0.840 -0.515 97 130 99
-50.6091 21.2087 87.4823 -0.915 -0.033 -0.402 146 178 186
-40.7829 18.4789 79.9425 -0.419 -0.142 -0.897 102 141 154
-40.5681 18.4182 79.7701 -0.208 -0.179 -0.961 137 177 190
-40.4254 18.3976 79.8143 -0.246 -0.142 -0.959 166 210 219
-40.2555 18.3618 79.7759 -0.246 -0.142 -0.959 150 192 201
-40.0688 18.3166 79.6861 -0.079 -0.023 -0.997 161 198 204
-39.9205 18.2929 79.7136 -0.406 -0.248 -0.879 179 210 214
-39.7251 18.2426 79.5958 -0.423 0.093 -0.901 184 213 214
-39.5384 18.1970 79.5035 -0.423 0.093 -0.901 182 209 209
-38.7297 18.0399 79.4278 -0.184 0.263 -0.947 49 67 73
-36.7406 17.5008 78.0111 -0.131 -0.134 -0.982 73 92 101
-35.2124 17.1618 77.5290 -0.267 -0.784 -0.561 69 88 94
-35.0425 17.1237 77.4720 -0.256 -0.787 -0.562 68 87 93
-34.4701 16.9690 77.0677 -0.523 -0.484 -0.702 61 79 88
-34.2783 16.9165 76.9263 -0.563 -0.415 -0.715 64 84 97
-34.0734 16.8552 76.7341 -0.554 -0.356 -0.753 63 84 100
-33.8603 16.7884 76.5092 -0.047 0.175 -0.984 58 81 97
-33.0586 16.6232 76.3580 -0.095 0.420 -0.903 115 143 166
-32.6974 16.5297 76.1368 -0.277 0.431 -0.859 148 179 206
-32.0691 16.4048 76.0552 -0.019 0.441 -0.897 171 204 227
-30.4404 15.9686 74.9364 -0.075 -0.648 -0.758 162 199 216
-30.2678 15.9250 74.8393 -0.045 -0.780 -0.624 168 205 221
-29.9311 15.8435 74.6786 -0.472 -0.584 -0.661 170 207 223
-29.7653 15.8044 74.6076 -0.637 -0.389 -0.665 168 205 221
-29.4189 15.7150 74.3965 -0.561 -0.590 -0.580 168 209 225
-28.8127 15.9540 77.2195 -0.454 -0.261 -0.852 162 199 215
-28.6900 15.9506 77.3730 -0.216 0.169 -0.962 178 214 229
-19.7870 13.7553 72.7861 -0.259 0.061 -0.964 98 108 110
-17.1506 13.0940 71.3377 -0.239 0.101 -0.966 159 168 165
-17.0049 13.0672 71.3364 -0.245 -0.175 -0.954 124 133 132
-16.8590 13.0403 71.3342 -0.078 -0.267 -0.961 111 120 119
-16.3434 13.0620 72.2701 -0.145 -0.683 -0.716 54 53 58
-16.1940 13.0312 72.2415 -0.137 -0.682 -0.719 51 50 55
-15.5911 12.8955 72.0355 -0.318 -0.434 -0.843 44 45 49
-15.4438 12.8683 72.0333 -0.156 -0.375 -0.914 75 79 82
-15.3000 12.8490 72.0895 0.112 0.341 -0.933 77 82 85
-15.1546 12.8262 72.1206 0.123 0.329 -0.936 71 76 79
-15.0112 12.8088 72.1914 0.223 0.284 -0.933 67 72 75
-14.8629 12.7799 72.1768 0.285 0.169 -0.944 78 83 86
-14.7181 12.7597 72.2275 0.094 0.194 -0.976 80 85 88
-14.5591 12.7030 72.0043 -0.353 -0.103 -0.930 68 73 76
-14.4074 12.6640 71.9135 -0.367 -0.175 -0.913 53 58 61
-14.2596 12.6351 71.8979 -0.446 -0.263 -0.856 53 57 60
-14.1050 12.5865 71.7337 -0.401 -0.515 -0.757 69 73 76
-13.9547 12.5493 71.6550 -0.399 -0.503 -0.767 85 89 92
-12.4849 12.2719 71.5841 -0.340 -0.395 -0.854 73 74 78
-7.0812 11.1539 70.5309 0.270 0.431 -0.861 90 95 105
-6.9353 11.1279 70.5363 -0.410 0.329 -0.851 85 87 103
-6.3667 10.9872 70.2390 -0.471 -0.306 -0.827 50 202 193
-6.0845 10.9155 70.0773 -0.304 -0.327 -0.895 24 238 233
-5.9425 10.8825 70.0198 -0.235 -0.303 -0.924 18 248 250
-5.7968 10.8575 70.0326 -0.330 -0.031 -0.944 9 246 252
-5.3551 10.7903 70.1419 0.298 -0.479 -0.826 24 240 245
-4.3258 10.6226 70.3067 0.464 -0.613 -0.640 67 79 82
-4.1935 10.5763 70.1281 -0.240 -0.698 -0.674 63 79 71
-2.7145 10.3382 70.3878 0.418 0.106 -0.902 79 86 92
-2.5801 10.2983 70.2645 0.262 0.127 -0.957 85 92 98
-2.4305 10.2757 70.3025 0.262 0.127 -0.957 88 95 101
0.3090 9.7395 70.0156 -0.701 0.159 -0.695 108 114 114
1.8795 9.4236 69.7825 -0.760 -0.421 -0.495 110 113 118
2.0024 9.3826 69.6327 -0.517 -0.471 -0.714 103 106 111
2.6168 9.2957 69.8376 0.331 -0.341 -0.880 93 98 102
3.4138 9.1998 70.2391 0.452 -0.340 -0.824 90 95 98
3.6488 9.1147 69.8987 0.415 -0.452 -0.790 86 96 97
7.2811 8.4353 69.7729 -0.034 0.216 -0.976 106 111 104
9.1432 8.2260 70.8304 0.325 -0.222 -0.919 99 108 105
9.4875 8.1874 71.0267 0.188 -0.527 -0.829 100 109 106
9.9398 8.1075 71.0482 -0.460 -0.490 -0.741 101 107 105
11.8065 7.8017 71.3340 0.499 -0.508 -0.702 100 106 102
11.9403 7.7699 71.2743 -0.047 -0.706 -0.707 104 109 105
14.0781 7.4593 71.9204 0.272 -0.482 -0.833 89 99 100
15.6777 7.0816 71.2320 -0.341 -0.424 -0.839 75 85 84
20.0653 6.6563 74.2705 -0.128 -0.108 -0.986 95 105 106
20.2805 6.6374 74.4359 -0.044 -0.135 -0.990 89 102 103
20.4739 6.6148 74.5387 0.188 -0.139 -0.972 89 104 104
22.8838 6.1923 74.6828 0.233 -0.821 -0.521 117 138 143
23.2949 6.1478 74.9300 -0.770 -0.316 -0.554 112 131 135
23.4601 6.1199 74.9488 -0.747 -0.142 -0.649 106 124 126
24.5245 6.0103 75.6343 0.805 0.049 -0.591 109 124 121
30.1218 5.1190 76.6959 0.361 -0.053 -0.931 76 90 91
32.3443 5.1760 80.4344 0.120 -0.944 -0.307 47 61 64
35.0680 4.7252 80.8133 0.608 -0.390 -0.692 80 98 100
35.2599 4.6956 80.8576 0.103 -0.500 -0.860 71 89 91
35.4207 4.6639 80.8387 -0.314 -0.338 -0.887 56 76 77
35.6802 4.6387 81.0183 -0.331 -0.525 -0.784 42 62 65
36.9511 4.5087 81.8433 0.529 -0.019 -0.849 44 77 72
37.3858 4.4932 82.3594 0.636 -0.287 -0.716 46 82 74
37.7030 4.4702 82.6417 0.290 -0.531 -0.796 51 85 78
38.2937 4.4209 83.1148 0.356 -0.383 -0.852 54 87 75
39.1701 4.3030 83.4558 0.106 -0.642 -0.759 49 81 61
40.2038 4.1919 84.0838 0.423 -0.591 -0.688 66 96 68
40.4348 4.1623 84.1863 0.412 -0.620 -0.667 73 103 75
40.6949 4.1342 84.3427 0.160 -0.783 -0.602 4 33 5
41.2208 4.0777 84.6626 0.189 -0.789 -0.585 60 93 62
-41.3259 18.7717 80.1803 -0.095 -0.332 -0.939 142 180 189
-40.7839 18.6471 79.9765 -0.256 0.241 -0.936 152 195 202
-40.4194 18.5619 79.8280 -0.058 0.297 -0.953 144 188 194
-40.2533 18.5282 79.8018 -0.122 0.338 -0.933 154 195 201
-39.9060 18.4522 79.7021 -0.404 0.057 -0.913 195 224 225
-39.7141 18.4038 79.5953 -0.401 0.084 -0.912 151 176 175
-39.5450 18.3682 79.5579 -0.401 0.133 -0.906 94 117 115
-36.3694 17.5722 77.8411 -0.285 -0.134 -0.949 84 107 113
-34.9746 17.2461 77.2738 -0.541 -0.429 -0.723 64 81 97
-34.7745 17.1884 77.1057 -0.586 -0.320 -0.745 57 73 89
-34.6086 17.1525 77.0607 -0.633 -0.377 -0.677 64 81 95
-34.4231 17.1038 76.9431 -0.573 -0.296 -0.764 69 86 103
-34.2200 17.0436 76.7589 -0.546 -0.063 -0.835 70 90 113
-34.0175 16.9834 76.5750 -0.394 0.019 -0.919 63 84 109
-33.5284 16.8793 76.4573 0.057 0.357 -0.932 118 140 165
-33.1820 16.7960 76.2984 -0.296 0.312 -0.903 166 198 224
-31.6124 16.4856 76.1094 0.041 0.407 -0.913 166 205 222
-29.9347 15.9272 74.1053 -0.371 -0.491 -0.789 169 212 224
-29.7236 15.8542 73.8319 -0.684 0.092 -0.724 169 211 224
-29.5487 15.8075 73.7143 -0.751 -0.044 -0.659 167 209 221
-29.2907 16.2190 77.3630 -0.318 -0.251 -0.914 170 207 225
-29.1138 16.1736 77.2582 -0.400 -0.167 -0.901 170 208 226
-28.9558 16.1426 77.2416 -0.370 -0.199 -0.908 175 213 232
-28.7841 16.1009 77.1592 -0.454 -0.261 -0.852 168 205 224
-28.6810 16.1133 77.4077 -0.222 0.141 -0.965 161 198 217
-20.0344 13.6108 70.0661 -0.309 -0.227 -0.924 60 66 66
-19.7757 13.9150 72.8615 -0.163 0.076 -0.984 91 101 103
-19.6246 13.8839 72.8340 -0.163 0.076 -0.984 91 99 102
-19.2595 13.5663 70.8377 -0.137 -0.413 -0.901 89 96 102
-17.2761 13.2674 71.3426 -0.106 0.144 -0.984 76 82 82
-17.1256 13.2328 71.2856 -0.291 -0.199 -0.936 64 73 72
-16.9826 13.2108 71.3185 -0.227 -0.207 -0.952 57 66 65
-16.8342 13.1796 71.2855 -0.436 -0.382 -0.815 64 73 70
-16.3091 13.1850 72.0915 -0.599 0.014 -0.800 70 69 74
-16.1535 13.1415 71.9718 -0.293 -0.415 -0.861 74 73 78
-16.0058 13.1132 71.9618 0.042 -0.424 -0.904 57 58 62
-15.8585 13.0857 71.9566 0.040 -0.427 -0.903 58 59 63
-14.5343 12.8436 71.9556 -0.357 -0.196 -0.913 88 93 96
-7.0437 11.3326 70.8201 -0.485 0.479 -0.732 72 97 106
-6.0643 11.0450 69.9556 -0.303 -0.313 -0.900 11 253 250
-5.9214 11.0142 69.9182 -0.303 -0.313 -0.900 5 253 249
-5.1949 10.8856 69.9511 0.215 -0.638 -0.740 7 250 222
-5.0465 10.8649 70.0022 0.193 -0.656 -0.730 7 249 224
-3.7337 10.6343 70.0750 -0.299 -0.846 -0.441 70 77 83
-3.2901 10.5637 70.1585 -0.739 -0.312 -0.597 81 88 94
-3.1562 10.5225 70.0252 -0.742 -0.311 -0.594 83 90 96
-2.5597 10.4329 70.1790 0.415 0.074 -0.907 93 100 106
-2.4175 10.4021 70.1410 0.461 -0.032 -0.887 94 101 107
0.3420 9.8851 70.0384 -0.690 0.183 -0.700 104 110 110
0.7438 9.7783 69.7727 -0.483 0.662 -0.573 105 113 115
0.8708 9.7382 69.6382 -0.268 -0.534 -0.802 106 116 117
1.4681 9.6428 69.7473 0.094 -0.809 -0.581 106 111 115
2.0360 9.5269 69.6507 -0.134 -0.617 -0.776 77 80 85
3.5003 9.3741 70.5630 -0.148 -0.391 -0.909 90 95 98
3.6417 9.3439 70.5277 -0.100 -0.303 -0.948 88 96 98
7.9429 8.5696 70.6190 0.021 -0.792 -0.611 106 111 104
8.1397 8.4784 70.1794 0.155 -0.360 -0.920 106 111 104
10.6461 8.0926 70.7523 -0.234 -0.247 -0.940 103 108 102
11.9537 7.9084 71.1868 0.132 -0.409 -0.903 106 109 102
12.0901 7.8773 71.1379 0.023 -0.450 -0.893 106 109 102
13.0825 7.6715 70.9427 0.216 -0.320 -0.923 104 113 114
13.2176 7.6405 70.8926 0.172 -0.296 -0.940 104 114 116
14.2427 7.4444 70.8226 0.272 -0.333 -0.903 77 89 87
15.6892 7.2206 71.1443 -0.328 -0.451 -0.830 94 104 103
15.8123 7.1874 71.0587 -0.629 -0.215 -0.747 95 105 104
19.2596 6.8808 73.6291 0.731 -0.226 -0.644 134 144 145
19.8113 6.8107 73.8734 0.035 -0.783 -0.621 109 119 118
20.4844 6.7601 74.4484 0.172 -0.136 -0.976 101 116 117
20.4220 6.6951 73.8408 -0.133 0.165 -0.977 91 109 111
23.0444 6.3085 74.5767 0.258 -0.797 -0.547 117 138 143
23.5938 6.2835 75.1760 0.606 -0.421 -0.675 106 124 126
23.7952 6.2605 75.2852 0.349 -0.441 -0.827 103 119 119
28.6540 5.7677 78.4260 -0.083 -0.974 -0.212 41 52 54
28.8602 5.7420 78.5207 -0.077 -0.973 -0.215 48 59 61
31.9267 5.3410 79.7868 0.125 -0.945 -0.303 46 60 63
32.1765 5.3175 79.9630 0.125 -0.945 -0.303 46 59 65
32.3936 5.2458 79.7084 0.249 -0.649 -0.719 45 58 64
32.6535 5.2230 79.9043 0.371 -0.348 -0.861 45 58 64
32.7971 5.1902 79.8522 0.628 -0.153 -0.763 46 61 64
32.7486 5.1416 79.3955 0.386 0.539 -0.749 51 69 71
34.1296 4.9434 79.8255 0.551 -0.530 -0.644 49 65 65
35.2906 4.8554 80.8120 -0.314 -0.338 -0.887 87 102 105
35.4405 4.8228 80.7713 -0.314 -0.338 -0.887 66 81 84
35.6569 4.7950 80.8641 -0.423 -0.461 -0.780 36 52 55
35.8432 4.7650 80.8962 -0.391 -0.429 -0.814 37 53 56
37.0518 4.6747 81.9345 0.534 -0.090 -0.841 61 90 85
38.3282 4.5848 83.0738 0.343 -0.425 -0.838 31 63 50
39.2355 4.4693 83.4734 0.129 -0.581 -0.804 34 63 44
39.5093 4.4429 83.6610 0.119 -0.720 -0.684 30 59 38
39.9370 4.3828 83.8051 0.174 -0.765 -0.620 35 65 39
40.3518 4.3218 83.9226 0.205 -0.825 -0.527 37 67 41
40.6494 4.2960 84.1499 0.176 -0.823 -0.540 41 71 43
40.8952 4.2673 84.2786 0.176 -0.824 -0.538 18 51 22
41.2647 4.2449 84.6367 0.354 -0.741 -0.571 22 55 24
-41.4947 18.9747 80.2417 -0.080 -0.438 -0.896 168 206 215
-41.2877 18.9185 80.0973 -0.061 -0.445 -0.893 140 179 186
-41.1161 18.8821 80.0570 -0.243 -0.057 -0.968 133 173 180
-40.9498 18.8485 80.0317 -0.212 0.032 -0.977 153 193 200
-40.7780 18.8118 79.9899 -0.269 0.016 -0.963 150 191 196
-34.7077 17.3105 76.9101 -0.381 -0.046 -0.923 49 64 87
-34.5501 17.2798 76.8943 -0.445 -0.056 -0.894 60 77 98
-34.3845 17.2437 76.8489 -0.495 0.018 -0.869 71 89 113
-34.1999 17.1952 76.7328 -0.500 0.025 -0.866 83 103 132
-34.0045 17.1394 76.5752 -0.380 0.061 -0.923 105 126 156
-33.5408 17.0522 76.5547 0.067 0.360 -0.931 185 209 238
-31.7782 16.6880 76.2231 0.070 0.063 -0.996 164 208 227
-31.6279 16.6617 76.2320 0.070 0.063 -0.996 167 211 230
-28.7535 16.2462 77.0898 -0.475 -0.141 -0.869 166 205 228
-18.8021 13.6269 70.7998 -0.281 -0.577 -0.767 85 93 96
-17.2501 13.4048 71.2802 -0.113 -0.327 -0.938 79 88 87
-17.1050 13.3792 71.2875 -0.277 -0.251 -0.928 76 85 84
-16.9485 13.3335 71.1528 -0.554 -0.314 -0.771 95 104 103
-16.7507 13.4524 72.3685 -0.810 -0.227 -0.541 86 95 92
-16.2873 13.3318 72.0861 -0.585 -0.182 -0.791 94 95 99
-16.1306 13.2859 71.9509 -0.290 -0.457 -0.841 105 106 110
-15.9804 13.2527 71.9056 -0.243 -0.482 -0.842 105 109 112
-15.8326 13.2242 71.8934 -0.247 -0.479 -0.842 105 108 111
-15.6851 13.1962 71.8853 -0.264 -0.497 -0.826 105 104 109
-13.0047 12.5865 70.9424 -0.085 -0.605 -0.792 97 98 102
-12.5786 12.5605 71.3484 -0.513 -0.240 -0.824 86 87 91
-12.4342 12.5446 71.4303 -0.374 -0.400 -0.837 71 72 76
-7.1662 11.4969 70.7578 0.111 0.342 -0.933 70 83 88
-7.0172 11.4785 70.8270 -0.573 0.387 -0.722 54 97 103
-5.8961 11.1549 69.8946 -0.182 -0.322 -0.929 18 252 221
-5.7477 11.1358 69.9574 -0.295 -0.272 -0.916 31 251 214
-3.8650 10.7852 69.9040 -0.021 -0.672 -0.740 63 70 76
-3.7333 10.7398 69.7367 0.432 -0.342 -0.834 70 77 83
-3.4340 10.6994 69.8482 0.454 -0.304 -0.838 69 75 81
-3.1309 10.6625 69.9933 -0.783 -0.187 -0.593 68 75 81
-2.6621 10.6209 70.3378 0.239 -0.826 -0.511 82 89 95
0.5442 10.0221 70.2337 -0.360 0.162 -0.919 100 108 110
1.2051 9.8373 69.7309 -0.282 -0.689 -0.668 93 103 104
1.3499 9.8101 69.7245 -0.273 -0.773 -0.572 99 107 109
1.4634 9.7612 69.5043 0.123 -0.808 -0.576 105 110 113
1.6208 9.7430 69.5866 -0.585 -0.601 -0.544 99 102 107
1.7671 9.7170 69.5921 -0.294 -0.637 -0.713 93 96 101
1.9287 9.7011 69.6993 -0.179 -0.527 -0.831 86 89 94
2.0663 9.6692 69.6461 -0.059 -0.665 -0.745 80 83 88
2.1934 9.6308 69.5267 -0.323 -0.433 -0.842 73 76 81
4.5694 9.1288 68.9926 0.029 -0.576 -0.817 96 111 108
5.9974 8.9466 69.6080 0.593 -0.091 -0.800 115 120 114
6.3164 8.9050 69.7385 -0.175 -0.138 -0.975 128 133 127
10.7220 8.2496 70.9077 0.081 -0.651 -0.755 92 97 91
10.8812 8.2255 70.9470 0.067 -0.668 -0.741 98 100 95
10.9994 8.0441 69.6934 0.098 -0.504 -0.858 117 119 113
13.3371 7.7402 70.6579 -0.321 -0.118 -0.940 105 116 118
14.7470 7.5112 70.8805 0.118 -0.330 -0.937 87 99 97
15.5143 7.3182 70.4659 -0.079 -0.465 -0.882 98 109 105
15.6702 7.2925 70.4875 -0.094 -0.472 -0.876 98 108 106
19.1086 7.0514 73.5202 0.677 -0.299 -0.672 95 106 108
19.3334 7.0359 73.7206 0.670 -0.230 -0.706 104 115 116
19.5685 7.0220 73.9484 0.670 -0.230 -0.706 106 116 117
19.5947 6.9703 73.5801 -0.368 -0.839 -0.400 105 115 114
20.4720 6.8459 73.8611 0.057 0.061 -0.997 97 115 117
26.8951 6.0088 76.4942 -0.944 -0.300 -0.136 72 82 83
31.9940 5.4562 79.4613 0.177 -0.935 -0.306 48 59 65
32.3626 5.3981 79.5332 0.222 -0.576 -0.787 47 58 64
32.6781 5.3805 79.8472 0.291 -0.313 -0.904 45 58 64
32.8602 5.3510 79.8767 0.639 -0.162 -0.752 45 60 65
32.9055 5.3097 79.6179 0.400 0.533 -0.746 51 69 73
33.4283 5.2194 79.6582 -0.247 0.648 -0.720 56 76 77
35.2429 5.0092 80.6082 -0.525 -0.007 -0.851 76 90 93
35.4188 4.9787 80.6204 -0.232 -0.000 -0.973 62 75 79
38.3618 4.7487 83.0310 0.345 -0.424 -0.837 49 77 66
39.2512 4.6328 83.3958 0.283 -0.498 -0.820 46 72 57
40.1241 4.5146 83.7184 0.194 -0.753 -0.628 53 82 58
40.5839 4.4563 83.9198 0.104 -0.782 -0.614 68 97 70
40.8043 4.4265 84.0016 0.206 -0.736 -0.645 67 96 69
41.1351 4.4026 84.2882 0.309 -0.722 -0.619 45 77 47
-40.9603 19.0227 80.0940 -0.039 -0.357 -0.933 158 192 201
-40.7988 18.9919 80.0834 -0.489 -0.236 -0.840 167 198 208
-40.5970 18.9380 79.9516 -0.297 0.008 -0.955 192 222 231
-37.1920 17.9432 77.0658 -0.532 -0.383 -0.755 61 78 87
-35.5277 18.0096 79.9273 -0.497 -0.352 -0.794 65 82 109
-34.5321 17.4331 76.8757 -0.445 -0.056 -0.894 90 109 135
-34.3702 17.3995 76.8440 -0.495 0.018 -0.869 114 133 162
-34.1887 17.3528 76.7396 -0.495 0.018 -0.869 150 172 203
-33.9929 17.2965 76.5807 -0.380 0.061 -0.923 167 191 223
-33.4032 17.1996 76.6634 0.028 0.286 -0.958 169 198 228
-28.1104 15.9925 74.8004 -0.923 -0.125 -0.364 165 206 230
-27.9355 15.9452 74.6810 -0.916 -0.075 -0.395 165 205 230
-27.8003 15.9302 74.7557 -0.758 0.209 -0.617 165 206 228
-20.5789 14.4762 73.7052 -0.574 -0.252 -0.779 68 74 74
-17.0077 13.6235 72.1527 0.277 -0.471 -0.838 104 113 112
-16.8701 13.6145 72.2772 0.206 -0.175 -0.963 91 100 99
-16.7289 13.5996 72.3610 -0.155 0.143 -0.977 78 87 86
-16.1008 13.4164 71.8311 -0.326 -0.466 -0.823 112 113 117
-15.8035 13.3555 71.7801 0.144 -0.786 -0.601 109 110 112
-15.6571 13.3299 71.7884 0.070 -0.748 -0.661 98 99 103
-12.6994 12.7224 71.2652 0.205 -0.620 -0.758 84 85 89
-12.5506 12.6835 71.1752 -0.529 -0.222 -0.819 86 87 91
-10.0710 11.8058 67.8882 0.230 -0.314 -0.921 63 64 68
-9.9305 11.7705 67.8139 -0.340 -0.132 -0.931 64 65 69
-9.7885 11.7704 68.0134 -0.559 -0.169 -0.812 65 66 70
-7.4398 11.6703 70.5539 0.816 -0.137 -0.562 62 64 67
-7.1378 11.6492 70.8170 0.111 0.342 -0.933 63 77 81
-6.9895 11.6281 70.8631 -0.570 0.322 -0.756 39 94 101
-5.8710 11.2952 69.8677 -0.091 -0.353 -0.931 96 250 165
-5.7183 11.2853 70.0064 -0.087 -0.401 -0.912 131 251 146
-5.5711 11.2628 70.0402 -0.231 -0.212 -0.950 136 251 136
-5.4241 11.2397 70.0690 0.097 0.063 -0.993 132 252 141
-3.7201 10.8626 69.5584 0.163 -0.345 -0.925 69 77 81
-3.5725 10.8402 69.5933 0.398 -0.246 -0.884 71 81 84
-2.8011 10.7658 70.1072 0.233 -0.819 -0.524 80 87 93
-2.6518 10.7434 70.1444 0.239 -0.826 -0.511 76 83 89
-0.0865 10.2097 69.6381 0.606 -0.433 -0.667 102 107 110
0.2396 10.1854 69.9104 0.682 -0.406 -0.609 107 113 113
0.5797 10.1702 70.2732 -0.404 0.173 -0.898 102 109 109
0.7108 10.1315 70.1586 -0.431 0.668 -0.606 100 109 111
1.2278 9.9747 69.6756 -0.222 -0.633 -0.741 106 114 116
1.3816 9.9539 69.7323 -0.371 -0.690 -0.621 107 112 115
1.4891 9.9004 69.4705 -0.017 -0.776 -0.631 104 109 113
1.6494 9.8843 69.5721 -0.181 -0.552 -0.814 96 101 105
1.8014 9.8622 69.6157 -0.157 -0.507 -0.847 91 94 99
1.9542 9.8405 69.6634 -0.209 -0.482 -0.851 85 88 93
2.0996 9.8137 69.6614 -0.204 -0.517 -0.832 79 82 87
2.2318 9.7783 69.5741 0.002 0.015 -1.000 73 76 81
3.0805 9.7185 70.3097 -0.031 -0.082 -0.996 76 85 86
3.8286 9.5916 70.3842 0.047 -0.131 -0.990 75 85 86
6.5038 9.0245 69.7749 -0.160 -0.180 -0.971 127 132 126
6.8680 9.0017 70.1123 -0.083 -0.950 -0.302 136 141 135
7.2290 8.9759 70.4228 -0.343 -0.922 -0.182 123 128 122
7.6702 8.8941 70.4125 0.106 -0.953 -0.284 111 116 109
8.9509 8.7140 70.8273 -0.210 -0.021 -0.978 90 99 94
9.0926 8.6842 70.7975 -0.210 -0.021 -0.978 96 105 100
9.4087 8.6366 70.8749 -0.080 0.135 -0.988 99 108 103
17.4920 7.4000 72.7213 -0.499 -0.522 -0.692 108 119 121
18.0044 7.2677 72.4216 -0.512 -0.505 -0.695 111 122 126
19.1606 7.2026 73.5495 -0.185 -0.940 -0.287 95 109 110
24.4436 6.4892 75.4894 -0.520 -0.828 -0.209 102 116 116
24.7068 6.4234 75.3521 -0.251 -0.951 -0.179 99 113 113
25.3749 6.3114 75.4289 0.043 0.327 -0.944 78 87 93
26.5886 6.4202 77.9829 0.848 0.068 -0.526 72 81 86
27.8231 6.0728 77.0387 0.770 -0.396 -0.500 63 75 75
28.9210 5.9561 77.6857 0.117 -0.869 -0.480 52 67 70
31.8423 5.5963 79.0264 0.135 -0.934 -0.331 53 66 72
32.6910 5.5370 79.7656 0.559 0.147 -0.816 52 65 71
32.9448 5.5141 79.9465 0.650 -0.115 -0.752 49 64 69
33.0514 5.4778 79.8162 0.400 0.533 -0.746 54 72 76
33.2031 5.4456 79.7816 0.039 0.730 -0.682 53 71 73
35.3093 5.1715 80.6349 -0.527 -0.023 -0.849 62 73 75
35.4664 5.1395 80.6089 -0.205 -0.017 -0.979 54 64 68
35.7458 5.1168 80.8280 0.111 0.054 -0.992 41 50 55
37.3839 4.9301 81.6956 0.004 -0.714 -0.700 46 65 61
39.0507 4.8256 83.2399 0.093 -0.568 -0.818 40 59 48
39.2700 4.7965 83.3241 -0.098 -0.532 -0.841 95 114 103
39.8479 4.7036 83.4217 0.156 -0.591 -0.791 50 73 55
40.0946 4.6759 83.5556 0.157 -0.559 -0.814 50 74 56
40.8602 4.5935 83.9990 0.506 -0.190 -0.841 66 91 70
-50.5558 22.1220 89.1200 -0.897 -0.110 -0.428 71 98 122
-40.7710 19.1446 80.0314 -0.179 0.257 -0.950 139 164 176
-40.5908 19.1029 79.9644 -0.039 0.424 -0.905 73 95 108
-36.4941 18.4367 80.5840 -0.510 -0.672 -0.536 73 92 110
-36.0672 18.3086 80.2012 -0.577 -0.619 -0.533 58 83 106
-35.8701 18.2548 80.0650 -0.507 -0.674 -0.537 69 96 121
-35.4901 18.1558 79.8389 -0.497 -0.352 -0.794 140 166 195
-34.5176 17.5889 76.8698 -0.442 -0.061 -0.895 154 183 210
-34.3565 17.5557 76.8410 -0.475 0.006 -0.880 165 197 223
-34.1744 17.5085 76.7346 -0.495 0.018 -0.869 176 210 237
-33.3228 17.3872 76.9943 0.067 -0.420 -0.905 164 205 232
-33.1864 17.3712 77.0616 0.097 -0.452 -0.887 167 208 236
-24.9327 15.3432 73.0815 0.203 -0.306 -0.930 73 84 88
-24.8612 15.6214 75.3020 -0.348 -0.687 -0.637 81 92 94
-19.2936 14.3128 73.0704 0.203 0.448 -0.871 68 76 79
-18.0120 13.7442 70.5177 0.182 -0.395 -0.900 107 115 117
-17.4208 13.8382 72.0572 0.140 0.017 -0.990 123 132 131
-17.2775 13.8183 72.1048 0.150 0.003 -0.989 125 134 133
-17.1335 13.7974 72.1455 0.239 -0.043 -0.970 118 127 126
-13.3896 12.9329 70.7623 -0.254 -0.528 -0.811 76 80 83
-12.6703 12.8402 71.0564 0.253 -0.607 -0.753 82 86 89
-10.8798 11.8746 66.1859 0.219 -0.006 -0.976 52 56 59
-9.7649 11.9051 67.9691 -0.559 -0.169 -0.812 67 70 75
-7.2527 11.8394 70.9619 -0.035 -0.351 -0.936 58 65 63
-7.1045 11.8172 70.9992 -0.653 0.148 -0.743 56 79 72
-6.9641 11.7707 70.8398 -0.686 0.174 -0.707 24 105 93
-6.5470 11.6301 70.3482 -0.756 0.123 -0.643 10 255 249
-6.4094 11.5826 70.1773 -0.756 0.123 -0.643 23 250 228
-5.5488 11.3974 69.9628 -0.005 -0.635 -0.773 242 247 70
-5.0032 11.2273 69.4245 -0.282 -0.589 -0.758 110 253 156
-3.8337 11.0370 69.6010 -0.210 -0.638 -0.741 62 73 85
-3.6903 11.0086 69.5835 -0.194 -0.684 -0.704 65 76 86
-3.2389 10.9517 69.7776 -0.278 -0.874 -0.399 89 90 95
-3.0943 10.9244 69.7706 -0.118 -0.872 -0.476 83 90 93
-2.9508 10.8956 69.7509 -0.140 -0.861 -0.489 80 90 93
-2.6365 10.8715 70.0038 0.233 -0.817 -0.528 72 79 87
-2.4593 10.8821 70.3317 0.108 -0.935 -0.337 64 71 79
1.2445 10.1076 69.5784 0.122 -0.876 -0.466 108 113 116
3.0057 9.9148 70.5589 -0.190 -0.864 -0.467 72 77 80
3.4039 9.8075 70.2944 0.015 -0.647 -0.762 81 86 89
3.5626 9.7875 70.3628 0.058 -0.471 -0.880 88 93 96
3.7269 9.7706 70.4621 -0.066 -0.292 -0.954 86 94 96
3.8585 9.7346 70.3710 0.074 -0.140 -0.987 86 94 96
3.9991 9.7039 70.3327 0.233 -0.274 -0.933 92 102 101
4.1609 9.6851 70.4144 0.168 -0.297 -0.940 94 106 104
5.4375 9.4176 70.1503 -0.329 0.067 -0.942 112 117 113
5.5858 9.3913 70.1564 -0.207 0.015 -0.978 96 102 98
5.7260 9.3611 70.1210 -0.226 0.003 -0.974 98 104 100
6.1154 9.2563 69.8635 0.442 -0.716 -0.541 86 91 86
6.3887 9.1935 69.7654 -0.133 -0.200 -0.971 89 94 88
6.5310 9.1648 69.7445 -0.160 -0.180 -0.971 86 91 85
8.3461 8.8649 69.9831 -0.304 -0.004 -0.953 92 99 92
8.5109 8.8448 70.0588 -0.578 -0.076 -0.813 92 98 94
8.6275 8.8062 69.9265 -0.566 -0.085 -0.820 90 99 94
9.1432 8.8348 70.8620 -0.058 0.103 -0.993 96 106 98
9.2895 8.8067 70.8512 0.024 0.187 -0.982 98 107 102
9.4323 8.7773 70.8254 -0.003 0.207 -0.978 98 107 102
14.2242 7.9098 70.8776 0.361 -0.180 -0.915 84 96 94
17.7712 7.4777 72.5166 -0.487 -0.353 -0.799 108 119 123
18.0092 7.4078 72.3148 -0.462 -0.512 -0.724 112 123 127
23.7885 6.6435 74.5272 0.687 -0.235 -0.688 108 122 122
24.3522 6.6221 75.1477 -0.523 -0.826 -0.208 104 120 119
26.1208 6.5594 77.1296 0.180 -0.920 -0.347 87 96 101
27.6394 6.2494 76.8783 0.784 0.079 -0.616 60 72 72
27.8266 6.2228 76.9360 0.788 -0.370 -0.492 63 75 75
32.3854 5.7095 79.3641 0.427 0.114 -0.897 60 73 79
32.7879 5.7014 79.8617 0.559 0.147 -0.816 60 73 79
33.0151 5.6762 79.9859 0.668 -0.200 -0.717 59 74 79
33.2458 5.6512 80.1162 0.419 0.533 -0.735 64 79 82
33.2106 5.6016 79.6889 -0.242 0.467 -0.850 63 81 83
36.6344 5.2550 81.8087 0.157 -0.756 -0.635 37 45 53
40.1134 4.8400 83.4840 0.518 -0.136 -0.844 32 52 40
-51.5712 22.5395 89.5090 -0.912 0.027 -0.410 155 192 195
-41.6767 19.5234 80.3995 -0.635 -0.228 -0.738 171 210 221
-41.0976 19.3770 80.0932 0.222 0.508 -0.832 135 165 176
-40.9362 19.3463 80.0835 0.204 0.509 -0.836 85 109 122
-40.7780 19.3175 80.0838 -0.063 0.444 -0.894 49 66 82
-39.8508 19.1576 80.1534 -0.093 -0.064 -0.994 57 76 80
-39.7605 19.1694 80.3660 0.060 -0.059 -0.996 56 77 78
-36.6337 18.6248 80.5586 -0.542 -0.678 -0.497 80 95 122
-36.4138 18.5566 80.3470 -0.513 -0.676 -0.529 62 81 108
-35.6018 18.3248 79.7179 -0.542 -0.640 -0.544 156 192 219
-35.4518 18.3014 79.7480 -0.507 -0.345 -0.790 167 203 230
-24.9096 15.4875 73.0466 0.088 -0.508 -0.857 104 115 119
-24.8163 15.7489 75.1399 -0.348 -0.687 -0.637 80 91 93
-20.9650 14.5220 71.1970 0.293 -0.790 -0.538 69 74 80
-18.9435 13.9886 69.9585 -0.086 -0.446 -0.891 89 97 100
-18.0683 14.0119 71.3331 0.044 -0.523 -0.851 101 109 111
-10.0240 12.0708 67.7696 0.144 -0.365 -0.920 66 67 71
-8.1538 11.9222 69.2172 0.018 -0.474 -0.880 78 82 83
-8.0126 11.8855 69.1344 0.123 -0.568 -0.814 73 77 78
-6.9394 11.9114 70.8007 -0.664 0.127 -0.737 47 171 143
-6.5224 11.7699 70.3088 -0.764 0.029 -0.645 5 251 244
-5.8431 11.5264 69.4092 -0.281 -0.609 -0.742 238 254 43
-5.6866 11.5263 69.6235 -0.287 -0.329 -0.900 250 254 35
-5.5335 11.5175 69.7674 -0.091 -0.452 -0.887 255 250 32
-3.8166 11.1648 69.4697 -0.201 -0.665 -0.720 70 87 106
-3.6723 11.1378 69.4644 -0.205 -0.678 -0.706 53 67 83
-3.5296 11.1088 69.4419 0.201 -0.556 -0.806 75 92 100
-3.3747 11.0963 69.5605 -0.039 -0.775 -0.630 119 124 131
-3.2270 11.0736 69.5922 0.027 -0.814 -0.581 127 121 128
-3.0799 11.0500 69.6164 0.044 -0.820 -0.571 102 104 106
-2.9392 11.0180 69.5693 0.028 -0.789 -0.614 72 87 86
-2.6337 10.9841 69.7327 0.148 -0.527 -0.837 64 71 79
-2.4629 10.9881 69.9974 0.122 -0.931 -0.343 55 62 70
-2.3127 10.9667 70.0422 0.200 -0.922 -0.330 56 63 73
-2.2010 10.9008 69.6996 -0.103 0.089 -0.991 68 75 83
-2.0440 10.8874 69.8144 -0.115 -0.136 -0.984 81 88 96
-1.8970 10.8624 69.8283 -0.102 -0.145 -0.984 95 102 110
-1.4536 10.7896 69.8887 0.114 0.333 -0.936 116 121 125
-1.3154 10.7554 69.8212 -0.189 0.447 -0.874 118 123 127
1.0942 10.2505 69.3292 0.113 -0.887 -0.447 133 139 139
1.2425 10.2264 69.3516 0.120 -0.879 -0.461 126 132 132
2.6671 10.0643 70.0861 -0.555 -0.103 -0.825 64 68 71
3.5822 9.9245 70.2897 0.096 -0.167 -0.981 79 84 87
3.7517 9.9108 70.4190 0.187 0.074 -0.980 82 87 90
4.0333 9.8494 70.3434 0.290 -0.160 -0.944 92 101 100
5.3328 9.5932 70.1994 -0.329 0.067 -0.942 120 124 123
5.5951 9.5234 70.0342 -0.153 -0.135 -0.979 83 89 85
5.9018 9.4759 70.0977 -0.060 0.068 -0.996 65 71 69
6.0348 9.4423 70.0270 -0.112 0.041 -0.993 74 80 77
6.4151 9.3335 69.7309 -0.145 -0.158 -0.977 68 73 71
6.5614 9.3066 69.7294 -0.074 -0.056 -0.996 52 57 52
9.4743 8.9247 70.8522 0.198 0.693 -0.694 99 108 103
18.3671 7.5615 72.7968 0.563 -0.439 -0.700 97 111 114
21.8179 7.0627 73.7785 -0.325 -0.297 -0.898 97 107 108
24.8259 6.7326 75.4210 0.199 -0.938 -0.282 106 122 122
28.4113 6.3448 77.4216 0.751 0.238 -0.616 47 61 61
28.7351 6.3344 77.7877 0.524 0.043 -0.850 65 76 78
29.0505 6.3227 78.1316 0.516 -0.028 -0.856 65 76 78
29.7850 6.0175 76.8443 0.601 0.003 -0.800 50 64 67
32.1837 5.8909 79.1820 0.322 -0.209 -0.923 65 76 82
32.3473 5.8601 79.1744 0.327 -0.202 -0.923 63 74 78
33.1840 5.8010 79.8776 0.564 -0.447 -0.694 64 79 82
33.4720 5.7817 80.1273 0.399 -0.051 -0.916 62 80 82
33.5004 5.7376 79.8342 -0.316 0.488 -0.814 62 80 82
35.4271 5.4503 80.3161 0.251 -0.705 -0.663 61 70 75
36.8951 5.3899 81.8756 0.089 -0.682 -0.726 27 38 41
37.1837 5.3225 81.7642 -0.185 -0.629 -0.756 42 61 57
37.3607 5.2467 81.4371 -0.404 -0.680 -0.612 24 43 39
37.6070 5.2210 81.5813 -0.047 -0.820 -0.571 16 32 29
40.6737 4.9523 83.7665 0.523 -0.050 -0.851 85 105 92
40.9173 4.9245 83.8914 0.494 -0.120 -0.861 98 119 101
41.2566 4.9027 84.1926 0.569 -0.108 -0.815 66 90 68
-51.5401 22.7073 89.4509 -0.912 0.027 -0.410 152 191 194
-41.4179 19.6059 80.1346 -0.308 0.555 -0.773 155 189 197
-36.8348 18.4189 77.5279 -0.509 -0.569 -0.646 69 87 100
-36.7274 18.4207 77.6862 -0.596 -0.245 -0.765 71 87 99
-35.9662 18.2156 77.1940 -0.386 -0.387 -0.837 69 84 116
-36.3335 18.6756 80.1097 -0.466 -0.736 -0.491 74 96 126
-36.1263 18.6148 79.9390 -0.516 -0.688 -0.511 118 148 177
-35.9248 18.5576 79.7868 -0.578 -0.609 -0.543 152 190 217
-35.7213 18.4988 79.6256 -0.529 -0.653 -0.542 161 203 228
-35.5350 18.4511 79.5242 -0.531 -0.648 -0.546 166 207 233
-35.2263 18.3985 79.5516 -0.523 -0.388 -0.759 165 205 231
-33.6735 17.6507 76.1044 -0.361 -0.643 -0.675 164 209 232
-28.3429 16.6864 76.1599 -0.721 -0.050 -0.691 168 208 233
-27.8813 16.4987 75.3920 0.116 0.257 -0.959 170 211 232
-20.8058 14.6483 71.2348 0.665 -0.128 -0.735 67 71 74
-12.9773 12.8516 68.4941 0.375 -0.229 -0.898 71 75 78
-12.8367 12.8308 68.5300 -0.405 0.070 -0.912 71 75 78
-6.0748 11.7955 69.9941 -0.406 0.319 -0.856 233 254 51
-5.9361 11.7535 69.8707 -0.301 0.329 -0.895 243 253 37
-5.8305 11.6386 69.1609 -0.328 -0.654 -0.682 244 253 30
-5.6804 11.6256 69.2671 -0.315 -0.642 -0.699 251 255 29
-5.5129 11.6484 69.6631 -0.067 -0.407 -0.911 255 253 29
-5.3351 11.6887 70.2025 0.226 0.101 -0.969 255 252 19
-4.6780 11.4296 69.1688 -0.201 -0.681 -0.704 78 252 169
-2.5847 11.1532 69.9491 -0.242 0.063 -0.968 68 75 85
-2.4668 11.0929 69.6616 0.168 -0.894 -0.416 66 73 83
-2.3197 11.0685 69.6799 0.197 -0.920 -0.340 68 75 85
-2.1966 11.0163 69.4589 -0.146 -0.877 -0.458 79 86 96
-2.0465 10.9957 69.5087 -0.100 -0.796 -0.597 87 94 104
-1.8791 10.9941 69.7236 -0.217 -0.849 -0.482 96 103 111
-1.5578 10.9735 70.0052 -0.379 0.281 -0.882 111 116 121
-1.4023 10.9569 70.0921 -0.047 0.577 -0.815 112 117 121
-1.2608 10.9253 70.0496 0.045 0.495 -0.868 112 117 121
-1.1414 10.8717 69.8131 -0.437 0.382 -0.814 110 115 119
3.0655 10.0816 69.6410 -0.003 0.428 -0.904 66 72 72
3.9083 10.0149 70.2862 0.062 -0.113 -0.992 99 105 105
4.0601 9.9907 70.3117 0.102 -0.097 -0.990 108 115 112
4.2078 9.9640 70.3136 0.074 -0.111 -0.991 112 121 118
5.5053 9.7066 70.1586 -0.547 -0.486 -0.682 97 103 101
5.6397 9.6732 70.0927 -0.485 -0.438 -0.757 58 64 62
5.9493 9.6270 70.1687 -0.131 0.100 -0.986 63 69 69
6.4331 9.4696 69.6555 -0.117 -0.143 -0.983 69 73 74
9.1212 9.1744 71.1009 0.105 0.707 -0.700 81 90 87
11.1375 8.7660 70.7980 0.233 -0.733 -0.639 97 103 99
11.2597 8.7298 70.6951 0.361 -0.630 -0.688 96 101 97
14.9806 8.1780 71.6329 0.343 -0.884 -0.317 90 102 100
16.0386 7.8571 70.6835 0.335 -0.298 -0.894 93 103 100
16.5151 7.8437 71.2282 -0.503 0.041 -0.863 94 104 106
17.6622 7.7932 72.4050 -0.113 0.328 -0.938 83 94 96
18.6453 7.6994 73.0388 0.176 -0.195 -0.965 90 104 107
19.9239 7.4826 73.1594 0.653 -0.514 -0.555 101 117 117
20.4364 7.4649 73.7212 0.352 -0.579 -0.735 103 118 121
20.6323 7.4441 73.8315 0.352 -0.579 -0.735 102 117 120
20.6565 7.3910 73.4703 -0.384 -0.866 -0.319 98 113 116
22.0079 7.1827 73.7532 0.549 -0.320 -0.773 86 96 97
22.2028 7.1609 73.8548 -0.550 -0.324 -0.770 79 90 91
22.3438 7.1298 73.8147 -0.562 -0.304 -0.769 68 81 81
23.4016 6.9779 74.1186 0.183 -0.737 -0.650 97 113 110
23.6054 6.9567 74.2367 0.098 -0.766 -0.635 97 113 110
26.5595 6.5563 75.2611 0.446 0.494 -0.746 54 65 69
27.4539 6.5740 76.6021 0.726 -0.151 -0.671 73 84 88
27.7722 6.5649 76.9650 0.724 -0.142 -0.675 80 91 93
28.4621 6.5015 77.4273 0.739 0.239 -0.630 46 60 60
28.7106 6.4823 77.6208 0.453 0.432 -0.780 63 77 77
31.8890 6.0619 78.8004 0.514 -0.298 -0.804 55 66 70
32.1326 6.0396 78.9643 0.514 -0.298 -0.804 64 75 79
32.6352 5.9961 79.3211 0.458 -0.370 -0.808 62 73 77
35.9850 5.5638 80.6443 -0.241 -0.683 -0.689 31 40 45
36.7665 5.5386 81.5141 -0.015 -0.717 -0.697 25 36 39
36.8529 5.5001 81.3455 0.141 -0.714 -0.686 28 43 43
36.9990 5.4667 81.2951 0.048 -0.754 -0.655 32 51 47
37.1954 5.4374 81.3433 0.048 -0.754 -0.655 31 52 47
37.3048 5.4011 81.2218 -0.148 -0.691 -0.708 23 42 38
38.4753 5.3578 82.4834 0.709 -0.244 -0.662 13 30 22
40.1311 5.1665 83.3034 0.269 -0.522 -0.809 36 56 45
40.9151 5.0879 83.7804 0.378 -0.273 -0.885 67 89 71
-42.9713 20.1075 80.5255 0.291 -0.297 -0.909 40 66 92
-42.5424 20.0480 80.6619 0.202 -0.041 -0.978 171 200 227
-36.0455 18.7325 79.6989 -0.516 -0.688 -0.511 181 215 243
-35.8401 18.6721 79.5311 -0.573 -0.613 -0.544 174 213 239
-35.6545 18.6249 79.4329 -0.519 -0.629 -0.579 168 210 235
-28.4869 16.8760 76.1930 -0.320 0.200 -0.926 168 208 233
-28.1142 16.7637 75.8683 -0.051 -0.117 -0.992 168 208 234
-27.8846 16.6699 75.4879 0.049 -0.068 -0.996 170 210 234
-20.9595 14.8553 71.4445 0.541 0.081 -0.837 58 62 63
-20.8100 14.8242 71.4159 0.525 0.117 -0.843 56 60 59
-19.1799 14.6842 72.5655 0.331 -0.846 -0.418 101 106 109
-13.7866 13.5462 71.4296 -0.198 0.710 -0.676 77 81 84
-7.6626 12.1677 69.5086 0.292 0.015 -0.956 81 85 84
-6.0412 11.9569 70.1285 -0.391 0.669 -0.632 237 255 37
-4.8828 11.7302 70.0136 0.646 -0.459 -0.610 240 255 46
-4.7909 11.6064 69.2304 -0.731 -0.131 -0.670 196 255 86
-4.6596 11.5572 69.0461 -0.583 -0.257 -0.771 114 255 151
-4.5281 11.5095 68.8720 -0.444 -0.386 -0.809 45 245 205
-2.4138 11.2666 69.9138 -0.242 0.063 -0.968 77 84 94
-2.3136 11.1853 69.4526 0.254 -0.886 -0.388 85 92 102
-2.1453 11.1862 69.6840 -0.032 -0.116 -0.993 93 100 110
-2.0019 11.1574 69.6638 0.112 -0.207 -0.972 95 102 112
-1.8609 11.1259 69.6216 -0.273 -0.261 -0.926 96 103 113
-0.5777 10.8626 69.4060 -0.444 -0.036 -0.896 99 104 108
-0.1103 10.8119 69.6583 0.052 0.535 -0.843 96 101 105
2.7589 10.3721 70.2660 -0.104 -0.864 -0.493 66 70 73
2.9077 10.3464 70.2762 -0.117 -0.855 -0.506 73 77 80
3.1292 10.2457 69.8350 0.373 0.063 -0.926 73 77 78
3.4248 10.1939 69.8500 0.223 0.159 -0.962 80 81 83
3.9161 10.1448 70.1460 0.148 -0.174 -0.973 100 104 103
4.0734 10.1240 70.2032 -0.154 -0.346 -0.926 113 119 117
4.2205 10.0970 70.2023 -0.122 -0.352 -0.928 120 126 124
4.3798 10.0772 70.2691 0.083 -0.376 -0.923 119 128 125
5.5179 9.8402 70.0532 -0.547 -0.486 -0.682 102 108 108
5.9742 9.7670 70.1260 -0.075 0.055 -0.996 65 71 71
8.9107 9.3089 70.6896 -0.035 0.535 -0.844 71 77 77
10.5685 8.9375 70.1825 -0.244 0.341 -0.908 85 94 95
11.4650 8.8543 70.7684 0.225 -0.384 -0.896 90 98 95
11.6380 8.8348 70.8571 -0.415 -0.541 -0.731 83 90 87
11.7888 8.8080 70.8618 -0.575 -0.337 -0.745 76 82 79
20.9653 7.5334 73.7711 -0.343 -0.527 -0.778 113 128 131
21.0662 7.4946 73.6217 -0.390 -0.529 -0.754 105 123 125
22.2969 7.3201 73.9865 -0.685 -0.567 -0.457 89 100 100
23.7510 7.0700 74.0953 0.090 -0.761 -0.643 92 108 108
23.9532 6.9951 73.8167 -0.073 -0.515 -0.854 89 107 107
27.0227 6.7152 75.8617 -0.549 -0.785 -0.288 64 75 81
27.8260 6.7215 76.9785 0.726 -0.147 -0.672 76 90 91
28.2721 6.6780 77.2555 0.657 0.289 -0.696 61 75 75
32.3393 6.2156 79.2955 0.183 -0.879 -0.441 61 72 74
35.2658 5.7486 79.7802 0.167 -0.604 -0.779 61 72 76
37.4362 5.5705 81.3710 0.359 -0.094 -0.928 23 39 36
38.5274 5.5227 82.4764 0.712 -0.407 -0.572 19 39 30
39.0604 5.4737 82.8289 -0.175 -0.814 -0.553 37 54 44
39.6743 5.4303 83.3295 0.134 0.178 -0.975 26 46 35
39.9244 5.3586 83.1384 0.133 -0.585 -0.800 24 44 32
40.1208 5.3281 83.1775 0.244 -0.533 -0.810 21 40 28
40.6436 5.2765 83.4968 0.489 -0.393 -0.779 48 69 55
40.8740 5.2483 83.5973 0.352 -0.345 -0.870 21 44 25
41.4923 5.2024 84.0864 0.497 -0.705 -0.505 24 53 24
33.6711 4.5820 69.1174 -0.401 -0.608 -0.685 80 111 79
-51.1279 22.8606 88.4782 -0.913 0.018 -0.407 123 162 166
-46.6527 21.2429 82.6833 -0.182 -0.204 -0.962 50 73 91
-46.4759 21.2054 82.6454 -0.179 -0.290 -0.940 44 71 78
-42.4414 20.2229 80.8571 -0.304 0.215 -0.928 176 203 216
-37.4581 19.3038 80.7748 -0.690 -0.570 -0.446 59 78 95
-34.7766 18.3534 77.4397 -0.065 -0.069 -0.996 170 206 232
-28.9484 16.8380 74.1632 -0.356 -0.149 -0.923 167 208 229
