ply
format ascii 1.0
element vertex 867
property float x
property float y
property float z
property float nx
property float ny
property float nz
property uchar diffuse_red
property uchar diffuse_green
property uchar diffuse_blue
end_header
36.9601 3.7323 82.2708 0.333 -0.745 -0.579 62 98 82
37.2332 3.7586 82.3977 0.424 -0.616 -0.664 98 136 113
38.0784 3.8483 82.8073 0.350 -0.671 -0.654 74 108 81
38.3747 3.8850 82.9613 0.308 -0.733 -0.606 78 112 82
-52.8494 22.6985 95.3496 0.533 -0.715 -0.453 169 203 202
-51.5063 22.5384 95.3945 -0.048 -0.340 -0.939 76 108 122
-51.1123 22.3996 95.2247 -0.254 0.509 -0.823 117 132 147
-50.8857 22.2784 95.0447 -0.277 0.502 -0.819 243 243 253
-49.5436 21.0139 92.8902 -0.330 0.320 -0.888 242 251 250
-48.4097 20.6266 92.4259 -0.331 0.242 -0.912 52 76 73
-48.2383 20.5930 92.4054 -0.012 0.306 -0.952 56 85 81
-47.3066 19.9951 91.4670 -0.285 -0.873 -0.397 67 96 91
-43.7469 18.3233 89.1017 -0.608 -0.678 -0.413 164 201 202
-42.0895 17.9928 88.8922 -0.514 -0.704 -0.491 146 176 201
-41.8760 17.8503 88.6662 -0.161 -0.763 -0.626 148 178 205
-41.5255 17.7377 88.5369 -0.398 -0.756 -0.519 150 182 195
-40.9576 17.4654 88.1484 -0.491 -0.699 -0.520 182 216 226
-40.3952 17.1977 87.7676 -0.308 -0.950 -0.047 177 211 220
-37.4231 15.2643 84.7223 -0.129 -0.177 -0.976 187 222 228
-37.2629 15.2265 84.6905 -0.158 -0.176 -0.972 190 225 231
-37.1156 15.2254 84.7282 0.055 -0.337 -0.940 175 210 216
-36.7037 15.7489 85.8820 0.092 -0.294 -0.951 149 179 189
-36.2448 15.7208 85.9502 -0.467 -0.841 -0.272 144 176 189
-35.8814 15.5256 85.6598 -0.614 -0.780 -0.123 150 183 192
-35.5119 15.3052 85.3211 -0.619 -0.775 -0.125 167 197 205
-34.6433 14.4108 83.7753 -0.391 -0.676 -0.624 159 189 197
-34.4909 14.3937 83.7824 -0.442 -0.697 -0.565 143 174 179
-34.5850 15.2149 85.3920 0.287 -0.327 -0.900 143 174 179
-34.4636 15.3149 85.6241 0.361 -0.373 -0.855 142 173 178
-28.8126 12.0863 80.7249 -0.021 -0.701 -0.712 181 214 220
-28.6633 12.0677 80.7284 -0.040 -0.681 -0.731 182 215 220
-26.1291 11.8963 81.0729 0.265 -0.593 -0.760 195 228 235
-25.9802 11.8995 81.1195 0.261 -0.599 -0.757 196 229 236
-25.8237 11.8278 81.0191 0.442 -0.529 -0.725 196 229 236
-25.6713 11.7953 80.9957 0.031 0.054 -0.998 195 225 233
-25.1004 10.3205 78.2137 -0.313 0.181 -0.932 193 224 229
-24.9516 10.2664 78.1464 -0.287 0.194 -0.938 189 220 225
-24.8097 10.3013 78.2541 -0.217 0.135 -0.967 189 220 225
-24.0781 10.2086 78.2677 -0.046 -0.206 -0.978 176 205 211
-23.4893 10.0773 78.1654 -0.093 0.036 -0.995 184 213 216
-19.5462 9.0034 77.0945 -0.297 0.099 -0.950 147 173 172
-19.3863 9.1830 77.4953 -0.768 -0.229 -0.598 154 180 179
-19.2342 9.2352 77.6404 -0.394 -0.136 -0.909 155 181 180
-19.0880 9.2020 77.6138 -0.253 -0.395 -0.883 154 180 179
-18.9766 8.7442 76.7324 -0.360 -0.414 -0.836 154 180 179
-18.8334 8.6975 76.6782 -0.368 -0.394 -0.842 157 183 182
-18.1155 8.5051 76.4894 -0.317 -0.409 -0.856 148 174 171
-17.8298 8.4213 76.4000 -0.137 -0.654 -0.744 126 185 184
-17.6849 8.3984 76.3934 -0.137 -0.654 -0.744 91 211 212
-14.0381 7.2210 75.0361 -0.063 0.210 -0.976 151 172 169
-13.8957 7.1946 75.0221 -0.098 0.219 -0.971 148 172 166
-13.7540 7.1648 75.0011 -0.098 0.219 -0.971 148 173 167
-13.6116 7.1381 74.9865 -0.081 0.218 -0.972 148 172 168
-12.9609 6.7700 74.4296 0.393 0.042 -0.918 151 170 168
-12.6759 6.7252 74.4176 0.582 -0.195 -0.789 151 170 168
-11.3499 6.6591 74.6447 -0.598 -0.212 -0.773 157 173 170
-11.1557 6.7988 74.9755 0.100 -0.333 -0.938 157 173 170
-10.8661 7.2347 75.9217 0.528 -0.458 -0.716 159 171 167
-10.7718 7.0508 75.5812 -0.193 -0.834 -0.517 159 171 167
-10.1319 6.6822 75.0203 -0.441 -0.606 -0.662 113 125 121
-8.5383 6.4380 74.9655 0.023 -0.998 -0.059 110 119 118
-8.1393 6.6643 75.5240 -0.255 -0.966 0.042 122 131 130
-7.9819 6.2903 74.8219 0.378 -0.842 -0.386 117 126 125
-7.2324 6.2353 74.9154 -0.901 -0.205 -0.383 101 107 107
-7.3690 5.5695 73.5526 -0.006 -0.540 -0.842 106 112 112
-7.0676 5.5616 73.6184 -0.005 -0.470 -0.883 101 107 107
-6.9255 5.5378 73.6095 -0.001 -0.482 -0.876 102 108 108
-4.3802 5.9713 75.1616 0.006 -0.953 -0.302 106 111 114
-4.0056 5.7811 74.8841 -0.872 0.083 -0.482 72 77 81
-3.9134 5.6585 74.6650 -0.614 -0.034 -0.788 62 67 71
-3.7952 5.5852 74.5510 -0.574 -0.093 -0.814 49 54 58
-3.6774 5.5119 74.4371 -0.086 -0.217 -0.972 54 59 63
-3.5362 5.4818 74.4153 -0.105 -0.227 -0.968 87 92 96
-3.3840 5.4714 74.4357 -0.160 -0.774 -0.612 92 97 101
-3.2509 5.4269 74.3831 -0.144 -0.766 -0.627 99 102 107
-1.7135 5.3338 74.6139 0.382 -0.044 -0.923 108 114 114
-0.1533 5.2500 74.8693 -0.302 0.311 -0.901 120 131 133
0.1284 5.1848 74.8156 -0.117 -0.393 -0.912 130 144 145
0.2290 5.0928 74.6598 -0.494 -0.480 -0.725 119 130 132
0.3281 4.9995 74.5008 -0.601 -0.669 -0.438 112 122 124
2.6982 4.6576 74.4613 0.725 -0.399 -0.562 128 134 132
2.9150 4.7252 74.6546 0.670 -0.507 -0.542 136 142 138
3.1036 4.7550 74.7650 0.463 -0.539 -0.704 131 137 133
3.7445 4.9355 75.2979 0.035 -0.983 -0.178 127 133 129
3.9392 4.1396 73.7658 0.570 -0.634 -0.522 126 128 123
4.0327 4.0522 73.6171 0.122 -0.768 -0.628 126 128 123
5.0410 4.4662 74.7143 0.506 -0.680 -0.530 116 118 113
5.6205 4.5531 75.0442 0.284 -0.227 -0.931 111 113 108
5.7747 4.5354 75.0507 0.286 -0.229 -0.931 110 112 107
5.6881 3.8543 73.6711 -0.690 -0.131 -0.712 59 61 56
5.9048 3.7219 73.4661 -0.681 -0.060 -0.729 95 100 94
6.0450 3.6922 73.4449 -0.370 0.051 -0.927 105 112 105
6.2043 3.6838 73.4713 -0.149 -0.369 -0.917 115 120 116
6.3335 3.6417 73.4225 0.241 -0.340 -0.909 115 120 114
6.5067 3.6485 73.4828 0.317 -0.488 -0.813 115 120 114
7.5346 3.4894 73.4443 0.113 -0.404 -0.908 113 122 119
9.3165 3.5727 74.0923 0.002 -0.647 -0.762 125 134 129
9.4583 3.5426 74.0709 0.001 -0.627 -0.779 128 134 130
9.5498 3.4629 73.9369 -0.309 -0.796 -0.521 120 126 122
9.7275 3.4686 73.9963 -0.430 -0.752 -0.500 113 119 115
9.9119 3.4805 74.0699 -0.203 -0.604 -0.771 114 120 116
10.0498 3.4467 74.0399 -0.375 -0.478 -0.795 112 118 114
10.2050 3.4297 74.0480 -0.325 -0.634 -0.702 105 111 107
10.3636 3.4159 74.0636 -0.119 -0.382 -0.916 99 105 101
10.5105 3.3908 74.0532 0.034 -0.254 -0.967 104 110 106
10.6856 3.3925 74.1040 0.106 -0.360 -0.927 104 110 106
10.8423 3.3764 74.1144 0.061 -0.377 -0.924 105 111 107
10.9760 3.3387 74.0754 0.022 -0.342 -0.939 107 113 109
11.1530 3.3416 74.1291 -0.049 -0.311 -0.949 109 115 111
11.3032 3.3191 74.1251 -0.108 -0.283 -0.953 109 117 112
11.4333 3.2780 74.0785 -0.118 -0.520 -0.846 110 116 112
11.5848 3.2567 74.0771 -0.180 -0.499 -0.848 106 112 108
13.3604 4.2297 76.4948 0.456 0.179 -0.872 121 127 123
12.6964 3.3097 74.4834 -0.786 -0.487 -0.381 121 127 123
12.9465 3.2178 74.3680 -0.567 -0.664 -0.487 114 123 118
13.0592 3.1611 74.2857 -0.551 -0.659 -0.512 103 113 107
14.0485 3.8743 75.9733 -0.143 -0.577 -0.804 97 108 102
14.0534 3.2530 74.7377 0.159 -0.364 -0.918 101 110 102
14.7728 3.2546 74.9355 0.162 -0.515 -0.842 103 110 103
14.9457 3.2484 74.9700 0.130 -0.532 -0.837 115 122 115
15.1263 3.2486 75.0192 0.140 -0.522 -0.841 127 134 127
15.2944 3.2380 75.0436 0.038 -0.660 -0.751 120 126 120
16.8484 3.6117 76.2083 0.581 -0.773 -0.255 121 128 121
17.2315 3.7708 76.6287 0.584 -0.771 -0.252 111 117 110
17.3462 3.7134 76.5454 0.306 -0.677 -0.669 115 120 113
17.6796 3.6817 76.5727 -0.265 -0.436 -0.860 124 131 123
17.7775 3.6116 76.4595 -0.242 -0.421 -0.874 129 138 129
17.6045 3.0403 75.2751 0.047 -0.813 -0.581 116 123 115
17.7974 3.0468 75.3404 -0.040 -0.789 -0.613 115 120 114
18.1623 3.0430 75.4314 -0.017 -0.726 -0.688 115 122 115
18.2743 2.9869 75.3501 -0.011 -0.734 -0.679 101 106 100
21.0495 2.9572 76.0420 0.036 -0.390 -0.920 117 130 123
22.7992 3.1069 76.8135 -0.013 -0.589 -0.808 95 111 110
22.9728 3.0928 76.8326 0.024 -0.599 -0.800 100 116 115
24.5136 3.3398 77.7413 -0.581 -0.566 -0.585 88 100 100
24.8217 3.4130 77.9705 0.138 -0.574 -0.807 84 96 96
25.1437 3.3628 77.9575 0.160 -0.617 -0.770 72 84 84
25.2765 3.3190 77.9063 -0.062 -0.263 -0.963 63 73 74
25.5270 3.3525 78.0407 -0.575 -0.303 -0.760 45 54 53
25.8628 3.3106 78.0483 -0.027 -0.660 -0.750 65 74 73
27.4171 3.4009 78.6486 0.090 -0.200 -0.976 57 67 66
27.8778 3.4340 78.8393 0.312 -0.169 -0.935 41 53 53
28.0083 3.3879 78.7827 0.242 -0.267 -0.933 45 60 56
28.0052 3.2590 78.5252 0.388 -0.518 -0.762 61 76 71
28.2696 3.2961 78.6707 0.167 -0.488 -0.857 72 87 82
28.5198 3.3240 78.7939 0.202 -0.515 -0.833 71 86 81
29.8591 3.3844 79.2767 0.274 0.007 -0.962 81 97 98
29.9185 3.2954 79.1156 0.157 -0.527 -0.835 66 82 82
30.1159 3.2892 79.1566 0.157 -0.527 -0.835 51 68 67
30.2251 3.2304 79.0690 0.169 -0.693 -0.701 45 61 61
30.4181 3.2213 79.1032 0.096 -0.721 -0.686 45 61 61
30.5734 3.1899 79.0827 0.171 -0.699 -0.694 47 64 63
31.1441 3.4020 79.6594 0.179 -0.561 -0.808 54 70 70
31.5612 3.3992 79.7668 0.387 -0.742 -0.548 52 69 69
32.9875 3.2432 79.8421 0.108 -0.278 -0.954 86 109 106
33.1359 3.2065 79.8093 0.004 -0.210 -0.978 112 135 133
33.5220 3.1832 79.8673 0.158 -0.288 -0.944 158 182 180
33.7617 3.1972 79.9601 0.239 -0.242 -0.940 153 179 177
34.0118 3.2166 80.0664 0.255 -0.257 -0.932 152 178 178
34.2032 3.2034 80.0918 0.260 -0.259 -0.930 147 174 175
35.6632 3.7651 81.6055 0.209 -0.624 -0.753 126 154 154
36.1345 3.7812 81.7650 0.226 -0.656 -0.720 146 178 175
36.6942 3.8437 82.0409 0.409 -0.618 -0.671 112 148 138
36.9511 3.8619 82.1467 0.411 -0.628 -0.661 73 109 94
37.2155 3.8838 82.2619 0.415 -0.629 -0.657 82 116 98
38.0586 3.9734 82.6684 0.350 -0.671 -0.654 92 122 98
38.3326 3.9987 82.7929 0.340 -0.677 -0.653 97 128 100
-51.4491 22.6255 95.1830 -0.146 -0.476 -0.867 71 103 115
-50.4678 22.0070 94.2210 -0.840 -0.103 -0.532 247 248 253
-50.1980 21.8062 93.8956 -0.842 -0.113 -0.527 248 248 254
-49.9722 21.6810 93.7081 -0.826 -0.123 -0.550 239 243 248
-49.5775 21.2553 92.9706 -0.352 0.448 -0.822 243 253 254
-49.2075 21.1428 92.8470 -0.290 0.347 -0.892 193 214 217
-49.0047 21.0539 92.7253 -0.310 0.317 -0.896 90 114 118
-48.4561 20.8933 92.5546 -0.333 0.304 -0.892 60 87 84
-48.2612 20.8170 92.4558 -0.333 0.304 -0.892 56 85 83
-48.1020 20.8065 92.4779 -0.063 0.290 -0.955 54 86 83
-42.0555 18.0986 88.7368 -0.622 -0.494 -0.608 157 187 213
-41.8448 17.9618 88.5221 -0.161 -0.763 -0.626 148 178 206
-41.4977 17.8564 88.4067 -0.362 -0.771 -0.525 156 188 201
-40.6782 17.3397 87.6030 -0.156 -0.266 -0.951 180 214 223
-40.4561 17.1648 87.3160 -0.642 -0.635 -0.429 180 214 223
-39.1224 16.8245 87.0002 -0.743 -0.414 -0.526 200 230 233
-37.9774 15.7589 85.1960 -0.660 -0.623 -0.420 189 221 232
-37.7819 16.0344 85.7946 -0.624 -0.564 -0.542 187 222 228
-36.0001 15.6214 85.4552 -0.687 -0.715 -0.127 152 184 195
-35.8244 15.5401 85.3414 -0.619 -0.767 -0.171 150 183 192
-35.4598 15.3316 85.0262 -0.639 -0.744 -0.194 180 210 218
-34.6196 15.0207 84.6358 -0.298 -0.743 -0.599 150 181 186
-34.5098 15.1549 84.9315 -0.241 -0.655 -0.716 149 180 185
-34.3473 15.1110 84.8882 -0.371 -0.705 -0.605 150 181 186
-29.4250 12.4641 80.9656 -0.758 -0.634 -0.153 160 192 203
-25.9634 12.0295 81.0353 0.217 -0.581 -0.785 195 228 235
-25.8147 12.0368 81.0897 0.434 -0.543 -0.719 195 228 235
-25.2449 10.6365 78.4674 -0.423 0.246 -0.872 199 230 235
-25.0957 10.5854 78.4061 -0.406 0.218 -0.887 199 230 235
-24.9447 10.5099 78.2971 -0.274 0.209 -0.939 185 216 221
-24.0633 10.3591 78.2353 -0.046 -0.206 -0.978 185 214 218
-23.4750 10.2464 78.1702 -0.093 0.036 -0.995 190 220 222
-19.0680 9.3808 77.6397 -0.396 -0.102 -0.912 143 167 167
-18.9325 9.2162 77.3499 -0.218 -0.782 -0.585 144 169 166
-18.7926 9.1143 77.1856 0.394 -0.710 -0.583 147 170 169
-18.6440 9.1169 77.2308 0.362 -0.711 -0.603 146 170 168
-18.4963 9.1068 77.2505 0.149 -0.808 -0.570 147 169 166
-18.3426 9.1564 77.3900 0.113 -0.880 -0.462 147 170 167
-18.2450 8.6509 76.4143 -0.362 -0.503 -0.785 148 173 169
-18.1023 8.6063 76.3643 -0.209 -0.685 -0.698 148 172 171
-17.9585 8.5732 76.3374 -0.190 -0.682 -0.706 141 176 175
-13.4392 7.2944 75.0183 -0.063 0.222 -0.973 151 170 168
-13.1527 7.2462 74.9997 -0.064 0.175 -0.982 151 171 166
-12.5088 7.4120 75.5017 0.266 0.339 -0.902 152 170 166
-11.7446 7.4340 75.7507 -0.409 -0.357 -0.840 156 173 168
-10.8584 7.3349 75.7928 0.517 -0.504 -0.692 164 176 170
-10.7587 7.1678 75.4882 -0.200 -0.675 -0.710 164 177 170
-10.1427 6.7293 74.7848 -0.613 -0.495 -0.616 113 124 118
-8.9215 6.7248 75.1044 -0.885 0.270 -0.379 117 121 107
-8.8214 6.5841 74.8525 -0.885 0.263 -0.385 98 103 91
-8.5280 6.5489 74.8616 0.020 -0.984 -0.174 111 120 119
-8.1742 6.6635 75.1839 -0.193 -0.981 0.010 123 132 131
-8.0336 6.6282 75.1517 -0.183 -0.983 0.009 121 130 129
-7.9618 6.4256 74.7695 0.229 -0.970 0.077 116 125 124
-7.7913 6.4649 74.8933 0.234 -0.969 0.075 110 119 118
-7.6314 6.4774 74.9609 0.264 -0.962 0.067 104 113 112
-7.2460 6.2921 74.6974 -0.620 -0.725 -0.302 98 104 104
-7.3529 5.6933 73.4817 0.078 -0.372 -0.925 109 115 115
-6.3566 6.1984 74.7509 0.624 -0.420 -0.659 97 99 97
-6.1688 6.2671 74.9376 0.606 -0.374 -0.703 97 99 96
-5.9930 6.3086 75.0671 0.606 -0.374 -0.703 97 99 96
-3.9843 5.9165 74.8301 -0.865 0.075 -0.496 82 87 91
-3.8942 5.7897 74.6030 -0.843 0.078 -0.532 69 74 77
-3.7957 5.6799 74.4119 -0.835 0.048 -0.548 53 58 62
-3.5335 5.5828 74.2899 -0.025 0.150 -0.988 86 91 95
-0.1973 5.2849 74.5968 -0.772 -0.611 -0.175 121 132 134
2.2386 4.5874 73.8695 0.644 -0.696 -0.317 96 106 102
2.4779 4.6882 74.1338 0.644 -0.696 -0.317 101 110 105
2.7192 4.7899 74.4001 0.644 -0.696 -0.317 115 124 119
2.9430 4.8669 74.6131 0.651 -0.678 -0.341 124 133 128
3.1314 4.8966 74.7225 0.493 -0.699 -0.517 138 145 138
3.9954 4.1113 73.3985 0.318 -0.790 -0.524 134 136 131
5.5039 4.1330 73.8471 -0.777 0.022 -0.629 116 117 112
5.6227 4.0774 73.7688 -0.735 0.028 -0.678 114 115 110
6.2072 3.7937 73.3638 -0.211 -0.467 -0.859 137 142 136
6.3177 3.7310 73.2691 0.072 -0.602 -0.795 127 132 126
9.0826 3.6195 73.7920 -0.230 -0.683 -0.694 119 126 119
9.2891 3.6550 73.9179 -0.271 -0.429 -0.861 119 126 119
9.5573 3.5802 73.8418 -0.385 -0.374 -0.844 120 126 122
9.6892 3.5408 73.7990 -0.385 -0.374 -0.844 120 125 121
10.2265 3.5612 73.9839 0.069 -0.253 -0.965 92 100 95
10.4031 3.5648 74.0386 0.068 -0.261 -0.963 86 95 90
10.5618 3.5508 74.0535 0.068 -0.261 -0.963 96 102 98
10.7193 3.5356 74.0658 0.107 -0.359 -0.927 96 102 98
10.8665 3.5105 74.0557 0.013 -0.367 -0.930 95 101 97
11.0097 3.4816 74.0369 -0.003 -0.486 -0.874 102 107 103
11.1696 3.4684 74.0538 -0.320 -0.620 -0.716 110 115 111
11.3069 3.4339 74.0224 -0.320 -0.620 -0.716 109 115 111
11.4473 3.4024 73.9975 -0.159 -0.519 -0.840 110 116 112
11.5837 3.3672 73.9646 -0.304 -0.442 -0.844 113 119 115
12.3962 3.4697 74.3862 -0.526 -0.565 -0.635 103 109 107
12.6662 3.3953 74.3114 -0.790 -0.401 -0.464 103 111 106
12.9984 3.2200 74.0533 -0.119 -0.556 -0.823 105 119 112
13.1327 3.1829 74.0159 -0.116 -0.561 -0.820 101 114 107
14.6837 3.4461 74.9548 0.006 0.375 -0.927 97 107 99
15.6893 3.2307 74.7982 0.272 -0.572 -0.774 115 125 120
16.6085 3.2391 75.0622 -0.005 -0.375 -0.927 118 127 118
16.7683 3.2207 75.0687 -0.005 -0.375 -0.927 135 141 135
17.7825 3.8819 76.6521 -0.214 -0.631 -0.745 138 143 137
17.9066 3.8319 76.5864 -0.124 -0.649 -0.751 129 136 128
17.2677 3.1810 75.1243 0.013 -0.778 -0.629 130 137 130
17.5593 3.1215 75.0849 0.052 -0.758 -0.650 120 127 120
17.7882 3.1564 75.2155 0.136 -0.784 -0.606 120 125 121
18.0034 3.1801 75.3204 0.199 -0.713 -0.672 120 125 121
18.1553 3.1545 75.3106 0.273 -0.736 -0.619 120 125 121
18.4464 3.2357 75.5498 0.561 -0.606 -0.564 121 126 122
21.0484 3.2121 76.2030 -0.856 -0.468 -0.221 118 130 126
21.3761 3.1738 76.2150 -0.617 -0.782 -0.091 120 131 127
21.5212 3.0060 75.9215 0.228 -0.548 -0.805 107 122 118
24.0599 3.5565 77.6955 0.267 -0.343 -0.900 98 114 113
24.5689 3.5001 77.7207 -0.547 -0.562 -0.621 88 100 100
24.8545 3.5586 77.9134 0.177 -0.495 -0.851 85 97 97
26.1473 3.3596 77.8669 0.010 -0.277 -0.961 59 69 68
26.0351 3.1584 77.4378 0.427 -0.662 -0.616 60 71 67
27.8817 3.5626 78.7357 0.178 -0.954 -0.240 43 54 53
28.0904 3.5653 78.7972 -0.289 -0.952 -0.104 53 67 62
29.1490 3.4579 78.8690 0.086 -0.817 -0.571 85 97 95
29.6341 3.5014 79.0858 -0.337 -0.265 -0.903 85 98 98
29.7754 3.4615 79.0447 -0.337 -0.265 -0.903 85 97 97
29.9458 3.4392 79.0463 -0.069 -0.491 -0.868 69 81 81
30.1003 3.4073 79.0245 0.112 -0.541 -0.834 55 68 68
30.1626 3.3205 78.8692 0.289 -0.667 -0.687 54 67 65
30.5667 3.3134 78.9640 0.060 -0.724 -0.687 55 67 65
31.1205 3.5167 79.5158 0.235 -0.548 -0.803 56 70 67
30.9731 3.3069 79.0604 0.060 -0.733 -0.677 55 70 67
31.2913 3.2483 79.0298 -0.227 -0.468 -0.854 68 80 77
32.4223 3.2931 79.4227 0.130 -0.363 -0.923 50 66 64
33.0260 3.3945 79.7862 0.119 -0.278 -0.953 49 69 65
33.2128 3.3795 79.8066 0.012 -0.236 -0.972 39 58 54
33.2897 3.3026 79.6750 0.191 -0.517 -0.835 49 69 65
33.5064 3.3043 79.7365 0.160 -0.539 -0.827 64 85 81
33.8218 3.3607 79.9332 0.239 -0.242 -0.940 85 107 103
34.0707 3.3796 80.0376 0.255 -0.257 -0.932 89 111 108
34.2719 3.3717 80.0761 0.317 -0.529 -0.787 92 116 112
35.6641 3.8987 81.4951 0.209 -0.624 -0.753 75 100 94
36.1280 3.9111 81.6446 0.226 -0.656 -0.720 126 157 149
36.9566 3.9992 82.0420 0.452 -0.564 -0.691 98 132 118
37.2565 4.0404 82.2044 0.452 -0.564 -0.691 84 116 102
37.5158 4.0593 82.3116 0.345 -0.629 -0.697 79 107 86
37.7688 4.0745 82.4098 0.350 -0.671 -0.654 103 131 108
38.0388 4.0984 82.5297 0.350 -0.671 -0.654 102 130 108
38.3096 4.1223 82.6500 0.350 -0.671 -0.654 109 136 111
-52.1997 23.0220 95.3672 -0.853 -0.430 -0.297 149 183 183
-51.5687 22.7474 94.9940 0.022 -0.943 -0.333 78 112 119
-51.4164 23.0236 95.5797 -0.075 0.598 -0.798 75 104 113
-50.2253 22.0373 93.9519 -0.847 -0.109 -0.521 235 240 249
-49.9673 21.8553 93.6618 -0.826 -0.123 -0.550 235 244 249
-48.8759 21.2810 92.8203 -0.325 0.322 -0.890 48 72 78
-48.6799 21.2041 92.7211 -0.325 0.322 -0.890 53 77 82
-48.5007 21.1575 92.6770 -0.397 0.304 -0.866 58 86 85
-47.7297 20.5794 91.7423 -0.249 -0.772 -0.585 60 92 87
-47.1703 20.3877 91.5136 -0.792 -0.309 -0.527 56 86 84
-43.4726 18.7436 89.2579 -0.240 -0.616 -0.750 184 219 223
-43.2981 18.6930 89.2047 -0.333 -0.681 -0.652 182 217 221
-42.9922 18.6861 89.2728 -0.043 -0.580 -0.813 168 203 206
-41.4654 17.9647 88.2573 -0.259 -0.733 -0.630 169 202 215
-40.9461 17.8060 88.0831 -0.387 -0.827 -0.407 178 212 221
-40.4336 17.2932 87.2083 -0.645 -0.620 -0.447 180 214 223
-39.0996 16.9509 86.8893 -0.722 -0.491 -0.487 178 211 217
-38.1140 15.9134 85.1056 -0.705 -0.533 -0.468 188 221 230
-38.0310 16.0890 85.4742 -0.071 -0.860 -0.506 189 221 232
-37.6013 16.1323 85.6746 -0.172 -0.661 -0.731 185 220 226
-37.4426 16.1046 85.6623 -0.172 -0.661 -0.731 182 217 223
-37.2739 16.0484 85.5966 -0.190 -0.671 -0.717 160 195 201
-37.1076 15.9984 85.5425 -0.321 -0.657 -0.682 141 174 181
-36.9428 15.9527 85.4963 -0.306 -0.664 -0.682 144 177 186
-36.8199 16.0297 85.6810 0.254 -0.364 -0.896 148 180 191
-35.4131 15.3743 84.7639 -0.651 -0.743 -0.159 180 210 218
-34.5862 15.1021 84.4477 -0.308 -0.741 -0.597 150 181 186
-34.4735 15.2267 84.7237 -0.352 -0.692 -0.631 149 180 185
-28.9741 12.6256 81.0613 -0.529 -0.848 0.027 175 207 216
-28.0923 10.7901 77.6751 0.228 -0.186 -0.956 185 218 222
-27.4036 11.9663 80.1801 0.332 -0.236 -0.913 190 222 227
-27.1356 11.0572 78.4579 -0.548 0.563 -0.619 192 223 229
-26.9779 12.0854 80.5289 0.156 -0.834 -0.530 193 223 230
-26.7944 11.7931 80.0012 -0.271 0.076 -0.960 194 224 231
-26.6423 11.7489 79.9548 -0.271 0.076 -0.960 193 223 231
-26.4875 11.6801 79.8604 0.429 -0.725 -0.539 193 223 230
-26.3372 11.6492 79.8395 0.332 -0.668 -0.667 194 224 231
-25.7970 12.1573 80.9866 0.388 0.291 -0.874 198 228 233
-25.3431 12.1085 81.0116 0.128 0.511 -0.850 206 235 240
-24.7869 10.6808 78.3431 -0.204 0.141 -0.969 196 225 229
-24.6394 10.6510 78.3237 -0.100 0.130 -0.986 189 217 221
-24.0486 10.5098 78.2029 -0.046 -0.206 -0.978 158 185 187
-23.6078 10.4434 78.1897 -0.093 0.036 -0.995 133 161 161
-23.4606 10.4159 78.1750 -0.093 0.036 -0.995 133 160 160
-23.3106 10.3090 78.0040 -0.493 -0.043 -0.869 137 164 161
-21.1082 9.8590 77.7048 -0.108 0.495 -0.862 143 168 164
-20.9617 9.8266 77.6801 -0.112 0.487 -0.866 140 166 165
-13.2592 7.4800 75.1088 -0.192 -0.224 -0.956 156 169 167
-11.7263 7.5679 75.6920 -0.427 -0.338 -0.838 175 189 189
-11.3508 7.2964 75.2567 -0.079 0.588 -0.805 148 162 161
-11.0461 7.2985 75.3422 0.018 0.210 -0.978 148 162 161
-10.8430 7.4592 75.7137 0.517 -0.504 -0.692 132 143 138
-10.7497 7.2719 75.3690 -0.192 -0.686 -0.702 126 137 131
-10.3683 7.0398 75.0130 -0.992 -0.052 -0.116 93 102 97
-10.1434 6.8056 74.6109 -0.675 -0.570 -0.468 109 118 113
-7.1621 5.8680 73.5578 0.028 -0.524 -0.851 85 91 89
-7.0366 5.8068 73.4706 0.016 -0.641 -0.767 82 88 86
-4.2746 6.3650 75.3105 -0.416 -0.195 -0.888 92 96 97
-4.1828 6.2362 75.0810 -0.927 -0.135 -0.350 89 93 94
-3.9514 6.0737 74.8221 -0.869 0.047 -0.492 73 80 81
-3.8486 5.9699 74.6448 -0.865 0.053 -0.499 79 88 88
-3.7551 5.8504 74.4339 -0.859 0.051 -0.509 90 99 99
-3.3571 5.7123 74.2678 -0.029 0.136 -0.990 105 114 114
-1.4528 5.6960 74.7449 -0.216 -0.971 -0.106 111 115 116
2.2533 4.7106 73.7910 0.669 -0.641 -0.376 103 110 103
2.4967 4.8172 74.0666 0.664 -0.649 -0.372 103 110 103
3.6526 4.8192 74.3794 0.202 -0.834 -0.513 120 127 120
4.1464 4.1998 73.2893 -0.767 -0.500 -0.403 117 122 118
5.6815 4.6427 74.5736 0.690 -0.538 -0.484 110 114 109
5.7693 4.1608 73.6462 -0.718 0.054 -0.693 79 84 78
6.0049 4.0486 73.4878 -0.638 0.063 -0.767 114 119 113
6.1341 4.0059 73.4381 -0.351 0.035 -0.936 113 118 111
6.2630 3.9631 73.3881 -0.351 0.035 -0.936 112 117 111
7.1100 4.3436 74.3654 0.744 -0.398 -0.536 125 132 125
7.4362 4.5151 74.7909 0.751 -0.557 -0.356 125 132 125
8.0021 4.7573 75.4202 0.594 -0.707 -0.383 117 126 121
7.3520 3.8699 73.4953 -0.670 -0.348 -0.656 117 126 121
7.4082 3.7495 73.2726 0.015 -0.092 -0.996 119 128 123
7.6265 3.8029 73.4364 0.380 -0.644 -0.664 125 134 129
8.6022 3.7605 73.6137 -0.269 -0.248 -0.931 121 131 122
8.7558 3.7435 73.6211 -0.225 -0.243 -0.944 113 123 114
9.5547 3.6875 73.7243 -0.301 -0.407 -0.862 119 125 121
9.7450 3.7060 73.8117 -0.066 -0.541 -0.839 126 132 128
9.9127 3.7018 73.8481 0.145 -0.574 -0.806 119 125 121
10.4226 3.6943 73.9698 0.107 -0.503 -0.858 95 101 97
10.5791 3.6783 73.9800 0.126 -0.512 -0.850 100 106 102
10.7529 3.6788 74.0274 0.096 -0.512 -0.854 101 107 103
10.8785 3.6329 73.9705 -0.420 -0.513 -0.749 101 107 103
11.0093 3.5922 73.9251 -0.420 -0.513 -0.749 104 110 106
11.1739 3.5836 73.9522 -0.320 -0.620 -0.716 109 115 111
11.3260 3.5631 73.9523 -0.147 -0.744 -0.652 110 116 114
11.4575 3.5232 73.9087 -0.105 -0.465 -0.879 109 115 111
11.8639 3.5766 74.1227 0.413 -0.430 -0.803 118 124 120
12.2951 3.6505 74.3839 -0.529 -0.604 -0.596 108 114 110
12.6550 3.4977 74.1786 -0.784 -0.399 -0.475 97 104 98
12.7684 3.4413 74.0977 -0.790 -0.401 -0.464 101 111 106
13.0013 3.3349 73.9499 -0.094 -0.577 -0.811 110 122 118
13.1537 3.3138 73.9491 0.180 -0.364 -0.914 111 123 116
13.3175 3.3028 73.9711 0.177 -0.372 -0.911 105 115 109
13.4846 3.2945 73.9994 0.245 -0.398 -0.884 105 116 112
14.7104 3.5834 74.8973 -0.045 -0.046 -0.998 110 120 112
14.9320 3.6187 75.0261 0.006 0.375 -0.927 119 129 121
15.0829 3.5936 75.0169 0.006 0.375 -0.927 106 116 108
15.3164 3.4861 74.8672 0.041 -0.691 -0.722 99 108 103
15.4608 3.4559 74.8461 0.073 -0.695 -0.715 120 129 124
15.6302 3.4463 74.8727 0.073 -0.695 -0.715 127 136 131
17.4083 3.8500 76.1445 0.575 -0.783 -0.236 130 137 129
17.0914 3.3026 74.9796 -0.126 -0.500 -0.856 143 150 140
17.2434 3.2779 74.9715 -0.126 -0.500 -0.856 142 149 141
17.4045 3.2604 74.9800 -0.033 -0.419 -0.907 141 148 140
17.5925 3.2637 75.0369 0.165 -0.499 -0.851 126 131 124
17.8325 3.3075 75.1875 0.261 -0.707 -0.657 126 131 125
18.1962 3.4466 75.5592 0.535 -0.753 -0.384 126 131 125
19.7018 4.0265 77.1060 0.538 -0.764 -0.356 116 126 118
21.5249 3.1280 75.8204 0.236 -0.518 -0.822 101 113 108
23.1710 3.3381 76.6751 0.260 -0.509 -0.820 102 118 117
24.2728 3.6902 77.6645 -0.494 -0.611 -0.618 97 111 111
24.4017 3.6438 77.6073 -0.494 -0.611 -0.618 89 101 101
24.5529 3.6125 77.5859 -0.546 -0.553 -0.629 89 101 101
24.7724 3.6271 77.6734 0.230 -0.516 -0.825 83 95 95
24.7988 3.5123 77.4540 0.528 -0.348 -0.775 76 88 88
25.3598 3.6216 77.8196 -0.247 -0.185 -0.951 72 82 83
25.6709 3.5639 77.7890 0.035 -0.263 -0.964 40 49 48
26.1949 3.5146 77.8318 -0.003 -0.284 -0.959 63 72 71
27.6924 3.5693 78.3401 0.150 -0.958 -0.244 43 54 53
27.9863 3.6262 78.5308 -0.289 -0.952 -0.104 56 69 65
29.0795 3.5421 78.6573 -0.304 -0.369 -0.878 83 97 97
29.5037 3.6753 79.0336 -0.018 0.215 -0.976 83 97 98
30.1368 3.4323 78.7232 0.294 -0.609 -0.737 59 73 73
30.3760 3.4512 78.8245 0.307 -0.606 -0.733 59 74 71
30.5545 3.4337 78.8376 0.056 -0.687 -0.724 58 73 70
33.2116 3.6296 79.9347 0.172 -0.125 -0.977 61 80 78
33.2632 3.5377 79.7670 0.071 -0.148 -0.986 59 78 76
33.4160 3.5033 79.7401 0.141 -0.136 -0.981 62 81 79
33.6103 3.4923 79.7702 0.122 -0.130 -0.984 65 84 82
33.8423 3.5023 79.8520 0.264 -0.295 -0.918 65 86 81
34.0340 3.4894 79.8779 0.112 -0.716 -0.689 64 87 81
34.2386 3.4837 79.9212 0.118 -0.712 -0.693 65 88 81
36.1172 4.0386 81.5185 0.223 -0.664 -0.714 50 82 71
37.5086 4.1903 82.1898 0.345 -0.629 -0.697 62 88 68
37.7061 4.1761 82.2146 0.381 -0.603 -0.701 80 105 82
38.1285 4.2815 82.5356 -0.051 -0.878 -0.476 75 100 79
38.3141 4.2603 82.5433 0.043 -0.882 -0.470 88 112 91
-50.3185 19.5493 88.6479 0.286 -0.743 -0.605 165 200 196
-51.5060 22.8244 94.7663 0.016 -0.934 -0.357 81 116 122
-51.4910 23.6131 96.3197 -0.915 -0.160 -0.370 68 91 99
-48.9001 21.5077 92.8721 -0.169 0.191 -0.967 61 84 90
-48.0547 21.0832 92.2628 -0.556 -0.071 -0.828 51 82 77
-46.3671 21.1128 92.7693 -0.874 0.061 -0.481 56 80 90
-43.4491 18.8750 89.1486 -0.232 -0.671 -0.704 179 214 218
-41.7781 18.1741 88.2158 -0.215 -0.714 -0.666 125 156 177
-41.4430 18.0957 88.1507 -0.192 -0.746 -0.638 173 207 220
-40.9039 17.8889 87.8877 -0.393 -0.825 -0.406 178 212 222
-40.6823 17.7171 87.6091 -0.125 -0.275 -0.953 179 213 222
-40.5479 17.7564 87.7220 -0.665 -0.286 -0.690 179 213 222
-39.8215 17.4473 87.3078 -0.615 -0.708 -0.348 121 154 163
-39.2584 17.1595 86.8921 -0.511 -0.665 -0.545 111 144 153
-39.0715 17.0633 86.7528 -0.737 -0.418 -0.531 181 213 219
-38.0820 16.0103 84.9470 -0.705 -0.533 -0.468 186 219 227
-37.4190 16.2248 85.5446 -0.275 -0.532 -0.801 182 217 223
-35.3576 15.3880 84.4485 -0.721 -0.499 -0.480 181 211 219
-35.1955 15.3437 84.4046 -0.224 -0.713 -0.665 176 206 214
-35.0369 15.3110 84.3824 -0.171 -0.761 -0.626 175 205 213
-34.8637 15.2294 84.2681 -0.192 -0.789 -0.584 168 198 206
-34.7151 15.2293 84.3075 -0.155 -0.802 -0.577 161 192 197
-34.5808 15.2787 84.4401 -0.008 -0.606 -0.796 150 181 186
-34.4921 15.4873 84.8736 -0.431 -0.488 -0.759 149 180 185
-31.0300 12.9104 80.7311 0.567 -0.184 -0.803 156 187 203
-30.7389 12.9047 80.7972 0.534 -0.070 -0.842 159 188 207
-30.5355 13.3225 81.6721 0.856 -0.200 -0.476 157 187 205
-28.1914 11.6421 78.9938 -0.777 -0.271 -0.568 189 218 221
-28.0947 11.9472 79.6189 -0.193 -0.292 -0.937 191 220 223
-27.3924 12.1344 80.1733 0.458 -0.383 -0.802 182 210 214
-27.0558 11.8034 79.6125 -0.540 0.124 -0.832 196 223 228
-26.9169 11.8601 79.7608 -0.383 0.052 -0.922 195 223 227
-26.7792 11.9325 79.9395 -0.369 0.023 -0.929 197 224 229
-26.4683 11.7856 79.7336 0.429 -0.725 -0.539 209 236 241
-25.0745 10.9750 78.5115 -0.368 0.178 -0.913 142 167 171
-24.9233 10.9027 78.4097 -0.384 0.168 -0.908 132 157 161
-24.6270 10.8302 78.3461 -0.100 0.130 -0.986 126 152 154
-24.0338 10.6606 78.1705 -0.046 -0.206 -0.978 149 173 172
-23.5936 10.6133 78.1945 -0.093 0.036 -0.995 149 173 170
-23.4462 10.5859 78.1798 -0.093 0.036 -0.995 148 172 169
-23.2957 10.4693 77.9908 -0.501 -0.052 -0.864 147 170 168
-23.0035 10.4816 78.0926 -0.070 0.121 -0.990 146 168 165
-21.2387 10.0299 77.6742 0.212 0.227 -0.951 152 175 167
-18.2386 8.6564 75.7731 0.291 -0.865 -0.410 141 167 165
-15.0927 11.3754 81.9506 0.043 -0.963 0.264 227 254 60
-13.3812 7.6531 75.0929 -0.168 -0.205 -0.964 150 164 159
-13.2390 7.6229 75.0714 -0.192 -0.224 -0.956 131 141 140
-13.0954 7.5981 75.0608 -0.057 0.164 -0.985 125 135 134
-12.9503 7.5792 75.0622 -0.008 0.149 -0.989 124 134 133
-12.5982 7.7757 75.5418 -0.334 0.421 -0.843 97 107 106
-12.4305 7.8366 75.7060 0.272 0.334 -0.902 91 101 100
-12.3368 7.6230 75.3113 0.510 0.274 -0.815 90 100 99
-10.7403 7.3771 75.2525 -0.363 -0.612 -0.702 53 64 58
-10.1090 6.9847 74.6492 -0.484 -0.552 -0.679 105 114 109
-9.9725 6.9396 74.5970 -0.492 -0.540 -0.683 109 118 112
-9.7923 7.0202 74.8032 -0.713 -0.569 -0.409 106 111 105
-6.8660 5.9347 73.4483 0.009 -0.529 -0.848 85 91 89
-6.5375 6.3222 74.2969 0.612 -0.772 -0.169 85 91 89
-5.9375 6.6103 75.0223 0.615 -0.760 -0.210 90 92 91
-4.0897 6.2071 74.7212 -0.932 -0.030 -0.360 84 89 90
-3.9666 6.1408 74.6236 -0.820 -0.269 -0.505 77 85 84
-3.8701 6.0255 74.4228 -0.757 -0.274 -0.593 85 94 93
-3.7436 5.9671 74.3417 -0.751 -0.251 -0.611 97 106 103
-3.4255 5.9707 74.4332 0.049 -0.200 -0.979 102 111 108
-3.3013 5.9089 74.3449 0.002 -0.004 -1.000 101 110 109
-3.1738 5.8536 74.2702 -0.217 -0.082 -0.973 104 110 110
-2.8790 6.0955 74.8237 -0.749 -0.085 -0.657 105 111 111
-1.2004 5.6835 74.4603 -0.157 -0.988 0.002 117 121 122
-1.0331 5.6939 74.5252 0.098 -0.995 0.025 116 120 121
-0.9258 5.6083 74.3856 0.220 -0.971 -0.096 122 126 127
-0.7434 5.6420 74.5002 0.205 -0.975 -0.088 127 131 132
-0.5058 5.7609 74.7969 0.138 -0.990 -0.023 131 135 136
-0.3299 5.7818 74.8848 0.144 -0.988 -0.060 129 134 137
0.0135 4.8385 73.1228 0.129 -0.334 -0.934 125 130 133
2.0049 5.3684 74.6931 0.267 -0.774 -0.574 109 116 109
3.2784 5.0828 74.4704 0.446 -0.293 -0.845 135 142 135
5.6807 4.7494 74.4538 0.690 -0.538 -0.484 117 122 116
5.7699 4.2680 73.5318 -0.381 0.226 -0.897 115 120 116
5.8864 4.2104 73.4495 -0.390 0.200 -0.899 118 123 117
6.4088 4.0462 73.2658 -0.252 0.129 -0.959 122 127 121
6.5917 4.0639 73.3492 0.463 -0.402 -0.790 121 128 121
7.2450 4.0442 73.4840 -0.666 -0.384 -0.639 117 126 121
7.3705 3.9977 73.4262 -0.664 -0.353 -0.659 116 125 120
7.4453 3.8969 73.2479 0.047 -0.496 -0.867 118 127 122
8.1116 3.8882 73.4079 0.264 -0.619 -0.740 114 124 116
8.5748 3.8410 73.4383 0.248 -0.201 -0.948 97 107 99
8.7487 3.8451 73.4926 -0.025 -0.154 -0.988 97 107 99
8.9496 3.8765 73.6077 0.026 -0.527 -0.849 101 111 103
9.1116 3.8678 73.6335 -0.007 -0.536 -0.844 106 116 108
9.3006 3.8860 73.7195 -0.050 -0.678 -0.734 109 116 109
9.4570 3.8710 73.7317 -0.059 -0.669 -0.741 108 115 108
9.5520 3.7945 73.6065 -0.270 -0.531 -0.803 112 118 114
9.6669 3.7382 73.5265 -0.283 -0.541 -0.792 118 124 120
9.9261 3.8252 73.7662 -0.099 -0.654 -0.750 120 126 122
10.1173 3.8439 73.8539 0.296 -0.272 -0.916 119 124 120
10.3033 3.8572 73.9293 0.298 -0.277 -0.914 111 117 113
10.4503 3.8319 73.9188 0.279 -0.339 -0.898 105 111 107
10.6189 3.8276 73.9550 0.285 -0.325 -0.902 87 93 89
10.9029 3.7672 73.9119 -0.420 -0.310 -0.853 80 86 82
11.0322 3.7251 73.8635 -0.420 -0.310 -0.853 90 96 92
11.1629 3.6843 73.8181 -0.450 -0.525 -0.722 111 117 113
11.3185 3.6672 73.8259 -0.179 -0.747 -0.640 110 116 114
12.9882 4.7327 76.3628 0.293 -0.068 -0.954 118 123 117
12.4141 3.7108 74.2027 -0.564 -0.545 -0.621 106 111 106
12.5512 3.6754 74.1696 -0.591 -0.519 -0.618 108 113 109
12.6701 3.6236 74.0995 -0.591 -0.519 -0.618 108 113 107
13.0235 3.4670 73.8856 -0.277 -0.739 -0.614 113 124 120
15.0480 3.6789 74.8399 0.071 -0.182 -0.981 110 120 112
15.1295 3.5954 74.6975 -0.191 -0.503 -0.843 107 117 109
15.2875 3.5767 74.7027 -0.215 -0.551 -0.807 104 113 108
15.4919 3.5968 74.7965 0.155 -0.544 -0.825 119 128 123
16.4672 3.5035 74.8725 0.223 -0.733 -0.643 124 131 124
16.6011 3.4645 74.8314 0.064 -0.738 -0.672 124 131 124
16.7688 3.4527 74.8528 0.049 -0.725 -0.687 125 132 124
17.9086 4.0704 76.3691 -0.182 0.141 -0.973 137 144 136
17.4179 3.5324 75.1819 0.131 0.063 -0.989 136 143 135
17.7044 3.4680 75.1315 0.304 -0.003 -0.953 132 139 132
18.7237 3.5408 75.5454 0.443 0.017 -0.896 120 127 120
19.7617 4.0473 76.8163 0.261 -0.853 -0.452 113 124 116
20.3282 4.0439 76.9601 -0.069 -0.926 -0.372 107 123 113
22.9685 3.4533 76.5014 -0.279 -0.090 -0.956 100 116 115
23.1123 3.4188 76.4718 -0.157 -0.326 -0.932 95 111 110
23.2901 3.4078 76.4975 -0.073 -0.472 -0.878 92 108 107
23.4272 3.3688 76.4573 -0.028 -0.422 -0.906 94 108 108
23.5920 3.3488 76.4618 -0.058 -0.463 -0.884 91 105 105
23.7028 3.2920 76.3796 -0.311 -0.389 -0.867 89 101 101
24.5620 3.7417 77.4915 -0.407 -0.682 -0.608 90 102 102
24.7742 3.7516 77.5672 0.276 -0.492 -0.826 86 98 98
25.8962 3.7048 77.7735 0.023 -0.284 -0.959 87 96 95
26.2362 3.6657 77.7870 -0.003 -0.284 -0.959 69 78 77
27.4895 3.8239 78.4308 -0.159 -0.397 -0.904 47 57 56
27.6479 3.7954 78.4170 -0.221 -0.460 -0.860 49 59 58
27.7969 3.7610 78.3889 -0.220 -0.707 -0.672 48 59 57
27.9521 3.7305 78.3702 -0.220 -0.707 -0.672 54 67 63
28.1262 3.7119 78.3800 -0.113 -0.714 -0.691 67 82 77
28.2911 3.6875 78.3758 -0.114 -0.710 -0.694 82 97 92
28.7801 3.7372 78.6035 0.374 -0.512 -0.773 87 102 97
31.6433 3.9586 79.7992 0.239 0.087 -0.967 55 71 68
31.8708 3.9681 79.8783 0.277 0.094 -0.956 53 68 65
32.7560 3.7426 79.6705 -0.056 -0.153 -0.987 66 83 81
33.2142 3.7610 79.8285 0.324 -0.353 -0.878 56 75 73
33.3439 3.7133 79.7691 0.108 -0.180 -0.978 61 80 78
33.5068 3.6845 79.7560 0.035 -0.108 -0.994 62 81 79
33.6883 3.6661 79.7681 0.124 -0.125 -0.984 61 81 79
33.7873 3.6014 79.6672 0.108 -0.558 -0.823 73 94 89
33.9716 3.5846 79.6833 0.059 -0.729 -0.682 73 96 90
36.0803 4.1516 81.3574 0.206 -0.714 -0.669 94 127 113
37.5014 4.3211 82.0681 0.345 -0.629 -0.697 74 100 80
38.0716 4.3865 82.3481 -0.051 -0.878 -0.476 49 72 53
38.2493 4.3613 82.3457 0.003 -0.869 -0.496 60 83 62
-50.2852 19.6645 88.5149 0.291 -0.713 -0.639 167 202 198
-49.9764 22.2380 93.6297 -0.825 -0.132 -0.550 32 55 60
-49.3584 21.9626 93.2542 -0.278 0.362 -0.890 48 71 77
-43.4238 19.0024 89.0322 -0.270 -0.585 -0.765 180 215 219
-43.2433 18.9382 88.9543 -0.228 -0.764 -0.604 179 214 218
-40.8611 17.9700 87.6899 -0.505 -0.713 -0.486 178 212 221
-40.6596 17.8461 87.5008 -0.174 -0.532 -0.829 179 214 220
-39.7752 17.5153 87.0874 -0.615 -0.708 -0.348 86 119 129
-39.5773 17.3933 86.9012 -0.516 -0.651 -0.557 52 82 93
-39.2264 17.2620 86.7370 -0.511 -0.665 -0.545 107 139 152
-38.6584 16.9487 86.2743 -0.680 -0.461 -0.570 46 78 90
-38.2369 16.6162 85.7354 -0.817 -0.329 -0.474 184 217 225
-37.0421 16.1845 85.2066 -0.516 -0.449 -0.730 140 173 180
-36.8718 16.1215 85.1283 -0.513 -0.481 -0.711 145 178 187
-36.7284 16.1377 85.1979 -0.508 -0.368 -0.779 148 180 191
-35.1625 15.4286 84.2247 -0.151 -0.762 -0.629 177 207 215
-34.5541 15.3826 84.2954 -0.006 -0.587 -0.809 150 181 184
-34.4845 15.6579 84.8521 -0.640 -0.089 -0.763 150 181 184
-31.8155 13.9911 82.2972 -0.234 0.155 -0.960 152 182 191
-31.6786 14.0367 82.4224 -0.131 0.047 -0.990 158 188 198
-31.5219 13.9978 82.3878 -0.140 0.019 -0.990 160 190 200
-31.3719 13.9884 82.4090 -0.101 0.012 -0.995 160 190 201
-31.0276 13.1043 80.7709 0.582 -0.008 -0.813 160 189 201
-28.2399 12.1814 79.7021 0.683 -0.301 -0.666 184 209 209
-28.1052 12.2503 79.8725 0.689 -0.232 -0.686 186 211 211
-27.9581 12.2422 79.8956 0.315 -0.076 -0.946 195 220 220
-27.3775 12.2757 80.1144 0.458 -0.383 -0.802 213 238 239
-27.0504 12.0180 79.6968 -0.485 0.173 -0.857 194 217 220
-26.9141 12.0989 79.8909 -0.416 -0.036 -0.909 192 216 218
-26.7678 12.1038 79.9392 -0.369 0.023 -0.929 190 213 216
-26.6098 12.0105 79.7984 -0.102 -0.705 -0.702 156 180 182
-25.0619 11.1469 78.5183 -0.409 0.160 -0.899 138 160 163
-24.9113 11.0839 78.4349 -0.395 0.166 -0.904 141 163 166
-24.7621 11.0360 78.3806 -0.210 0.132 -0.969 143 166 168
-24.6142 11.0063 78.3615 -0.100 0.121 -0.988 142 165 166
-24.4662 10.9736 78.3366 -0.195 0.125 -0.973 146 168 167
-24.0191 10.8135 78.1417 -0.048 -0.218 -0.975 152 174 169
-23.8794 10.9398 78.4256 -0.423 0.174 -0.889 152 174 167
-23.5782 10.7562 78.1461 -0.056 -0.078 -0.995 151 172 169
-22.8356 10.3794 77.6053 -0.054 -0.628 -0.776 148 167 165
-22.6884 10.3185 77.5249 0.157 -0.760 -0.631 147 167 165
-19.5071 9.1435 76.0672 0.160 -0.967 -0.198 152 178 177
-13.3607 7.7978 75.0586 -0.168 -0.205 -0.964 47 59 55
-13.2187 7.7659 75.0338 -0.192 -0.224 -0.956 38 48 47
-13.0670 7.7733 75.0883 -0.057 0.164 -0.985 36 46 45
-12.8223 8.1448 75.8795 0.039 0.307 -0.951 37 47 46
-11.6892 7.8383 75.5794 -0.419 -0.336 -0.843 58 70 70
-11.5383 7.8329 75.6085 -0.505 0.145 -0.851 58 70 70
-10.7252 7.5001 75.1726 -0.408 -0.603 -0.685 68 79 73
-10.5856 7.4600 75.1310 -0.514 -0.597 -0.617 71 80 75
-10.1066 7.0698 74.4943 -0.719 -0.433 -0.544 103 112 107
-9.7880 7.1119 74.6608 -0.717 -0.607 -0.344 106 111 105
-6.9934 6.0796 73.3799 -0.169 -0.170 -0.971 92 98 96
-6.8535 6.0508 73.3605 -0.169 -0.170 -0.971 92 98 96
-6.5818 6.3136 73.9463 0.312 -0.734 -0.603 92 98 96
-6.0507 6.1271 73.7218 -0.500 -0.554 -0.666 91 93 92
-4.6169 6.5054 74.8404 0.379 -0.924 -0.053 92 96 97
-4.1770 6.1359 74.2340 -0.668 -0.476 -0.571 85 90 91
-3.2626 6.0752 74.3568 0.135 -0.841 -0.524 97 106 103
-3.0832 6.1125 74.4771 0.121 -0.852 -0.509 98 104 104
-2.0329 5.7284 74.0033 0.368 -0.887 -0.278 104 108 109
-1.5597 5.7200 74.1119 -0.419 -0.903 -0.097 113 114 116
-1.2522 5.6996 74.1530 -0.132 -0.991 -0.013 123 124 126
-0.8215 5.6191 74.1095 0.560 -0.735 -0.382 138 139 141
-0.1162 4.9828 73.0512 0.161 -0.064 -0.985 136 140 141
0.1442 4.8961 72.9505 0.369 -0.118 -0.922 128 132 133
0.3530 4.9684 73.1470 0.387 -0.175 -0.905 125 129 128
0.5840 5.0716 73.4098 0.281 -0.023 -0.960 125 129 128
3.3142 5.2347 74.4499 0.112 -0.410 -0.905 135 142 135
3.6467 5.0224 74.1225 0.245 -0.865 -0.438 130 137 130
4.6395 4.2111 72.7981 0.113 -0.174 -0.978 116 122 119
6.3081 4.8021 74.3946 -0.934 0.076 -0.349 116 122 118
7.2631 4.1716 73.4138 -0.674 -0.350 -0.650 117 126 121
7.3831 4.1191 73.3428 -0.362 -0.178 -0.915 116 125 120
7.6449 4.0384 73.2540 0.256 -0.511 -0.821 106 112 108
8.7954 4.0022 73.4872 -0.096 -0.148 -0.984 83 90 83
8.9716 4.0082 73.5454 -0.007 -0.536 -0.844 87 94 87
9.1289 3.9946 73.5604 0.014 -0.587 -0.809 95 102 95
9.2929 3.9878 73.5903 -0.068 -0.680 -0.730 101 107 103
9.4610 3.9847 73.6287 -0.059 -0.669 -0.741 109 115 111
9.5690 3.9211 73.5329 -0.364 -0.623 -0.692 108 114 110
9.7032 3.8840 73.4958 -0.364 -0.623 -0.692 107 113 109
9.8372 3.8470 73.4587 -0.364 -0.623 -0.692 116 122 118
10.8086 4.6370 75.2605 -0.675 0.334 -0.657 118 124 120
10.8509 4.5056 75.0146 -0.691 0.333 -0.642 109 115 111
11.3440 3.8024 73.7695 0.115 -0.452 -0.885 114 120 118
11.6957 3.8059 73.8692 0.317 -0.261 -0.912 107 112 106
11.9136 3.8463 74.0058 -0.023 -0.636 -0.771 104 107 101
12.0984 3.8554 74.0724 -0.256 -0.828 -0.498 105 108 101
12.2540 3.8372 74.0779 -0.404 -0.798 -0.447 105 108 101
12.3850 3.7963 74.0325 -0.404 -0.798 -0.447 105 108 101
13.1867 3.5678 73.7974 -0.224 -0.680 -0.699 108 117 112
16.5941 3.5743 74.7101 0.064 -0.738 -0.672 121 128 121
16.7672 3.5671 74.7416 0.101 -0.698 -0.709 126 133 125
19.3328 4.1284 76.5171 0.570 -0.782 -0.252 118 127 119
20.0642 4.2529 76.9538 0.261 -0.933 -0.247 112 123 115
20.5844 4.2133 77.0137 -0.361 -0.893 -0.267 110 123 114
20.5903 3.6513 75.9161 -0.222 -0.950 -0.220 115 127 123
20.7208 3.6081 75.8662 -0.262 -0.944 -0.202 115 127 123
21.6220 3.4359 75.7673 -0.145 -0.312 -0.939 104 116 112
23.3364 3.5609 76.4646 -0.173 -0.295 -0.940 79 95 94
23.7208 3.4254 76.3011 -0.318 -0.410 -0.855 89 101 101
23.8583 3.3869 76.2621 -0.091 -0.527 -0.845 89 101 101
24.7668 3.8698 77.4465 0.274 -0.506 -0.818 89 101 101
24.9095 3.8328 77.4118 0.516 -0.339 -0.787 88 100 100
25.6639 4.0721 78.0792 -0.989 -0.130 -0.072 88 98 99
25.7407 3.8578 77.6803 -0.083 -0.491 -0.867 33 42 41
25.8932 3.8269 77.6600 -0.084 -0.497 -0.864 81 90 89
27.5358 3.9791 78.3916 -0.171 -0.368 -0.914 48 58 57
27.6662 3.9327 78.3353 -0.435 -0.205 -0.877 48 58 57
27.7809 3.8765 78.2556 -0.382 -0.456 -0.804 47 58 57
27.9221 3.8372 78.2161 -0.364 -0.495 -0.789 53 67 64
28.0684 3.8013 78.1845 -0.299 -0.620 -0.725 66 81 76
28.2107 3.7629 78.1470 -0.293 -0.631 -0.718 82 97 92
28.5217 3.8300 78.3603 0.257 -0.502 -0.826 87 102 97
28.7257 3.8297 78.4138 0.199 -0.629 -0.752 87 102 97
31.4961 4.1256 79.7242 0.413 -0.154 -0.898 56 71 68
31.7440 4.1475 79.8325 0.408 -0.145 -0.901 56 71 68
31.9991 4.1733 79.9503 0.550 -0.113 -0.828 53 68 65
32.7981 3.8964 79.6197 0.053 -0.942 -0.333 63 79 78
33.7836 3.8501 79.7895 0.039 -0.395 -0.918 60 80 78
34.7261 4.2611 80.8422 0.117 -0.881 -0.458 63 85 82
34.9326 4.2548 80.8846 0.212 -0.772 -0.599 59 82 76
35.1787 4.2707 80.9805 0.204 -0.768 -0.607 84 109 103
35.8406 4.2737 81.1612 0.216 -0.739 -0.639 81 110 100
36.0774 4.2831 81.2422 0.224 -0.730 -0.645 96 129 116
36.8120 4.4439 81.7508 0.474 -0.339 -0.813 65 101 87
37.1012 4.4805 81.8987 0.513 -0.366 -0.777 63 99 85
37.5457 4.4798 82.0147 0.184 -0.551 -0.814 55 80 61
37.7635 4.4766 82.0660 0.184 -0.551 -0.814 70 94 72
37.9786 4.4718 82.1134 0.141 -0.565 -0.813 59 82 64
38.2364 4.4897 82.2164 0.329 -0.621 -0.712 51 73 53
-46.6472 11.7195 73.6345 -0.321 -0.655 -0.683 0 0 0
-51.4615 23.3868 95.0883 -0.456 -0.542 -0.706 73 106 113
-46.0885 21.2380 92.3149 -0.871 0.075 -0.486 55 77 88
-45.5972 20.5528 91.1097 -0.804 -0.126 -0.581 59 81 92
-43.4015 19.1359 88.9273 -0.185 -0.534 -0.825 180 215 219
-43.2053 19.0371 88.7862 -0.244 -0.601 -0.761 179 214 218
-42.3218 18.7500 88.4594 -0.804 -0.445 -0.394 94 125 145
-41.7283 18.4250 87.9822 -0.239 -0.595 -0.768 120 151 171
-41.5627 18.3901 87.9578 -0.239 -0.595 -0.768 112 143 161
-41.3886 18.3347 87.8957 -0.248 -0.589 -0.769 178 212 224
-40.0609 17.6637 86.9376 -0.590 -0.602 -0.538 147 180 185
-39.7355 17.5995 86.8980 -0.648 -0.669 -0.364 80 110 121
-39.5475 17.5023 86.7582 -0.457 -0.634 -0.623 58 87 103
-39.3637 17.4148 86.6360 -0.473 -0.599 -0.646 51 79 97
-38.0121 16.5932 85.3912 -0.798 -0.334 -0.502 192 224 234
-37.1897 16.3692 85.1709 -0.494 -0.532 -0.688 162 195 200
-37.0238 16.3192 85.1171 -0.499 -0.534 -0.682 143 176 183
-36.8626 16.2831 85.0890 -0.466 -0.569 -0.677 149 182 191
-36.7047 16.2562 85.0781 -0.587 -0.540 -0.603 153 185 196
-34.6690 15.9733 85.0617 -0.641 -0.078 -0.763 152 181 185
-34.4908 15.8774 84.9217 -0.641 -0.078 -0.763 152 181 185
-31.9334 13.4653 80.8964 -0.258 0.401 -0.879 153 184 189
-31.6101 13.9470 81.9193 0.238 0.079 -0.968 153 182 189
-31.4681 13.9691 81.9997 0.366 -0.039 -0.930 152 181 189
-31.3213 13.9715 82.0429 0.375 -0.025 -0.927 152 181 189
-28.9375 13.9776 82.6806 0.837 -0.491 -0.241 202 223 224
-28.0921 12.4018 79.8342 0.689 -0.232 -0.686 197 219 217
-27.9481 12.4147 79.8971 0.339 -0.076 -0.938 185 207 205
-27.3640 12.4278 80.0760 0.339 -0.232 -0.912 146 168 166
-27.0455 12.2371 79.7883 -0.483 0.175 -0.858 135 155 156
-26.7564 12.2755 79.9389 -0.369 0.023 -0.929 136 156 157
-26.5934 12.1404 79.7187 -0.090 -0.649 -0.755 146 166 167
-26.4355 12.0431 79.5706 0.333 -0.660 -0.673 148 168 169
-26.2874 12.0321 79.5881 0.323 -0.660 -0.678 149 169 170
-26.1478 12.1018 79.7604 0.041 -0.837 -0.545 146 166 167
-25.0498 11.3258 78.5378 -0.403 0.165 -0.900 149 169 170
-24.8992 11.2653 78.4594 -0.403 0.165 -0.900 153 174 175
-24.7497 11.2159 78.4025 -0.210 0.132 -0.969 153 174 177
-21.2113 10.0511 77.0634 0.179 -0.443 -0.878 153 174 167
-21.0651 10.0404 77.0810 -0.263 0.384 -0.885 152 174 171
-19.2906 10.0446 77.5550 0.081 0.049 -0.996 149 175 174
-19.1425 10.0304 77.5663 0.081 0.049 -0.996 149 175 174
-18.1404 9.5589 76.9111 -0.680 0.410 -0.608 136 170 168
-13.3401 7.9426 75.0242 -0.168 -0.205 -0.964 49 61 57
-13.1973 7.9137 75.0054 -0.168 -0.205 -0.964 64 74 73
-11.3757 7.9390 75.5329 -0.614 0.124 -0.779 71 83 83
-11.0549 7.9884 75.7133 0.040 0.565 -0.824 70 82 82
-10.6831 7.7082 75.2653 0.013 -0.667 -0.745 69 80 74
-10.5907 7.5204 74.9239 -0.112 -0.971 -0.212 78 87 82
-10.4442 7.5027 74.9279 -0.112 -0.971 -0.212 85 94 89
-9.9333 7.2110 74.4941 -0.626 -0.775 -0.092 94 103 98
-9.7884 7.1903 74.4918 -0.643 -0.764 0.055 105 110 104
-6.3637 6.5434 74.1313 -0.047 0.146 -0.988 90 92 91
-3.5214 6.2771 74.3590 0.459 -0.828 -0.321 93 102 99
-3.4331 6.1489 74.1325 0.331 -0.251 -0.910 108 117 114
-3.2774 6.1447 74.1652 -0.152 -0.645 -0.749 108 117 114
-3.1247 6.1346 74.1857 -0.063 -0.787 -0.614 111 117 115
-3.0297 6.0214 73.9901 -0.134 -0.751 -0.647 109 115 115
-2.1494 5.8980 73.9811 0.121 -0.748 -0.652 104 108 109
-1.9834 5.9098 74.0475 0.050 -0.829 -0.558 104 108 109
-1.8032 5.9445 74.1625 -0.484 -0.869 -0.106 106 107 109
-1.5715 5.7993 73.9406 -0.466 -0.878 -0.110 113 114 116
-1.4172 5.7907 73.9643 -0.303 -0.943 -0.136 120 121 123
-1.1973 5.6299 73.7090 0.485 0.202 -0.851 114 115 117
-1.0174 5.6623 73.8192 0.485 0.202 -0.851 120 121 123
-0.7688 5.8025 74.1575 0.576 -0.239 -0.782 127 128 130
-0.5617 5.8750 74.3530 0.587 -0.240 -0.773 130 131 133
-0.3949 5.8832 74.4127 0.681 -0.418 -0.602 130 134 135
-0.1920 5.9467 74.5896 0.684 -0.403 -0.609 131 135 136
0.3902 5.1235 73.1397 0.149 0.100 -0.984 126 130 129
0.5440 5.1143 73.1621 0.149 0.100 -0.984 126 130 129
2.0356 5.6192 74.5369 -0.686 -0.110 -0.719 111 116 109
2.2406 5.2244 73.8219 0.529 -0.027 -0.848 122 127 120
2.5825 5.2439 73.9496 0.755 -0.370 -0.542 123 128 121
2.7855 5.2957 74.1039 0.765 -0.300 -0.570 126 131 124
3.3125 5.3378 74.3241 -0.823 0.060 -0.564 136 143 136
4.5204 4.3699 72.7565 0.103 -0.176 -0.979 113 119 118
4.6754 4.3589 72.7759 0.113 -0.174 -0.978 116 122 120
6.3273 4.9323 74.3259 -0.933 0.080 -0.352 116 122 118
6.4128 4.8363 74.1616 -0.922 -0.108 -0.371 121 127 123
7.4004 4.2456 73.2705 -0.352 -0.158 -0.923 118 124 120
7.5416 4.2163 73.2506 -0.351 -0.110 -0.930 113 119 115
7.6453 4.1465 73.1419 0.155 -0.513 -0.845 96 102 98
8.5235 4.1818 73.4412 -0.065 -0.342 -0.937 92 98 94
8.6854 4.1734 73.4673 -0.217 -0.529 -0.820 84 90 86
8.8276 4.1444 73.4483 -0.217 -0.529 -0.820 78 84 80
8.9790 4.1250 73.4501 -0.083 -0.602 -0.794 81 87 83
9.1312 4.1062 73.4536 -0.032 -0.591 -0.806 88 94 90
9.7019 4.5136 74.3967 0.337 -0.532 -0.776 97 103 99
9.4401 4.0731 73.4702 -0.149 -0.649 -0.746 115 121 117
10.6352 4.7517 75.1054 -0.762 0.266 -0.591 118 124 120
10.9186 4.6846 75.0491 -0.689 0.333 -0.644 110 116 112
10.5019 4.1036 73.8084 -0.367 -0.471 -0.802 103 112 107
10.6370 4.0667 73.7719 -0.379 -0.463 -0.801 100 109 104
10.7702 4.0279 73.7314 -0.379 -0.463 -0.801 98 107 102
10.9034 3.9895 73.6915 -0.581 -0.324 -0.747 98 107 102
11.1753 3.9179 73.6236 -0.436 -0.041 -0.899 106 115 110
11.3419 3.9115 73.6548 0.199 -0.282 -0.939 106 115 110
11.7390 3.9580 73.8495 0.328 -0.270 -0.905 105 110 104
12.3930 3.9158 73.9391 -0.658 -0.576 -0.485 101 102 94
13.2242 3.7136 73.7637 0.008 -0.353 -0.936 114 120 116
16.5939 3.6896 74.6015 0.149 -0.689 -0.709 119 126 119
17.3493 3.8573 75.1264 0.131 -0.673 -0.728 132 139 132
18.2845 3.8675 75.3918 0.358 0.107 -0.928 114 123 118
19.5869 4.1527 76.2890 0.478 -0.658 -0.582 102 113 105
19.9513 4.2869 76.6459 0.331 -0.829 -0.452 102 113 105
20.2719 4.3863 76.9236 0.321 -0.905 -0.280 102 113 105
20.3960 4.3357 76.8577 0.263 -0.738 -0.622 106 117 109
19.8258 3.7621 75.5911 -0.368 -0.673 -0.641 112 123 115
20.0957 3.6829 75.5077 -0.485 -0.658 -0.576 127 138 130
23.7681 3.5788 76.2692 -0.085 -0.617 -0.783 86 98 98
23.8492 3.5018 76.1405 -0.071 -0.547 -0.834 87 99 99
24.9967 4.0149 77.4407 0.299 -0.456 -0.838 91 103 103
25.6570 4.1919 77.9588 -0.989 -0.130 -0.072 92 102 101
25.6956 4.0843 77.7595 -0.989 -0.132 -0.072 79 89 88
25.9056 3.9589 77.5705 -0.071 -0.500 -0.863 73 82 81
27.5657 4.1240 78.3277 -0.171 -0.368 -0.914 48 58 57
27.7032 4.0820 78.2821 -0.435 -0.205 -0.877 48 58 57
27.8051 4.0174 78.1830 -0.713 -0.198 -0.673 47 58 57
27.9274 3.9661 78.1152 -0.634 -0.330 -0.700 53 67 64
28.0706 3.9282 78.0790 -0.332 -0.605 -0.724 66 81 76
28.2101 3.8880 78.0374 -0.293 -0.631 -0.718 82 97 92
28.4456 3.9082 78.1385 0.113 -0.602 -0.791 87 102 97
28.6960 3.9373 78.2609 0.146 -0.632 -0.761 87 102 97
29.6850 4.0413 78.7230 -0.738 -0.197 -0.645 83 97 97
30.8791 4.0104 78.9764 0.276 -0.031 -0.961 66 81 78
33.1049 4.2037 79.9371 0.395 -0.876 -0.276 64 80 77
33.3062 4.1967 79.9762 0.122 -0.956 -0.267 58 77 75
33.8863 4.4074 80.5388 -0.051 -0.594 -0.803 58 77 75
34.5768 4.3084 80.5273 0.226 -0.760 -0.610 58 80 77
34.8044 4.3146 80.5991 0.351 -0.528 -0.773 49 72 66
36.9016 4.6272 81.7584 0.494 -0.414 -0.764 54 90 76
37.2742 4.5879 81.7796 0.351 -0.432 -0.831 41 74 60
