ply
format ascii 1.0
element vertex 849
property float x
property float y
property float z
property float nx
property float ny
property float nz
property uchar diffuse_red
property uchar diffuse_green
property uchar diffuse_blue
end_header
-19.5254 2.5585 77.0873 -0.791 -0.059 -0.609 123 153 160
-19.3903 2.5082 76.8819 -0.788 -0.079 -0.611 125 154 162
-19.2407 2.4930 76.9939 0.327 -0.226 -0.917 130 159 166
-18.9686 2.4013 76.6611 -0.318 -0.719 -0.617 141 170 177
-11.5543 0.9770 76.6051 -0.536 -0.274 -0.798 91 113 110
-11.4134 0.9450 76.5625 -0.155 -0.194 -0.969 88 113 109
-11.2649 0.9178 76.5726 -0.188 -0.145 -0.971 87 109 106
-11.1277 0.8835 76.5055 -0.364 -0.293 -0.884 88 110 107
-10.9884 0.8507 76.4531 -0.388 -0.311 -0.868 86 108 105
-7.0731 0.0575 76.0792 -0.292 -0.586 -0.756 85 106 113
-6.9363 0.0246 76.0228 -0.155 -0.608 -0.779 85 105 112
-6.7955 -0.0066 75.9872 -0.156 -0.561 -0.813 84 104 111
-6.6493 -0.0355 75.9792 -0.156 -0.561 -0.813 84 105 112
-6.5030 -0.0644 75.9711 -0.156 -0.561 -0.813 84 105 112
-6.3567 -0.0933 75.9631 -0.156 -0.561 -0.813 79 99 108
-6.2141 -0.1237 75.9370 -0.304 -0.506 -0.807 76 98 107
-5.7944 -0.2178 75.8212 -0.325 -0.585 -0.743 84 107 113
5.9175 -2.3581 76.6505 -0.317 -0.140 -0.938 145 174 180
6.0568 -2.3898 76.6081 -0.317 -0.140 -0.938 141 170 180
6.1960 -2.4215 76.5657 -0.317 -0.140 -0.938 138 168 178
6.3573 -2.4500 76.5856 -0.170 -0.081 -0.982 136 166 176
7.7390 -2.6170 77.4004 -0.008 0.231 -0.973 140 173 178
11.2918 -3.2672 77.6446 0.111 -0.261 -0.959 208 239 245
11.4482 -3.2976 77.6403 0.180 -0.245 -0.953 206 238 243
11.6196 -3.3265 77.6723 0.217 -0.184 -0.959 206 239 244
11.8008 -3.3546 77.7272 0.139 -0.172 -0.975 199 233 245
13.5750 -3.6427 78.1560 0.130 -0.368 -0.921 178 219 235
13.8204 -3.6663 78.3520 0.249 -0.199 -0.948 176 218 234
-44.2699 8.9575 89.7089 -0.493 -0.627 -0.603 253 255 249
-39.6395 8.7364 95.1917 -0.881 -0.460 -0.110 163 200 208
-29.5951 5.5526 84.7314 0.462 -0.336 -0.821 189 231 247
-25.4736 4.2668 80.6101 0.431 -0.323 -0.843 189 231 247
-22.2224 3.3917 78.5097 -0.397 -0.424 -0.814 195 231 245
-22.0768 3.3601 78.4778 -0.387 -0.437 -0.812 197 233 247
-21.9325 3.3192 78.3677 0.025 -0.364 -0.931 198 234 246
-21.7884 3.2793 78.2658 0.173 -0.344 -0.923 199 233 245
-21.6419 3.2560 78.3042 0.123 -0.302 -0.945 194 228 238
-20.3515 2.9222 77.5826 0.178 0.355 -0.918 133 166 175
-19.7743 2.8007 77.4897 0.006 0.416 -0.909 138 171 180
-19.6393 2.7461 77.2508 -0.795 -0.059 -0.603 141 171 179
-19.5022 2.6986 77.0748 -0.795 -0.059 -0.603 143 172 180
-19.3670 2.6483 76.8728 -0.791 -0.059 -0.609 143 172 180
-19.2164 2.6352 77.0017 0.319 -0.213 -0.924 143 172 180
-13.1905 1.2418 74.9976 -0.205 -0.979 0.010 95 119 121
-11.5346 1.1118 76.5371 -0.489 -0.243 -0.838 93 115 112
-11.3886 1.0831 76.5308 -0.155 -0.194 -0.969 92 114 112
-11.2407 1.0556 76.5370 -0.150 -0.193 -0.970 91 113 110
-8.0164 0.3264 75.5993 -0.120 -0.264 -0.957 108 128 128
-6.8667 0.0908 75.4673 0.004 -0.699 -0.715 91 108 124
-5.9612 -0.0692 75.5740 -0.027 -0.735 -0.678 90 109 128
-5.7848 -0.0865 75.7099 -0.197 -0.463 -0.864 91 110 127
-5.6406 -0.1161 75.6928 -0.197 -0.493 -0.848 92 110 127
-2.7552 -0.4121 77.8012 -0.057 -0.973 -0.222 108 128 137
-2.1894 -0.5421 77.6197 -0.188 0.671 -0.717 101 123 128
-2.0567 -0.5771 77.5406 -0.188 0.672 -0.716 105 128 134
3.8724 -1.8492 76.3857 0.062 -0.676 -0.734 72 91 97
7.3311 -2.4330 77.0204 -0.025 -0.787 -0.616 136 169 178
9.3768 -2.7691 77.4717 -0.143 -0.179 -0.973 143 177 186
9.5275 -2.7999 77.4552 -0.143 -0.179 -0.973 143 177 186
9.6782 -2.8307 77.4386 -0.143 -0.179 -0.973 140 174 184
12.4592 -3.2880 78.0491 0.063 -0.471 -0.880 184 225 241
12.9376 -3.3794 78.0489 0.030 -0.294 -0.955 179 218 230
14.9309 -3.8262 77.5027 -0.429 -0.028 -0.903 192 238 254
-32.8536 6.2258 83.8686 -0.296 -0.024 -0.955 50 73 91
-32.6901 6.1800 83.7497 0.127 -0.436 -0.891 48 71 89
-30.7159 5.5713 81.8591 0.270 -0.226 -0.936 115 142 168
-30.5660 5.5406 81.8415 0.276 -0.265 -0.924 143 170 192
-25.4548 4.4227 80.6785 0.310 -0.431 -0.847 187 229 245
-25.3146 4.4391 81.0298 0.508 -0.393 -0.766 192 234 250
-21.9110 3.4565 78.3146 0.025 -0.364 -0.931 202 237 242
-21.7662 3.4207 78.2477 0.160 -0.361 -0.919 195 229 236
-21.6196 3.3981 78.2920 0.096 -0.314 -0.945 174 208 218
-21.4737 3.3695 78.2855 -0.204 -0.339 -0.918 162 194 207
-19.7525 2.9378 77.4438 -0.218 -0.337 -0.916 138 171 177
-19.4650 2.8745 77.3751 -0.670 -0.242 -0.701 142 173 177
-19.3251 2.8335 77.2585 -0.561 -0.410 -0.720 143 172 177
-19.1908 2.7806 77.0364 -0.546 -0.378 -0.748 143 172 176
-17.3904 2.2873 75.8154 0.187 -0.647 -0.739 165 190 193
-16.4962 2.1660 76.2171 -0.398 -0.237 -0.886 132 157 161
-10.9693 1.1073 76.1825 -0.503 -0.424 -0.753 91 112 113
-8.8602 0.8466 77.3370 -0.559 -0.300 -0.773 116 137 142
-9.0361 0.6494 75.4567 -0.247 -0.167 -0.955 116 138 142
-8.8920 0.6203 75.4442 -0.248 -0.174 -0.953 116 137 142
-8.2812 0.5210 75.5840 -0.131 0.043 -0.991 120 141 147
-8.1415 0.4896 75.5456 -0.113 -0.066 -0.991 120 141 147
7.4691 -2.3281 76.8550 -0.036 -0.795 -0.606 137 169 180
8.2577 -2.4750 76.8839 0.021 -0.674 -0.738 142 174 187
12.9558 -3.2368 77.9803 0.076 -0.350 -0.934 209 246 253
13.1112 -3.2677 77.9704 -0.091 -0.120 -0.989 209 249 252
13.9864 -3.4134 78.1437 0.303 -0.344 -0.889 183 225 231
14.1715 -3.4418 78.2000 0.344 -0.370 -0.863 186 228 238
-43.3336 9.0270 89.0789 -0.185 -0.275 -0.944 156 172 195
-34.1364 6.7218 84.6407 0.554 -0.194 -0.809 100 130 139
-33.5691 6.4925 83.6667 -0.140 0.148 -0.979 75 101 115
-32.9799 6.3954 83.7893 -0.183 -0.282 -0.942 52 78 93
-32.8267 6.3637 83.7691 -0.183 -0.282 -0.942 53 79 94
-20.4534 3.2238 77.4882 -0.298 -0.452 -0.841 142 174 185
-16.4748 2.3009 76.1650 -0.462 -0.230 -0.857 64 89 94
-14.4990 1.6963 74.3322 -0.224 -0.974 -0.036 86 110 113
-9.0131 0.7850 75.4116 -0.072 -0.291 -0.954 126 151 159
-8.8729 0.7540 75.3769 -0.178 -0.169 -0.969 126 151 159
-8.7303 0.7243 75.3565 -0.104 -0.299 -0.948 126 151 158
-8.5872 0.6948 75.3391 -0.099 -0.274 -0.957 130 155 162
-8.4221 0.6763 75.4428 -0.202 -0.353 -0.913 129 154 160
-8.3038 0.6345 75.2882 -0.005 -0.056 -0.998 129 154 161
-8.1561 0.6073 75.2958 -0.137 0.017 -0.990 129 154 163
-6.6148 0.3595 75.6653 -0.785 -0.232 -0.575 113 134 158
-2.2104 -0.2831 77.2463 -0.273 -0.799 -0.536 118 141 147
1.7619 -1.1690 76.2113 -0.134 -0.455 -0.880 81 99 109
1.9039 -1.2002 76.1783 -0.148 -0.449 -0.881 85 104 111
12.5468 -3.0446 77.6567 -0.002 -0.597 -0.802 151 185 194
14.6277 -3.3495 78.3938 0.117 -0.691 -0.714 176 214 229
15.1400 -3.4392 78.4574 0.095 -0.600 -0.794 168 208 225
15.3157 -3.4688 78.4889 -0.106 -0.674 -0.731 183 224 240
28.8394 -5.4643 83.1648 0.145 -0.007 -0.989 188 222 211
29.2886 -5.5289 83.3337 0.247 -0.099 -0.964 185 217 211
-34.7298 6.8426 83.4604 0.024 0.707 -0.706 191 225 243
-33.5873 6.6888 83.9652 -0.173 -0.609 -0.774 81 108 125
-32.9698 6.5563 83.8470 -0.354 -0.622 -0.698 62 90 102
-32.8152 6.5227 83.8138 -0.343 -0.615 -0.710 56 84 98
-20.7242 3.4068 77.3643 -0.353 -0.582 -0.733 146 179 188
-19.0346 2.9522 76.3107 -0.343 0.190 -0.920 143 174 184
-16.4543 2.4346 76.1019 -0.452 -0.256 -0.855 81 105 115
-8.7975 0.9174 75.6305 -0.078 0.093 -0.993 139 167 178
-8.6439 0.8930 75.6688 -0.017 0.001 -1.000 139 167 177
-8.4941 0.8665 75.6849 -0.044 0.064 -0.997 142 170 180
-8.4154 0.8039 75.3077 -0.220 -0.418 -0.881 141 169 179
-8.2679 0.7766 75.3137 -0.094 -0.134 -0.986 141 169 180
-8.0886 0.7649 75.4914 -0.191 0.067 -0.979 142 169 182
9.1744 -2.5306 75.4212 -0.420 -0.672 -0.610 148 182 194
9.3286 -2.5598 75.4222 -0.068 -0.698 -0.713 147 181 193
12.5581 -2.9034 77.5721 -0.054 -0.577 -0.815 150 183 190
12.8338 -2.9214 77.8455 -0.342 -0.146 -0.928 152 185 193
14.6246 -3.2079 78.2769 0.139 -0.703 -0.698 201 238 249
14.8020 -3.2370 78.3134 0.117 -0.691 -0.714 201 238 246
15.3005 -3.3278 78.3460 -0.101 -0.668 -0.737 183 222 235
15.4802 -3.3570 78.3860 -0.181 -0.682 -0.708 195 236 250
22.2704 -3.8770 84.5095 -0.548 -0.442 -0.710 188 235 251
29.7083 -5.4401 83.3444 -0.063 0.152 -0.986 186 219 209
-42.2080 9.1319 89.0288 -0.535 -0.641 -0.550 70 100 132
-39.7715 8.3809 86.7808 -0.675 -0.494 -0.547 76 107 130
-34.7489 7.0352 83.7278 -0.007 0.724 -0.689 181 218 234
-33.2581 6.7694 83.8667 -0.115 -0.649 -0.752 71 94 110
-32.9392 6.6891 83.7132 -0.354 -0.622 -0.698 71 97 112
-32.7896 6.6624 83.7266 -0.347 -0.639 -0.686 51 77 92
-31.8448 6.4329 83.3370 0.179 -0.635 -0.752 117 142 163
-20.4320 3.4190 76.7449 -0.272 -0.435 -0.859 141 173 186
-20.2875 3.3929 76.7558 -0.162 -0.402 -0.901 135 167 180
-19.2894 3.1702 76.4982 -0.237 0.188 -0.953 135 169 181
-19.1478 3.1368 76.4479 -0.313 0.197 -0.929 134 167 179
-17.1319 2.7417 76.3566 -0.482 -0.417 -0.771 139 165 178
-15.5686 2.6034 77.5996 -0.402 -0.293 -0.867 101 125 135
-15.4255 2.5701 77.5514 -0.490 -0.142 -0.860 99 122 130
-15.2626 2.5600 77.7147 -0.228 0.018 -0.974 92 113 120
-15.1126 2.5343 77.7371 -0.223 0.038 -0.974 86 109 117
-14.9721 2.4978 77.6610 -0.198 -0.049 -0.979 83 106 114
-14.6451 2.4750 77.9683 -0.592 -0.537 -0.601 85 105 112
-14.5429 2.3983 77.5207 -0.386 -0.710 -0.589 86 106 113
-11.0253 1.3109 74.2503 0.384 -0.602 -0.700 88 115 124
-10.8186 1.3244 74.6631 0.362 -0.336 -0.870 90 114 124
-10.6501 1.3123 74.8190 -0.316 0.086 -0.945 91 115 125
-8.7154 1.0853 75.9209 -0.120 0.055 -0.991 145 174 188
-8.5679 1.0573 75.9212 -0.085 -0.180 -0.980 145 174 188
-8.4274 1.0257 75.8828 -0.104 0.038 -0.994 147 176 189
-8.2947 0.9900 75.8010 -0.188 -0.035 -0.982 147 176 189
-8.1865 0.9420 75.5870 -0.259 -0.514 -0.818 147 176 189
-8.1245 0.8714 75.1268 -0.089 -0.705 -0.704 147 176 190
-6.3748 0.8128 77.2705 -0.072 0.099 -0.993 127 155 172
-4.5316 0.1420 74.7666 0.214 -0.822 -0.528 125 153 173
-2.8934 0.0709 76.6465 0.201 -0.510 -0.837 139 167 181
2.6211 -1.0878 75.7872 -0.179 -0.463 -0.868 34 54 63
7.5031 -1.9664 76.1771 -0.030 -0.908 -0.418 193 225 238
9.4756 -2.4546 75.2932 0.523 -0.388 -0.759 144 178 190
9.6656 -2.4792 75.3833 0.545 -0.382 -0.747 143 177 188
10.1196 -2.5682 75.3623 0.088 -0.089 -0.992 144 178 190
10.9208 -2.7116 75.4326 -0.095 -0.395 -0.914 143 178 185
12.4456 -2.7281 77.5702 0.194 -0.577 -0.793 150 181 187
12.6156 -2.7571 77.5960 -0.034 -0.327 -0.945 152 183 189
14.7893 -3.0964 78.1752 0.117 -0.691 -0.714 172 204 209
15.1423 -3.1548 78.2436 0.094 -0.642 -0.761 190 222 227
15.2925 -3.1865 78.2191 -0.101 -0.668 -0.737 192 224 229
15.4653 -3.2162 78.2442 -0.188 -0.672 -0.716 200 232 237
17.5512 -3.5744 78.5453 0.158 -0.682 -0.714 197 240 251
30.4082 -5.9273 79.2664 0.662 -0.615 -0.428 106 149 173
-42.4077 9.2673 88.5221 0.242 -0.436 -0.867 60 92 108
-42.1193 9.2276 88.6382 -0.492 -0.581 -0.649 75 106 134
-41.2585 9.0090 88.2141 -0.063 -0.860 -0.506 168 201 224
-34.7598 7.2191 83.9320 0.132 0.630 -0.765 197 234 250
-32.9087 6.8218 83.5795 -0.354 -0.622 -0.698 81 107 122
-32.7587 6.7944 83.5881 -0.347 -0.639 -0.686 46 72 87
-32.1299 6.6427 83.3398 -0.421 -0.584 -0.694 112 139 160
-31.2069 6.4422 83.1460 -0.456 -0.225 -0.861 123 151 175
-19.2658 3.3111 76.4941 -0.249 0.147 -0.957 172 206 218
-19.1228 3.2808 76.4700 -0.313 0.197 -0.929 175 209 221
-14.1617 2.5446 78.0610 -0.153 -0.914 -0.376 89 109 116
-13.8958 2.1192 75.1704 0.588 0.060 -0.806 89 114 121
-13.3121 2.0157 75.2269 -0.278 -0.003 -0.961 90 115 122
-13.1655 1.9901 75.2440 -0.314 -0.025 -0.949 90 115 122
-13.0235 1.9605 75.2238 -0.161 -0.220 -0.962 90 115 122
-11.7173 1.4542 73.2331 -0.352 -0.195 -0.915 89 116 125
-11.5903 1.4170 73.1323 -0.274 -0.133 -0.953 88 115 124
-11.4247 1.4066 73.2952 0.031 -0.639 -0.769 88 115 124
-10.8123 1.4482 74.5126 0.216 -0.182 -0.959 97 121 131
-10.3683 1.4925 75.5046 0.228 -0.369 -0.901 97 121 131
-9.0170 1.4865 77.4386 -0.077 -0.283 -0.956 149 178 192
-8.3958 1.1669 75.8836 0.045 0.157 -0.987 153 182 196
-8.2701 1.1274 75.7633 -0.172 0.023 -0.985 153 182 196
-8.2255 1.0462 75.2027 -0.149 -0.187 -0.971 153 182 196
-8.0792 1.0183 75.2018 -0.150 -0.532 -0.833 153 182 196
-7.4533 1.1279 76.9642 -0.138 -0.215 -0.967 154 183 197
-5.9608 0.6537 75.4933 -0.591 0.137 -0.795 133 162 180
-5.8485 0.6106 75.3256 -0.450 -0.156 -0.879 132 161 177
-5.4428 0.5111 75.1530 0.336 -0.661 -0.671 134 163 179
-5.1933 0.5240 75.6180 0.046 -0.343 -0.938 134 163 181
-5.0349 0.4998 75.6630 -0.535 -0.701 -0.472 134 163 181
-4.9396 0.4506 75.4239 -0.611 -0.638 -0.469 133 162 180
-2.8674 0.2105 76.6077 0.203 -0.502 -0.841 145 174 188
2.3507 -0.8898 75.7675 -0.291 -0.497 -0.817 46 68 87
2.4839 -0.9228 75.7079 -0.237 -0.408 -0.881 46 69 87
5.6976 -1.3562 77.0742 -0.075 -0.232 -0.970 139 164 172
7.4456 -1.8397 75.9062 -0.030 -0.908 -0.418 178 210 223
10.4665 -2.4374 75.7232 -0.102 -0.521 -0.848 147 179 190
10.6214 -2.4669 75.7227 -0.102 -0.521 -0.848 146 178 189
10.7872 -2.4950 75.7482 0.150 -0.764 -0.628 147 179 190
10.9230 -2.5269 75.7013 -0.073 -0.435 -0.897 147 179 190
13.1852 -2.6977 77.6984 0.287 -0.177 -0.942 152 183 187
13.7399 -2.7807 77.8711 0.085 -0.237 -0.968 149 180 183
13.8115 -2.8204 77.6697 0.238 -0.664 -0.709 152 183 186
14.5923 -2.9279 77.9850 0.141 -0.696 -0.704 146 179 184
14.7877 -2.9550 78.0622 0.143 -0.650 -0.746 144 175 178
14.9827 -2.9822 78.1377 0.117 -0.681 -0.723 140 171 174
15.1375 -3.0134 78.1237 0.094 -0.642 -0.761 137 168 171
15.2844 -3.0454 78.0923 -0.101 -0.668 -0.737 135 166 169
15.4557 -3.0751 78.1143 -0.188 -0.672 -0.716 139 172 177
17.6674 -3.4218 78.6807 -0.100 -0.497 -0.862 201 242 251
-48.1592 9.0496 77.3245 -0.851 0.361 -0.382 233 238 252
-48.5825 9.4400 79.6840 -0.950 -0.019 -0.312 254 252 254
-43.0527 9.4757 87.9406 -0.636 -0.330 -0.698 169 199 216
-42.8092 9.4713 88.2586 0.642 -0.470 -0.606 119 151 161
-42.3774 9.4114 88.4266 0.215 -0.413 -0.885 71 104 119
-42.2355 9.3935 88.4951 -0.333 -0.333 -0.882 57 89 112
-42.1084 9.3884 88.6401 -0.557 -0.118 -0.822 69 103 127
-41.3972 9.1940 88.1877 -0.346 -0.036 -0.938 164 199 223
-37.9986 8.0702 84.5440 -0.492 -0.469 -0.734 184 214 205
-32.8778 6.9536 83.4425 -0.358 -0.618 -0.700 86 112 127
-32.7247 6.9217 83.4204 -0.350 -0.600 -0.720 55 83 97
-32.0961 6.7690 83.1663 -0.493 -0.466 -0.735 114 141 162
-31.1841 6.5850 83.0835 -0.450 -0.215 -0.867 121 149 170
-29.0661 5.8819 80.7920 0.381 -0.915 -0.135 190 229 246
-26.5525 5.4266 80.9574 -0.324 -0.917 -0.232 199 235 245
-25.9225 5.1644 79.8716 -0.356 -0.272 -0.894 205 238 246
-25.7691 5.1084 79.6675 -0.547 0.087 -0.832 203 235 242
-25.6191 5.0664 79.5646 -0.547 0.087 -0.832 202 233 238
-25.4694 5.0243 79.4597 -0.494 0.158 -0.855 202 234 238
-25.3211 4.9887 79.4030 -0.291 -0.769 -0.569 204 235 239
-14.3295 2.6685 77.6205 -0.000 -0.452 -0.892 93 112 118
-12.9892 2.1058 75.2742 -0.069 -0.181 -0.981 95 120 127
-12.1423 1.7849 74.0558 0.085 -0.231 -0.969 97 121 131
-11.6769 1.5994 73.3162 -0.388 -0.225 -0.894 99 126 135
-11.5560 1.5576 73.1726 -0.323 -0.249 -0.913 99 126 135
-11.3926 1.5458 73.3189 -0.078 -0.656 -0.751 99 126 135
-10.0723 1.6816 76.2590 -0.260 -0.755 -0.602 100 125 132
-8.2640 1.1497 74.8230 -0.372 -0.242 -0.896 159 188 202
-8.1226 1.1197 74.7982 -0.270 -0.315 -0.910 159 188 202
-5.2122 0.6436 75.3785 0.050 -0.318 -0.947 141 170 188
-5.1210 0.5925 75.1217 0.001 -0.149 -0.989 140 169 187
2.5032 -0.7857 75.6437 -0.218 -0.436 -0.873 29 54 78
4.8499 -1.1471 76.2826 0.401 -0.355 -0.845 74 99 112
5.7320 -1.2133 77.0523 -0.063 -0.238 -0.969 148 177 187
7.1635 -1.5306 76.7051 -0.806 0.043 -0.590 177 209 224
7.9451 -1.9452 74.6794 -0.011 -0.992 -0.125 191 226 238
13.1788 -2.5581 77.5729 -0.058 -0.366 -0.929 146 177 181
13.3731 -2.5845 77.6531 -0.022 -0.352 -0.936 151 182 185
13.5165 -2.6166 77.6156 -0.223 -0.180 -0.958 149 180 183
13.6848 -2.6460 77.6350 -0.008 -0.305 -0.952 151 182 185
13.8583 -2.6748 77.6662 0.245 -0.532 -0.810 154 185 188
14.4471 -2.7545 77.9101 0.206 -0.440 -0.874 154 185 188
14.6344 -2.7822 77.9696 0.180 -0.403 -0.898 148 181 186
15.2653 -2.9056 77.9415 -0.140 -0.657 -0.741 146 180 182
15.4461 -2.9343 77.9846 -0.188 -0.672 -0.716 141 174 179
17.6675 -3.2785 78.5736 -0.134 -0.567 -0.812 201 237 245
17.8284 -3.3096 78.5687 -0.134 -0.567 -0.812 199 237 245
18.2699 -3.3178 79.1442 0.401 -0.597 -0.695 200 238 247
18.3446 -3.4005 78.6228 -0.227 -0.694 -0.684 197 238 246
18.4710 -3.4344 78.5471 -0.588 -0.463 -0.663 197 237 246
18.5930 -3.4686 78.4627 -0.588 -0.463 -0.663 198 237 246
19.0390 -3.5216 78.7036 0.110 -0.849 -0.517 194 237 248
29.5302 -4.4973 86.4287 -0.162 -0.951 -0.265 184 231 251
30.8343 -4.6128 87.4332 0.272 -0.927 -0.259 123 166 191
-50.2122 10.5707 84.7592 -0.951 -0.025 -0.308 251 251 252
-42.3717 9.5764 88.4537 -0.356 -0.362 -0.861 70 105 123
-42.0560 9.5138 88.4328 -0.587 -0.132 -0.799 61 97 118
-39.7485 8.7520 85.9971 -0.787 -0.465 -0.405 134 162 171
-38.5906 8.4615 85.4640 -0.463 -0.372 -0.805 182 212 205
-38.4367 8.4309 85.4535 -0.457 -0.378 -0.805 180 211 203
-38.2792 8.3966 85.4204 -0.446 -0.389 -0.806 187 217 210
-33.6727 7.3267 83.9431 -0.808 -0.191 -0.558 111 143 156
-32.0672 6.9023 83.0424 -0.502 -0.452 -0.738 115 141 164
-31.1627 6.7301 83.0364 -0.450 -0.215 -0.867 119 146 165
-31.0069 6.6930 82.9794 -0.185 -0.107 -0.977 124 149 169
-23.9669 4.7392 78.3298 -0.559 -0.545 -0.625 154 182 185
-22.7993 4.5363 78.4681 -0.109 -0.465 -0.878 151 181 187
-16.1661 3.5025 80.1480 0.058 -0.859 -0.509 150 176 189
-12.9715 2.2370 75.1926 -0.115 -0.180 -0.977 100 125 132
-12.2248 1.9756 74.2929 -0.130 0.104 -0.986 103 127 137
-8.9416 1.7821 77.5129 0.049 -0.572 -0.819 157 186 200
-8.8214 1.7359 77.3376 -0.291 -0.461 -0.838 164 193 207
-8.6816 1.7015 77.2782 0.084 0.117 -0.990 164 193 207
-7.3854 1.4161 76.9803 -0.417 -0.353 -0.838 166 195 209
-5.4479 1.1325 77.6086 -0.250 -0.124 -0.960 145 174 192
-5.1614 1.1623 78.2404 -0.091 -0.137 -0.986 144 173 189
-4.8218 1.2136 79.1084 -0.152 -0.046 -0.987 151 180 196
-4.6717 1.1822 79.0868 -0.152 -0.046 -0.987 151 180 196
-4.6447 1.0992 78.5019 -0.161 -0.121 -0.979 151 180 196
6.6851 -1.0136 78.7642 -0.433 -0.014 -0.901 158 190 201
6.8499 -1.0427 78.7808 -0.496 -0.030 -0.868 157 189 201
6.9400 -1.0857 78.5860 0.036 -0.335 -0.942 157 189 202
7.2477 -1.1477 78.5584 -0.478 0.080 -0.874 173 206 221
9.2342 -1.9296 75.5145 0.071 -0.969 -0.237 197 233 245
9.3855 -1.9594 75.5066 0.055 -0.974 -0.220 201 238 249
15.1549 -2.7285 77.9440 -0.178 -0.399 -0.899 148 179 182
15.4445 -2.7929 77.8725 -0.447 -0.257 -0.857 149 180 183
17.6597 -3.1359 78.4500 -0.165 -0.562 -0.811 205 240 246
17.8314 -3.1661 78.4680 -0.134 -0.567 -0.812 206 241 250
19.0821 -3.4618 78.0278 -0.563 -0.649 -0.512 193 237 247
23.0010 -3.5289 83.1021 0.046 -0.735 -0.677 173 209 225
27.5032 -4.1792 84.6283 -0.325 -0.744 -0.584 146 188 198
30.2945 -4.5165 86.0688 0.173 -0.864 -0.473 123 163 189
30.5699 -4.5471 86.2310 0.146 -0.871 -0.470 139 176 203
29.9776 -5.5287 78.0165 0.656 -0.628 -0.419 120 156 177
-43.7808 10.0187 88.5480 -0.350 0.460 -0.816 78 110 137
-43.2713 9.8947 88.3443 -0.461 0.370 -0.807 95 129 156
-43.0712 9.8279 88.1298 -0.416 0.188 -0.890 116 151 171
-42.9021 9.7867 88.0621 0.614 -0.450 -0.649 140 175 193
-42.7752 9.7811 88.1986 0.603 -0.446 -0.661 160 195 215
-42.6517 9.7787 88.3540 0.571 -0.485 -0.662 116 151 171
-42.3355 9.7154 88.3288 -0.533 -0.317 -0.785 77 113 132
-42.0259 9.6580 88.3377 -0.398 -0.350 -0.848 53 89 111
-39.3303 8.7540 85.4211 -0.415 -0.584 -0.698 182 210 210
-39.1597 8.7071 85.3127 -0.370 -0.623 -0.689 183 212 212
-38.9661 8.6374 85.0682 -0.406 -0.802 -0.438 183 211 210
-34.0232 7.6221 84.4803 0.224 -0.818 -0.529 130 162 177
-32.8219 7.2249 83.2224 -0.333 -0.604 -0.724 77 106 122
-32.6668 7.1899 83.1803 -0.333 -0.604 -0.724 69 98 114
-32.1903 7.0665 82.9347 -0.499 -0.370 -0.784 108 136 158
-32.0441 7.0445 82.9770 -0.502 -0.418 -0.757 115 143 165
-31.1323 6.8597 82.8874 -0.494 -0.445 -0.747 121 147 165
-30.9744 6.8186 82.8043 -0.464 -0.411 -0.785 125 151 168
-30.3480 6.6603 82.5097 -0.204 -0.808 -0.553 163 193 209
-30.1918 6.6207 82.4355 -0.498 -0.460 -0.735 159 194 210
-19.9032 3.9134 76.8102 -0.158 0.378 -0.912 196 228 239
-12.7689 2.3757 75.4262 -0.075 -0.155 -0.985 109 133 143
-8.9225 1.9191 77.4403 0.059 -0.574 -0.817 164 193 207
-8.7977 1.8754 77.2920 -0.193 -0.420 -0.887 171 200 214
-7.3640 1.5540 76.9224 -0.398 -0.310 -0.863 173 202 216
-6.5172 1.1590 75.1826 0.436 -0.814 -0.382 150 179 195
-6.0273 1.0967 75.4088 -0.191 -0.401 -0.896 151 180 198
6.2847 -0.8309 78.4018 0.510 -0.606 -0.610 158 190 203
7.0297 -0.9295 78.7165 -0.041 -0.214 -0.976 163 195 210
7.0843 -0.9794 78.4231 -0.057 -0.761 -0.646 169 201 216
16.7019 -2.8062 78.3822 0.036 -0.557 -0.830 145 179 185
16.8775 -2.8357 78.4097 0.036 -0.557 -0.830 144 178 185
17.6631 -2.9926 78.3500 -0.165 -0.562 -0.811 138 172 181
17.8398 -3.0222 78.3784 -0.128 -0.557 -0.821 149 186 194
18.4697 -3.0573 79.0020 0.353 -0.649 -0.674 183 221 230
18.9650 -3.2401 78.3424 -0.203 -0.708 -0.676 197 238 244
19.0745 -3.2755 78.2341 -0.055 -0.687 -0.725 193 236 243
19.3586 -3.2967 78.4754 0.387 -0.621 -0.682 194 237 244
19.4361 -3.3346 78.3034 0.520 -0.539 -0.663 192 235 244
27.5254 -4.0223 84.5593 -0.357 -0.706 -0.612 137 177 187
27.6964 -4.0564 84.5472 -0.359 -0.727 -0.585 141 181 191
30.1081 -4.3660 85.6370 0.157 -0.875 -0.458 125 165 190
32.3450 -4.5684 87.2766 0.572 -0.613 -0.545 190 227 232
-48.1719 9.5528 77.8709 -0.829 0.405 -0.385 251 251 248
-43.7649 10.1749 88.5218 -0.407 0.452 -0.794 121 152 180
-42.6169 9.9188 88.2369 0.530 -0.471 -0.705 85 121 136
-42.4217 9.8551 88.0408 -0.669 -0.459 -0.585 62 98 109
-42.2865 9.8431 88.1402 -0.338 -0.516 -0.787 81 118 136
-42.1215 9.8054 88.0925 -0.366 -0.533 -0.763 70 106 129
-41.9614 9.7718 88.0688 -0.336 -0.508 -0.793 58 96 117
-39.2572 8.8509 85.0736 -0.591 -0.656 -0.469 180 211 200
-38.7277 8.6901 84.6295 -0.570 -0.660 -0.489 183 213 203
-37.8855 8.4565 84.0862 -0.444 -0.529 -0.723 185 215 208
-36.1976 8.2517 84.9240 -0.383 -0.289 -0.877 125 156 184
-36.0424 8.2195 84.9031 -0.386 -0.300 -0.872 126 156 185
-35.9030 8.2060 84.9973 -0.216 -0.485 -0.847 117 150 176
-33.7572 7.6145 83.6393 -0.781 -0.179 -0.598 116 148 163
-32.7879 7.3513 83.0552 0.016 -0.570 -0.822 77 109 124
-32.1724 7.2167 82.9218 -0.451 -0.387 -0.805 110 138 162
-32.0239 7.1912 82.9412 -0.560 -0.207 -0.802 115 143 165
-30.9532 6.9640 82.7603 -0.412 -0.450 -0.792 125 151 168
-30.1644 6.7534 82.3115 -0.225 -0.800 -0.556 159 192 209
-25.1163 5.4233 79.5662 -0.088 -0.475 -0.876 147 178 182
-24.9688 5.3954 79.5666 -0.088 -0.475 -0.876 147 178 181
-19.8871 4.0324 76.6270 -0.683 -0.438 -0.585 196 228 242
-14.8768 3.1701 77.2521 -0.101 -0.120 -0.988 101 126 135
-14.1901 3.3572 79.5711 -0.582 -0.436 -0.686 103 126 134
-13.7057 2.5896 74.6256 -0.344 -0.793 -0.503 107 134 144
-13.3181 2.3107 73.1213 -0.313 -0.776 -0.547 110 137 146
-12.1437 2.4188 75.5374 -0.465 0.278 -0.841 116 142 155
-11.5207 1.6751 70.9587 -0.619 0.079 -0.781 118 144 157
-11.4017 1.6354 70.8330 -0.826 -0.235 -0.512 118 144 156
-8.9034 2.0560 77.3679 0.046 -0.578 -0.814 170 199 213
-8.7824 2.0099 77.1978 -0.171 -0.284 -0.943 177 206 220
-7.3354 1.6957 76.9017 -0.393 -0.316 -0.863 179 208 222
-7.0504 1.6310 76.8225 -0.386 -0.319 -0.866 179 208 224
-6.9078 1.5987 76.7840 -0.389 -0.305 -0.869 158 187 203
-6.0108 1.2303 75.3297 -0.246 -0.397 -0.884 157 186 204
-5.8109 1.2259 75.5746 -0.360 -0.047 -0.932 155 187 203
6.2940 -0.6906 78.3050 0.572 -0.581 -0.579 165 194 208
7.2652 -0.6196 80.1688 -0.353 -0.404 -0.844 172 204 217
7.4377 -0.6481 80.1991 -0.425 -0.266 -0.865 171 203 218
7.2546 -0.8076 78.7784 -0.064 -0.372 -0.926 172 204 219
7.5724 -0.9283 78.3354 -0.207 -0.367 -0.907 173 206 223
15.9732 -2.5492 78.1027 0.182 -0.559 -0.809 145 178 183
16.4922 -2.6377 78.1732 0.248 -0.665 -0.704 146 178 183
16.6665 -2.6672 78.1988 0.126 -0.676 -0.726 146 178 183
16.8469 -2.6961 78.2370 -0.034 -0.687 -0.725 145 177 182
17.0428 -2.7235 78.3074 -0.060 -0.685 -0.726 144 177 183
17.5221 -2.8168 78.2884 -0.148 -0.564 -0.813 142 176 185
17.6814 -2.8479 78.2810 -0.148 -0.564 -0.813 139 175 184
17.8408 -2.8791 78.2736 -0.148 -0.564 -0.813 141 178 187
17.9604 -3.0050 77.5183 0.438 -0.600 -0.669 144 182 193
18.9427 -3.0987 78.1919 -0.195 -0.710 -0.677 211 251 253
19.0605 -3.1335 78.1006 -0.055 -0.687 -0.725 200 240 247
27.7008 -3.9005 84.4463 -0.398 -0.672 -0.625 146 185 196
32.6371 -4.5222 86.7299 -0.230 -0.793 -0.564 150 182 194
32.5373 -4.5679 86.2574 0.304 -0.566 -0.766 126 159 165
-45.1962 10.7288 89.3925 -0.319 0.302 -0.899 243 248 245
-44.8493 10.6425 89.2425 -0.371 0.351 -0.860 135 154 160
-44.6801 10.6027 89.1855 -0.349 0.338 -0.874 55 84 96
-43.7802 10.3572 88.6408 -0.407 0.282 -0.869 149 180 208
-43.5933 10.3017 88.4950 -0.666 0.175 -0.725 157 189 215
-43.3974 10.2385 88.3053 -0.647 0.214 -0.732 141 172 200
-42.7184 10.0717 88.0275 0.528 -0.463 -0.712 166 201 220
-42.5761 10.0536 88.0907 -0.673 -0.471 -0.571 60 96 112
-42.3769 9.9859 87.8738 -0.707 -0.440 -0.554 63 100 111
-42.2535 9.9844 88.0316 -0.322 -0.766 -0.556 64 101 119
-42.0811 9.9400 87.9460 -0.317 -0.765 -0.561 67 103 125
-41.9009 9.8884 87.8194 -0.268 -0.814 -0.515 69 107 128
-39.0393 8.9242 84.7605 -0.294 -0.745 -0.598 183 214 198
-38.9097 8.9171 84.8855 -0.062 -0.779 -0.624 184 215 199
-38.7432 8.8732 84.7957 -0.151 -0.750 -0.643 182 214 204
-36.3371 8.4377 84.9346 -0.554 -0.416 -0.721 170 204 232
-36.1799 8.4034 84.9007 -0.386 -0.300 -0.872 121 155 180
-36.0195 8.3650 84.8429 -0.386 -0.300 -0.872 122 156 183
-35.8592 8.3267 84.7850 -0.386 -0.300 -0.872 122 158 183
-33.7410 7.7673 83.6348 -0.749 -0.107 -0.653 111 143 158
-32.6140 7.4646 82.9870 0.375 -0.320 -0.870 91 123 138
-32.1480 7.3567 82.8430 -0.442 -0.252 -0.861 111 139 163
-31.3785 7.1859 82.6595 -0.060 -0.524 -0.850 133 160 179
-31.2193 7.1420 82.5603 -0.278 -0.546 -0.790 114 140 157
-29.2635 6.4755 80.4152 -0.137 -0.734 -0.665 182 218 234
-29.1057 6.4243 80.2608 0.226 -0.560 -0.797 188 226 243
-24.1866 5.1184 77.5414 -0.599 -0.004 -0.801 150 177 179
-21.4370 4.5623 77.2771 -0.567 -0.206 -0.798 195 226 242
-21.2849 4.5748 77.5752 -0.183 -0.478 -0.859 195 227 242
-17.5136 3.2256 72.9766 -0.091 0.386 -0.918 178 210 227
-13.9790 3.3164 78.4573 -0.522 -0.843 -0.134 109 133 143
-9.4164 2.2252 76.8023 0.247 -0.663 -0.707 107 133 146
-9.2574 2.2032 76.8607 0.209 -0.683 -0.700 165 193 207
-9.1104 2.1735 76.8469 -0.044 -0.639 -0.768 188 217 231
-8.9324 2.1630 77.0138 0.072 -0.706 -0.704 176 205 219
-6.0048 1.3589 75.2015 -0.299 -0.313 -0.901 161 192 212
-1.8397 1.1549 79.4125 0.785 -0.300 -0.542 164 192 206
0.3258 0.3426 76.5008 0.049 -0.585 -0.809 113 138 158
7.4379 -0.5065 80.0747 -0.376 -0.312 -0.872 179 211 224
7.2322 -0.6727 78.5935 -0.152 -0.376 -0.914 180 212 227
13.3971 -2.1711 76.1843 0.029 -0.514 -0.857 72 105 121
16.8481 -2.5535 78.1319 -0.033 -0.678 -0.734 143 178 186
17.0363 -2.5816 78.1860 -0.042 -0.682 -0.730 143 176 184
17.7230 -2.7011 78.2602 -0.078 -0.405 -0.911 147 184 193
17.9078 -2.7298 78.3053 -0.078 -0.381 -0.921 147 184 193
18.5931 -2.9416 77.7103 0.625 -0.307 -0.718 123 161 170
18.9291 -2.9568 78.0589 -0.214 -0.702 -0.680 137 177 185
32.5826 -4.3640 86.5301 -0.230 -0.793 -0.564 195 227 246
32.6140 -4.4050 86.2768 0.224 -0.347 -0.911 163 197 209
32.8596 -4.4371 86.3805 0.209 -0.404 -0.891 120 153 162
32.7171 -4.6904 84.3563 0.345 -0.679 -0.648 189 224 218
33.0136 -4.7202 84.5455 0.345 -0.679 -0.648 182 218 210
-45.0444 10.8735 89.4559 -0.202 0.054 -0.978 234 246 250
-44.8794 10.8373 89.4197 -0.202 0.054 -0.978 82 100 108
-44.7013 10.7903 89.3243 -0.177 0.047 -0.983 61 87 100
-44.1490 10.6334 88.9491 -0.305 0.053 -0.951 60 90 114
-43.9805 10.5938 88.8929 -0.305 0.053 -0.951 59 91 119
-43.8039 10.5472 88.7985 -0.168 0.172 -0.971 164 198 226
-43.6366 10.5083 88.7463 -0.284 0.128 -0.950 156 186 215
-43.4237 10.4306 88.4787 -0.708 0.093 -0.701 146 177 206
-42.7025 10.2278 88.0030 -0.544 -0.577 -0.609 149 184 205
-42.5127 10.1682 87.8333 -0.725 -0.463 -0.511 57 91 115
-42.3367 10.1204 87.7293 -0.709 -0.476 -0.520 76 111 131
-42.2031 10.1100 87.8354 -0.367 -0.787 -0.495 65 102 120
-39.0201 9.0727 84.7214 -0.685 -0.591 -0.425 186 214 199
-36.9524 8.7314 85.0709 -0.395 -0.391 -0.831 78 115 133
-36.7981 8.7006 85.0589 -0.468 -0.483 -0.740 113 149 169
-36.6400 8.6654 85.0204 -0.457 -0.466 -0.758 122 158 183
-36.4738 8.6206 84.9250 -0.441 -0.606 -0.662 153 189 214
-36.1536 8.5450 84.8165 -0.285 -0.508 -0.813 108 144 168
-35.9961 8.5100 84.7791 -0.291 -0.528 -0.798 122 158 184
-32.4431 7.5827 82.9485 0.283 -0.164 -0.945 185 216 234
-32.1251 7.4990 82.7795 -0.458 -0.266 -0.848 119 147 171
-31.3535 7.3243 82.5724 -0.060 -0.524 -0.850 122 149 168
-29.0667 6.5250 79.9495 0.165 -0.310 -0.936 189 227 244
-28.6460 6.4903 80.2682 -0.618 -0.384 -0.686 191 230 247
-12.7002 3.2794 78.8337 -0.640 -0.172 -0.749 122 150 162
-12.5500 3.2497 78.8241 -0.452 -0.239 -0.859 122 150 162
-1.4030 0.8533 76.7378 0.354 -0.260 -0.899 166 194 206
-0.2153 0.6118 76.6146 0.562 -0.586 -0.584 109 136 153
0.5775 0.6283 77.8000 -0.191 -0.213 -0.958 113 140 159
2.8697 0.0372 76.6698 -0.613 -0.076 -0.786 113 142 161
4.0404 -0.3417 75.5431 -0.346 -0.222 -0.912 109 134 154
7.3317 -0.5134 78.7493 -0.049 -0.440 -0.896 178 211 226
7.7778 -0.6716 78.2218 -0.079 -0.396 -0.915 186 219 236
7.9364 -0.7016 78.2211 -0.079 -0.396 -0.915 186 219 236
13.3749 -2.0358 76.0264 -0.001 -0.537 -0.844 125 160 181
17.7600 -2.5545 78.2300 -0.090 -0.411 -0.907 145 180 189
19.0325 -2.8502 77.8342 -0.055 -0.687 -0.725 127 170 179
24.9858 -3.2766 82.8079 0.175 -0.835 -0.521 123 159 184
31.6497 -4.0751 86.0840 0.322 -0.694 -0.644 155 197 216
31.8232 -4.1100 86.0688 -0.001 -0.808 -0.589 173 215 234
31.9906 -4.1452 86.0433 -0.118 -0.870 -0.478 189 229 251
32.5643 -4.2475 86.0860 0.058 -0.877 -0.477 193 227 243
32.8843 -4.2760 86.3132 0.209 -0.404 -0.891 170 205 215
-53.6186 13.7222 96.9750 -0.027 -0.919 -0.393 253 254 252
-45.0382 11.0393 89.4712 0.407 -0.437 -0.802 220 232 233
-44.8990 11.0242 89.5500 0.407 -0.437 -0.802 64 85 93
-44.6746 10.9391 89.2486 -0.589 -0.393 -0.707 63 91 107
-44.5045 10.8985 89.1884 -0.595 -0.368 -0.714 60 93 113
-44.1433 10.7993 88.9694 -0.391 -0.259 -0.883 59 89 113
-43.9554 10.7433 88.8245 0.030 -0.147 -0.989 85 115 143
-43.8123 10.7250 88.8856 0.046 -0.078 -0.996 173 204 233
-43.4224 10.5999 88.5221 -0.691 0.105 -0.716 154 185 212
-42.9958 10.4414 87.9723 -0.554 -0.434 -0.710 159 191 211
-42.8334 10.4058 87.9374 -0.488 -0.609 -0.625 177 210 229
-42.6662 10.3660 87.8789 -0.729 -0.453 -0.514 133 166 184
-42.4643 10.2954 87.6493 -0.725 -0.463 -0.511 60 92 113
-37.0957 8.9216 85.1025 0.122 -0.626 -0.771 128 167 183
-36.9547 8.9060 85.1800 -0.580 -0.474 -0.663 88 125 142
-36.1220 8.6801 84.6945 -0.296 -0.517 -0.804 100 136 162
-33.4624 7.9091 82.7959 0.019 -0.181 -0.983 122 154 169
-32.5621 7.7405 82.8033 0.053 -0.429 -0.902 138 169 187
-32.4053 7.7019 82.7401 -0.632 -0.245 -0.735 186 214 235
-32.2424 7.6536 82.6160 -0.632 -0.245 -0.735 112 140 162
-32.0933 7.6271 82.6272 -0.528 -0.270 -0.805 118 146 168
-29.3370 6.7166 79.8743 -0.504 -0.564 -0.654 183 217 231
-29.1795 6.6644 79.7161 0.144 -0.234 -0.961 183 217 231
-29.0366 6.6451 79.7693 0.144 -0.232 -0.962 190 227 244
-28.8759 6.5839 79.5517 -0.041 0.227 -0.973 192 228 246
-14.0829 3.4316 76.9937 -0.284 -0.446 -0.849 120 147 158
-13.6157 3.7509 79.8632 -0.575 -0.763 -0.294 120 147 158
-12.4645 3.4499 79.2721 -0.389 -0.861 -0.329 128 156 168
-12.3674 3.3699 78.8376 0.052 -0.761 -0.646 129 157 171
-11.7003 2.1382 71.0467 0.103 0.432 -0.896 134 160 175
-4.4354 1.1891 74.0096 -0.274 -0.251 -0.929 166 197 218
0.1557 0.7851 77.2616 0.133 -0.871 -0.474 113 142 156
0.3039 0.6767 76.6947 -0.336 -0.061 -0.940 113 142 158
0.6517 0.7082 77.3790 -0.330 -0.323 -0.887 113 142 160
0.4945 0.5832 76.2894 0.386 -0.480 -0.788 118 147 163
2.3180 0.3048 76.7505 -0.300 0.083 -0.950 153 182 199
2.4401 0.2670 76.6463 -0.205 0.165 -0.965 143 172 188
2.5867 0.2360 76.6224 -0.216 0.157 -0.964 110 139 155
2.7449 0.2080 76.6355 -0.538 -0.003 -0.843 115 144 160
2.8684 0.1709 76.5381 -0.534 -0.006 -0.845 116 145 161
4.4798 -0.0372 77.2122 -0.061 -0.811 -0.581 111 139 158
4.7243 -0.2427 76.0896 -0.351 0.229 -0.908 104 132 146
7.8302 -0.5223 78.2447 -0.065 -0.435 -0.898 186 219 236
13.4164 -1.4212 79.3321 -0.720 -0.248 -0.648 197 239 254
13.3835 -1.8968 75.9380 -0.001 -0.537 -0.844 151 186 206
31.9004 -3.9904 85.7837 -0.118 -0.870 -0.478 178 228 243
-45.0199 11.1954 89.4333 0.391 -0.457 -0.799 189 203 206
-44.4612 11.0333 89.0380 -0.623 -0.411 -0.666 59 93 115
-44.1014 10.9348 88.8241 -0.088 -0.497 -0.863 62 94 117
-42.9333 10.5566 87.7234 -0.492 -0.582 -0.647 166 198 218
-42.7860 10.5342 87.7604 -0.525 -0.640 -0.561 190 223 241
-42.6173 10.4928 87.6935 -0.742 -0.509 -0.438 99 132 149
-42.4126 10.4191 87.4488 -0.736 -0.518 -0.436 64 97 116
-42.2317 10.3663 87.3184 -0.620 -0.591 -0.516 72 104 123
-42.1083 10.3654 87.4735 -0.146 -0.849 -0.507 72 101 112
-41.8678 10.2580 87.0418 -0.265 -0.927 -0.265 79 109 114
-37.0588 9.0517 84.9500 0.069 -0.542 -0.838 116 155 172
-36.7378 8.9754 84.8401 -0.443 -0.509 -0.738 126 164 186
-36.0879 8.8120 84.5549 -0.189 -0.652 -0.734 96 132 158
-35.5970 8.6831 84.3009 -0.163 -0.529 -0.833 197 235 252
-33.6421 8.1550 83.1885 -0.553 0.156 -0.818 133 165 180
-32.6942 7.9185 82.7846 0.123 -0.361 -0.924 51 83 98
-32.5390 7.8826 82.7384 -0.381 -0.489 -0.785 154 185 203
-32.3833 7.8458 82.6862 -0.627 -0.238 -0.741 182 211 229
-29.4483 6.8538 79.6299 -0.233 -0.501 -0.833 192 225 236
-29.3006 6.8230 79.6092 -0.269 -0.494 -0.827 205 236 243
-29.1550 6.7971 79.6200 0.121 -0.253 -0.960 194 225 237
-29.0148 6.7839 79.7116 0.144 -0.234 -0.961 182 215 229
-28.8570 6.7295 79.5397 -0.019 0.198 -0.980 167 200 215
-26.2022 6.1801 79.1963 -0.483 -0.310 -0.819 142 175 192
-21.7821 5.2637 78.6124 0.182 -0.608 -0.773 192 229 255
-14.0531 3.5781 77.0127 -0.164 -0.477 -0.863 126 153 164
-12.7678 3.6279 79.0436 -0.354 -0.465 -0.811 134 162 174
-12.6085 3.6064 79.1022 -0.339 -0.522 -0.783 134 162 174
-8.7768 2.1522 74.0055 -0.050 -0.703 -0.709 183 212 226
-8.0640 2.0084 73.9389 -0.412 -0.689 -0.597 184 216 231
-4.2702 1.2946 73.9438 -0.388 -0.144 -0.910 171 202 223
0.3003 0.8080 76.5470 -0.640 -0.308 -0.704 113 142 158
0.6773 0.8500 77.3334 -0.306 -0.356 -0.883 113 142 160
0.4941 0.7151 76.1549 0.392 -0.482 -0.784 117 146 162
2.8139 0.2900 76.2373 -0.843 -0.398 -0.361 116 145 161
6.1758 -0.2295 77.0278 0.589 -0.379 -0.714 186 219 234
7.5956 -0.1790 79.2397 -0.766 -0.019 -0.642 185 217 232
18.0743 -2.2836 78.3278 0.200 -0.838 -0.508 140 180 192
18.9406 -2.4804 78.0937 -0.420 -0.552 -0.720 139 176 188
19.0148 -2.5201 77.9148 -0.204 -0.197 -0.959 141 176 188
19.1306 -2.5555 77.8200 -0.180 -0.172 -0.968 142 175 188
19.2824 -2.5874 77.7973 -0.180 -0.172 -0.968 143 176 189
27.8779 -3.3131 84.0119 -0.034 -0.195 -0.980 159 197 210
28.0366 -3.3478 83.9785 -0.017 -0.222 -0.975 159 196 212
28.2441 -3.3793 84.0312 -0.027 -0.208 -0.978 157 196 211
28.4231 -3.4127 84.0333 -0.027 -0.208 -0.978 152 194 210
30.5159 -3.6428 85.1747 0.133 -0.803 -0.582 165 209 234
31.6734 -3.7997 85.6001 -0.017 -0.901 -0.433 151 200 215
31.8887 -3.8322 85.6561 -0.025 -0.902 -0.431 172 224 238
33.6109 -4.0949 86.0854 -0.132 -0.653 -0.746 90 106 123
36.4651 -4.2295 88.8888 -0.620 -0.549 -0.560 185 222 213
-52.6623 13.0362 91.0685 -0.342 -0.892 -0.295 79 110 139
-45.2586 11.3638 89.1474 0.221 -0.530 -0.819 244 250 248
-45.1199 11.3491 89.2254 0.211 -0.530 -0.822 230 241 240
-44.9746 11.3291 89.2756 0.211 -0.530 -0.822 145 163 168
-44.5840 11.2055 88.9312 -0.676 -0.358 -0.644 63 96 114
-44.4228 11.1720 88.9094 -0.618 -0.415 -0.668 60 97 118
-44.2794 11.1536 88.9686 -0.634 -0.461 -0.622 67 103 125
-42.8874 10.6860 87.5545 -0.475 -0.597 -0.646 172 204 223
-42.7690 10.6892 87.7297 -0.736 -0.518 -0.436 196 227 246
-42.5606 10.6121 87.4695 -0.736 -0.518 -0.436 70 101 119
-42.3532 10.5355 87.2106 -0.736 -0.518 -0.436 63 95 112
-42.0280 10.4622 87.1278 -0.387 -0.791 -0.474 97 126 131
-37.0368 9.1985 84.8958 -0.226 -0.534 -0.815 95 134 151
-36.8791 9.1637 84.8602 -0.444 -0.528 -0.724 120 157 175
-36.7028 9.1069 84.6976 -0.416 -0.570 -0.709 131 167 190
-36.3700 9.0157 84.5012 -0.455 -0.400 -0.795 189 225 247
-36.0557 8.9459 84.4280 -0.150 -0.634 -0.759 100 136 162
-35.9029 8.9164 84.4224 -0.150 -0.634 -0.759 128 164 190
-35.5724 8.8259 84.2278 -0.147 -0.510 -0.848 195 233 251
-32.8057 8.0645 82.5721 0.100 -0.625 -0.774 93 126 141
-24.1027 5.6852 77.4716 -0.443 0.097 -0.891 155 183 208
-15.8323 4.2498 78.3003 0.423 -0.091 -0.902 188 217 231
-14.2086 3.5150 75.3489 -0.604 -0.292 -0.741 129 156 167
-14.1110 3.4349 74.9246 -0.378 -0.864 -0.332 129 156 167
-12.6718 3.8425 79.5879 -0.186 0.500 -0.846 135 163 175
-8.9288 2.2953 73.7929 -0.152 -0.390 -0.908 189 218 232
-8.3784 2.1694 73.6393 -0.016 0.033 -0.999 185 217 232
-8.0759 2.1228 73.7097 -0.225 -0.403 -0.887 186 218 233
-0.7101 1.0800 76.0671 -0.011 -0.343 -0.939 126 155 169
0.3234 0.9476 76.4940 -0.642 -0.316 -0.699 114 143 159
0.3983 0.8937 76.2199 -0.602 -0.258 -0.756 114 143 161
2.4836 0.5465 76.5301 -0.682 -0.540 -0.494 148 177 193
8.0483 0.1254 80.8318 0.727 -0.370 -0.579 188 221 236
7.5344 -0.0522 78.9466 -0.761 -0.232 -0.606 188 221 236
7.5849 -0.1059 78.6425 -0.744 -0.230 -0.627 190 226 240
7.6955 -0.1464 78.5070 -0.751 -0.167 -0.639 190 226 240
7.8098 -0.1860 78.3829 -0.751 -0.167 -0.639 190 226 240
13.9292 -1.4403 77.6743 -0.267 -0.771 -0.578 173 208 228
14.0453 -1.4769 77.5731 -0.298 -0.756 -0.583 174 206 227
16.7900 -2.0906 76.9039 0.079 -0.990 -0.120 205 245 254
17.1005 -2.1037 77.2152 0.079 -0.990 -0.120 206 246 254
17.4567 -2.1120 77.6187 0.098 -0.979 -0.176 187 229 237
18.4899 -2.3369 77.4093 0.280 -0.435 -0.856 139 177 188
18.8994 -2.3417 77.9054 -0.403 -0.548 -0.733 142 176 191
19.0048 -2.3784 77.7895 -0.145 -0.226 -0.963 142 174 189
19.1599 -2.4100 77.7735 -0.145 -0.226 -0.963 144 175 188
19.4245 -2.4305 77.9745 0.236 -0.611 -0.755 144 174 188
19.4374 -2.4763 77.6766 -0.161 -0.299 -0.940 141 173 186
20.1503 -2.5001 78.4345 0.337 -0.575 -0.745 139 171 184
23.0009 -2.5651 81.6741 -0.532 -0.353 -0.770 136 167 175
23.2430 -2.6385 81.4822 -0.536 -0.325 -0.779 142 176 182
30.4340 -3.4903 84.9268 0.174 -0.776 -0.606 156 200 225
31.7671 -3.6803 85.3448 -0.025 -0.902 -0.431 167 219 233
33.5934 -3.9359 85.9493 -0.132 -0.653 -0.746 155 171 188
-52.5370 13.1205 90.6689 -0.342 -0.892 -0.295 77 110 143
-45.1021 11.5054 89.1891 -0.042 -0.499 -0.866 235 248 249
-44.9481 11.4783 89.2015 -0.004 -0.465 -0.885 83 105 111
-44.5554 11.3522 88.8469 -0.651 -0.368 -0.664 63 99 119
-44.3918 11.3167 88.8143 -0.593 -0.433 -0.679 61 101 123
-44.2084 11.2641 88.6914 -0.556 -0.448 -0.700 68 106 129
-42.7003 10.7978 87.4493 -0.640 -0.639 -0.427 176 208 222
-42.5052 10.7321 87.2521 -0.734 -0.513 -0.445 71 103 115
-42.2996 10.6564 87.0004 -0.734 -0.513 -0.445 88 120 133
-41.9368 10.5480 86.7274 -0.567 -0.717 -0.406 137 166 169
-39.7237 9.8346 84.7062 -0.314 -0.538 -0.783 188 217 214
-37.0080 9.3375 84.7965 -0.225 -0.551 -0.804 91 130 147
-36.8417 9.2924 84.7024 -0.257 -0.724 -0.640 119 157 176
-36.6722 9.2433 84.5854 -0.418 -0.579 -0.700 131 167 190
-36.3449 9.1582 84.4251 -0.479 -0.390 -0.786 195 230 249
-36.1859 9.1210 84.3756 -0.520 -0.381 -0.764 146 180 205
-36.0237 9.0798 84.3029 -0.482 -0.403 -0.778 104 138 165
-35.8736 9.0535 84.3155 -0.221 -0.546 -0.808 130 166 190
-35.7188 9.0214 84.2949 -0.221 -0.546 -0.808 161 197 218
-35.5503 8.9718 84.1735 -0.147 -0.496 -0.856 194 233 250
-34.2476 8.4430 82.2447 0.588 -0.466 -0.661 154 187 202
-16.7508 4.4810 77.6681 -0.744 -0.601 -0.291 184 215 233
-16.5913 4.4722 77.8117 -0.770 -0.409 -0.490 184 215 233
-16.4540 4.4260 77.6730 -0.766 -0.411 -0.494 185 216 234
-16.3449 4.3354 77.1971 -0.692 -0.549 -0.468 186 217 235
-15.8402 4.3445 77.9031 0.226 0.092 -0.970 188 217 231
-14.0807 3.5794 74.9523 -0.684 -0.343 -0.644 129 156 167
-8.3496 2.3073 73.6274 -0.369 0.034 -0.929 157 189 204
-8.2105 2.2768 73.5978 -0.669 -0.024 -0.743 155 187 202
-8.0597 2.2532 73.6300 -0.250 -0.451 -0.857 157 189 204
-0.6867 1.2190 76.0164 -0.008 -0.334 -0.943 130 159 173
0.3189 1.1581 76.8860 0.596 -0.377 -0.709 117 146 162
14.6419 -1.2504 78.8092 -0.541 0.295 -0.788 180 216 236
14.3858 -1.3942 77.5060 0.060 -0.714 -0.697 177 213 232
15.9909 -1.9969 75.4612 0.039 -0.994 -0.101 196 236 248
16.2676 -2.0124 75.7088 0.078 -0.991 -0.111 194 234 244
16.6592 -2.0147 76.1928 0.079 -0.990 -0.120 196 236 246
18.5450 -2.1891 77.4152 0.281 -0.452 -0.847 148 186 197
18.9223 -2.1966 77.8458 -0.715 0.066 -0.696 139 178 189
19.3680 -2.3409 77.4350 0.140 -0.460 -0.877 139 174 186
27.3684 -2.9018 83.8359 0.284 -0.553 -0.783 155 188 203
36.5510 -3.9401 88.5038 -0.396 -0.481 -0.782 184 223 215
-53.5809 14.2473 95.8001 -0.371 -0.686 -0.626 237 248 253
-45.2245 11.6774 89.0812 0.103 -0.547 -0.831 241 251 251
-45.0769 11.6556 89.1209 0.026 -0.492 -0.870 219 234 236
-44.9245 11.6299 89.1400 0.026 -0.492 -0.870 71 95 104
-44.3550 11.4563 88.6931 -0.593 -0.433 -0.679 59 100 124
-44.1724 11.4042 88.5732 -0.556 -0.448 -0.700 61 101 123
-42.7569 10.9084 87.0294 -0.170 -0.836 -0.521 159 192 201
-42.4534 10.8548 87.0521 -0.737 -0.503 -0.452 112 143 150
-42.2485 10.7792 86.8024 -0.737 -0.503 -0.452 136 166 173
-41.8953 10.6790 86.5750 -0.573 -0.673 -0.469 169 200 196
-37.7622 9.6444 84.8387 -0.270 -0.329 -0.905 196 235 250
-36.9739 9.4701 84.6621 -0.211 -0.729 -0.651 90 129 146
-36.8123 9.4303 84.5988 -0.222 -0.732 -0.644 121 159 178
-36.6453 9.3839 84.4977 -0.256 -0.722 -0.643 131 167 190
-36.1597 9.2621 84.2921 -0.515 -0.174 -0.840 127 161 186
-35.5307 9.1209 84.1366 -0.135 -0.479 -0.867 192 231 248
-35.3794 9.0931 84.1412 -0.135 -0.379 -0.916 185 224 239
-32.9008 8.3628 82.3621 -0.441 -0.852 -0.283 80 111 131
-27.7744 6.9780 79.5275 -0.370 -0.417 -0.830 137 169 183
-22.7497 5.8403 78.2222 -0.245 -0.492 -0.836 184 220 252
-22.1511 5.8567 79.0865 -0.643 0.121 -0.757 184 221 247
-8.4323 2.4930 73.7952 0.064 0.323 -0.944 191 222 239
-8.1849 2.4127 73.5678 -0.709 0.037 -0.704 191 223 238
-8.0424 2.3842 73.5561 -0.250 -0.451 -0.857 191 223 238
-5.1174 1.9446 74.2913 -0.089 -0.369 -0.925 172 204 225
-4.9843 1.9103 74.2285 -0.227 -0.451 -0.863 168 200 221
-4.9054 1.6616 72.6590 0.219 -0.110 -0.969 168 200 221
-4.7523 1.6384 72.6963 0.219 -0.110 -0.969 175 207 228
1.6910 0.9498 76.1921 -0.055 -0.452 -0.890 115 144 162
5.3661 0.1838 75.6807 -0.361 -0.541 -0.760 123 155 170
5.5045 0.1511 75.6360 -0.351 -0.538 -0.766 188 221 236
5.6439 0.1188 75.5946 -0.301 -0.558 -0.773 197 230 243
14.0142 -0.9819 78.7527 -0.763 -0.283 -0.581 177 218 236
14.6867 -1.1013 78.7985 -0.608 0.000 -0.794 181 221 241
14.7785 -1.1424 78.6381 -0.111 0.233 -0.966 180 220 240
18.3335 -1.9735 77.5392 -0.111 -0.932 -0.346 201 238 247
19.2763 -2.1606 77.4713 -0.750 0.128 -0.648 137 171 181
20.2010 -2.2072 78.3235 0.336 -0.416 -0.845 136 172 181
27.2783 -2.7544 83.5666 0.179 -0.573 -0.800 168 200 211
27.4482 -2.7882 83.5542 0.080 -0.602 -0.794 164 200 210
31.2075 -3.3083 84.7991 -0.085 -0.822 -0.564 117 164 183
31.8042 -3.4516 84.5893 0.070 -0.609 -0.790 185 233 248
33.7299 -3.6093 85.9567 -0.052 -0.431 -0.901 175 192 209
34.5271 -3.7442 86.0555 -0.322 0.466 -0.825 110 134 147
-42.7078 11.0333 86.8446 -0.167 -0.841 -0.515 166 200 199
-42.5452 10.9965 86.8022 -0.508 -0.772 -0.382 168 200 199
-42.3574 10.9362 86.6361 -0.649 -0.667 -0.364 168 200 201
-42.1557 10.8627 86.3994 -0.649 -0.671 -0.359 165 199 198
-38.5846 10.0257 85.2893 -0.457 -0.542 -0.705 163 201 220
-36.9371 9.5992 84.5094 -0.213 -0.723 -0.657 105 144 161
-36.7743 9.5576 84.4366 -0.211 -0.730 -0.650 137 176 194
-35.5014 9.2576 84.0293 0.030 -0.538 -0.842 194 231 248
-35.3539 9.2347 84.0614 -0.012 -0.561 -0.828 186 223 239
-34.2657 8.8158 82.6364 -0.849 -0.286 -0.445 153 185 198
-23.7614 6.3578 79.3981 -0.709 -0.585 -0.394 176 220 253
-11.6936 3.2803 73.9950 0.019 -0.719 -0.695 151 178 195
-8.3001 2.5782 73.5590 -0.634 0.190 -0.749 176 207 225
-4.5592 1.7562 72.7592 0.404 -0.288 -0.868 172 204 225
5.5121 0.2867 75.5380 -0.361 -0.541 -0.760 156 189 204
5.6491 0.2538 75.4900 -0.304 -0.555 -0.774 182 215 229
7.3959 -0.0533 75.6256 0.515 0.395 -0.760 192 228 242
14.7450 -1.0052 78.4519 0.114 0.017 -0.993 178 223 242
18.0084 -1.8204 77.1036 -0.160 -0.930 -0.331 199 238 249
18.2144 -1.8456 77.1928 -0.097 -0.934 -0.344 201 239 250
18.4110 -1.8720 77.2624 0.076 -0.934 -0.349 197 235 247
19.3189 -2.0137 77.4510 -0.750 0.128 -0.648 193 225 237
20.2378 -2.0595 78.2903 0.370 -0.285 -0.884 140 173 183
22.5269 -2.3079 79.4895 -0.130 -0.665 -0.736 145 176 179
22.6053 -2.3479 79.3214 0.176 -0.395 -0.902 148 179 182
23.8477 -2.4217 80.3775 -0.372 -0.472 -0.799 142 173 176
27.1874 -2.6077 83.2964 -0.588 -0.226 -0.776 160 193 202
28.5307 -2.6430 84.7329 0.579 0.379 -0.722 155 189 198
31.8157 -3.2939 84.5017 0.190 -0.506 -0.841 185 233 248
33.1818 -3.3462 85.8533 0.173 -0.309 -0.935 196 232 245
34.1856 -3.5136 85.9915 -0.050 -0.450 -0.892 169 190 199
34.5521 -3.5828 85.9885 -0.024 -0.113 -0.993 120 142 155
34.7446 -3.6169 86.0016 -0.321 0.446 -0.835 153 174 185
35.9342 -3.5985 87.6031 0.163 -0.919 -0.359 198 228 239
-43.7941 11.6303 88.3627 0.607 -0.646 -0.464 166 202 224
-43.5841 11.6643 88.8433 0.012 -0.214 -0.977 158 194 217
-42.5018 11.1260 86.6436 -0.269 -0.759 -0.593 168 201 192
-40.8536 10.6076 85.2692 -0.184 -0.792 -0.582 184 213 208
-38.8627 10.2248 85.2041 -0.201 -0.357 -0.912 129 161 185
-38.7195 10.2064 85.2596 -0.388 -0.333 -0.859 149 185 208
-38.5591 10.1694 85.2143 -0.365 -0.337 -0.868 180 221 241
-38.3913 10.1241 85.1228 -0.355 -0.343 -0.870 190 232 249
-38.2209 10.0756 85.0141 -0.344 -0.356 -0.869 190 231 251
-38.0147 9.9862 84.6817 -0.589 -0.282 -0.757 192 230 252
-36.8966 9.7234 84.3316 -0.145 -0.670 -0.728 101 140 157
-36.7318 9.6792 84.2444 -0.141 -0.732 -0.666 134 172 190
-35.4622 9.3808 83.8472 0.062 -0.686 -0.725 193 230 247
-35.3153 9.3587 83.8829 0.047 -0.688 -0.725 185 222 238
-35.1762 9.3473 83.9785 -0.143 -0.281 -0.949 177 214 230
-34.2574 8.9790 82.6926 -0.913 -0.183 -0.364 152 184 195
-32.6256 8.4895 81.4874 -0.361 -0.903 -0.233 123 156 175
-32.2731 8.3419 80.9524 -0.302 -0.939 -0.165 171 203 218
-24.4803 6.6275 79.2829 0.073 -0.607 -0.792 171 215 247
-23.4382 6.1583 77.4868 -0.843 -0.261 -0.470 182 224 249
-10.7944 3.2617 74.0233 0.046 -0.696 -0.717 148 177 193
-7.9803 2.6629 73.5534 -0.128 -0.107 -0.986 180 213 230
-7.8238 2.6428 73.6136 -0.150 -0.082 -0.985 194 227 244
1.9594 1.2221 76.3122 0.086 -0.819 -0.568 118 146 167
5.6618 0.3905 75.4069 -0.388 -0.471 -0.792 173 207 219
14.8110 -1.3878 74.9834 -0.313 -0.363 -0.878 175 217 234
14.9593 -1.4184 74.9647 -0.320 -0.360 -0.877 177 220 236
15.4287 -1.4049 75.6297 0.362 0.211 -0.908 185 229 242
21.6755 -1.9568 79.6810 0.266 -0.382 -0.885 139 169 177
22.6738 -2.1951 79.3451 -0.031 -0.679 -0.734 141 172 175
23.6801 -2.2415 80.2764 -0.369 -0.466 -0.804 140 174 176
23.8490 -2.2734 80.2744 -0.362 -0.472 -0.804 145 178 183
23.9997 -2.3071 80.2390 -0.372 -0.472 -0.799 153 186 191
24.1794 -2.3380 80.2568 0.120 -0.356 -0.927 142 175 180
24.2797 -2.3762 80.1293 -0.019 -0.565 -0.825 139 172 177
26.8674 -2.3368 83.5649 -0.646 -0.184 -0.741 136 168 179
28.0532 -2.4295 84.4130 0.567 0.378 -0.732 166 200 210
28.7070 -2.4723 84.9348 0.567 0.375 -0.734 157 189 200
33.1478 -3.1889 85.6900 0.157 -0.593 -0.789 192 232 246
33.5095 -3.2579 85.6819 0.067 -0.677 -0.733 196 218 235
34.5744 -3.4215 85.9172 -0.116 -0.291 -0.950 126 149 159
34.7518 -3.4564 85.9062 -0.116 -0.291 -0.950 137 158 166
-41.4859 10.9138 85.4521 0.291 -0.679 -0.674 181 215 208
-38.8428 10.3745 85.1619 -0.244 -0.289 -0.925 135 169 195
-38.6868 10.3422 85.1416 -0.468 -0.306 -0.829 147 185 208
-38.5337 10.3132 85.1396 -0.299 -0.205 -0.932 182 224 244
-38.3739 10.2766 85.0963 -0.299 -0.205 -0.932 185 229 247
-37.9879 10.1275 84.5979 -0.577 -0.309 -0.756 190 231 253
-37.0047 9.8720 84.1340 -0.314 -0.439 -0.842 146 185 200
-36.8666 9.8600 84.2239 -0.096 -0.646 -0.757 98 137 152
-35.1482 9.4854 83.8797 -0.123 -0.465 -0.877 171 208 224
-34.5691 9.2264 82.9039 -0.778 -0.139 -0.612 153 189 204
-34.2337 9.1204 82.6237 -0.917 -0.178 -0.356 152 184 195
-24.4564 6.7445 79.0823 0.067 -0.616 -0.785 174 219 247
-23.7088 6.3890 77.6851 -0.482 -0.838 -0.255 180 227 253
