ply
format ascii 1.0
element vertex 877
property float x
property float y
property float z
property float nx
property float ny
property float nz
property uchar diffuse_red
property uchar diffuse_green
property uchar diffuse_blue
end_header
27.4646 25.8787 63.8874 0.516 -0.213 -0.830 130 121 112
27.5723 25.8988 63.9746 0.498 -0.222 -0.838 127 118 111
27.7837 25.9428 64.1567 0.473 -0.111 -0.874 133 124 117
27.9025 25.9540 64.2258 0.493 -0.137 -0.859 129 120 113
29.9566 25.8873 64.7832 0.239 -0.275 -0.931 144 136 125
31.4580 25.9531 65.4717 0.212 -0.060 -0.975 145 137 126
31.6977 25.8518 65.3074 0.294 -0.218 -0.931 148 140 129
34.6490 25.8932 66.4451 0.378 -0.503 -0.777 105 101 96
34.7736 25.8986 66.5021 0.378 -0.503 -0.777 40 37 32
34.8878 25.9147 66.5816 0.443 -0.326 -0.835 38 38 30
34.9846 25.9491 66.7000 0.552 -0.195 -0.811 72 72 63
36.1714 26.0691 67.4109 0.335 -0.340 -0.879 61 65 40
39.2716 25.7627 67.7476 0.434 -0.087 -0.897 61 92 25
41.2826 26.3154 69.8090 0.469 -0.419 -0.778 138 150 118
42.2258 26.4428 70.4527 0.305 -0.103 -0.947 124 139 110
42.3563 26.4413 70.4949 0.305 -0.103 -0.947 124 136 111
43.9790 26.7310 71.7748 0.375 -0.439 -0.816 78 84 74
44.0909 26.7595 71.8842 0.436 -0.061 -0.898 80 86 76
47.3430 27.2331 74.1871 0.884 -0.448 -0.136 74 97 71
48.6577 27.4940 75.2886 0.214 0.235 -0.948 61 87 52
50.3445 26.9317 74.5017 0.474 -0.874 0.108 69 104 48
50.5523 26.7459 74.1189 0.435 -0.900 -0.041 67 100 46
50.8251 26.7053 74.1152 0.300 -0.946 -0.120 71 106 48
51.7846 29.3949 81.0482 0.910 0.379 -0.167 102 116 105
54.4818 29.1150 81.3085 0.700 -0.708 0.097 105 116 110
56.5147 29.7965 83.6936 -0.201 0.666 -0.718 139 154 149
56.8144 29.6825 83.5191 0.655 0.533 -0.535 116 122 117
61.2774 26.8591 78.1616 0.463 0.302 -0.833 87 91 77
62.5865 29.0039 83.8811 0.707 -0.706 0.047 100 104 89
63.5206 27.4307 80.3508 0.294 0.433 -0.852 102 106 92
63.6473 27.4747 80.5032 0.559 -0.051 -0.828 97 101 87
66.2464 28.3381 83.5332 0.590 -0.786 -0.186 103 109 95
66.3758 28.3374 83.5769 0.846 -0.511 -0.150 97 103 89
67.0798 28.8737 85.1392 0.668 -0.617 -0.415 106 113 105
67.2209 28.9616 85.4043 0.667 -0.643 -0.376 108 115 107
67.6361 29.1280 85.9582 0.778 -0.554 -0.296 122 129 122
67.7778 29.2026 86.1910 0.778 -0.554 -0.296 127 134 127
68.1836 29.2645 86.4851 0.600 -0.579 -0.553 109 119 111
68.3383 29.4194 86.9193 0.743 -0.499 -0.446 106 115 110
-17.7120 32.8731 64.7124 0.051 -0.484 -0.874 56 71 52
-16.8901 32.6586 64.4778 -0.358 -0.258 -0.897 50 64 49
-9.0101 30.7175 62.5099 0.058 -0.568 -0.821 57 63 59
-8.1800 30.4763 62.2131 -0.385 -0.567 -0.729 69 74 68
-7.1726 30.3024 62.1429 0.164 -0.025 -0.986 67 72 66
-6.9553 30.2751 62.1526 0.052 -0.193 -0.980 74 79 73
-6.2458 30.1642 62.1313 0.163 -0.083 -0.983 80 82 79
-1.6317 29.3577 61.7847 0.194 -0.385 -0.902 67 67 67
-1.3822 29.3096 61.7549 -0.062 -0.399 -0.915 71 71 71
1.6588 28.7663 61.4978 0.496 -0.285 -0.820 78 81 74
4.0761 28.2788 61.1576 0.139 -0.049 -0.989 51 56 51
6.2181 27.9976 61.2244 0.289 -0.394 -0.872 71 70 68
6.2533 28.0600 61.3890 0.539 -0.304 -0.786 91 90 88
10.6897 27.3481 61.2108 0.342 -0.430 -0.835 101 104 93
10.8347 27.3469 61.2589 0.443 -0.403 -0.801 90 93 84
10.9149 27.3842 61.3781 0.292 -0.478 -0.828 95 98 87
12.0167 27.2369 61.4060 0.154 -0.397 -0.905 118 122 109
13.8453 26.9828 61.4285 -0.071 -0.294 -0.953 115 122 110
14.7674 26.8443 61.4145 0.387 -0.067 -0.920 162 164 155
14.8909 26.8544 61.4827 0.360 -0.041 -0.932 166 169 158
19.0997 26.4496 61.9740 0.563 -0.258 -0.785 130 125 106
19.2117 26.4664 62.0543 0.308 -0.426 -0.851 124 119 100
21.2718 26.3580 62.5140 0.506 -0.333 -0.796 91 91 81
21.5810 26.3305 62.5556 0.369 -0.263 -0.891 83 83 73
22.6443 26.2442 62.7186 0.322 -0.512 -0.797 146 148 137
22.9521 26.2155 62.7569 0.313 -0.404 -0.860 135 131 120
23.1002 26.2053 62.7840 0.284 -0.411 -0.866 156 150 138
23.2360 26.2042 62.8290 0.284 -0.411 -0.866 142 132 122
23.5216 26.2923 63.1444 0.335 -0.422 -0.842 147 135 123
23.9693 26.3609 63.4694 0.474 -0.306 -0.826 144 142 127
26.1525 26.1183 63.6445 0.430 -0.402 -0.808 121 113 99
26.2658 26.1340 63.7227 0.332 -0.215 -0.918 99 92 76
27.8824 26.1136 64.2411 0.386 -0.286 -0.877 112 103 97
28.2756 26.1167 64.3869 0.336 -0.150 -0.930 124 114 104
28.6989 26.2075 64.7573 0.466 -0.458 -0.757 144 134 124
29.8241 26.0309 64.7219 0.253 -0.305 -0.918 145 135 125
29.9672 26.0204 64.7466 0.239 -0.275 -0.931 139 131 120
30.9977 26.1581 65.4448 0.525 -0.608 -0.596 126 120 104
32.2721 26.0693 65.6760 0.384 -0.123 -0.915 136 127 118
32.5683 26.0356 65.6980 0.225 -0.180 -0.958 169 160 151
32.8000 26.0641 65.8488 0.039 -0.395 -0.918 143 134 125
33.3853 26.0011 65.9009 0.422 -0.487 -0.765 156 149 139
34.4035 26.0226 66.3112 0.391 -0.321 -0.863 101 92 88
34.5405 26.0152 66.3413 0.283 -0.494 -0.822 105 96 94
34.6738 26.0115 66.3791 0.364 -0.504 -0.783 152 146 143
34.7990 26.0161 66.4343 0.364 -0.504 -0.783 105 102 97
34.9019 26.0440 66.5387 0.443 -0.326 -0.835 45 42 36
35.7274 26.2726 67.3868 0.271 -0.071 -0.960 72 75 46
35.8944 26.2328 67.3483 0.237 -0.137 -0.962 68 71 41
38.0714 26.2680 68.1996 0.425 -0.671 -0.608 60 73 40
38.5014 26.0639 67.8524 0.587 -0.631 -0.507 68 82 41
39.3606 26.2739 68.6671 0.512 -0.108 -0.852 64 93 30
39.9117 26.3947 69.1555 0.526 0.040 -0.849 68 99 30
40.0679 26.3603 69.1265 0.714 -0.109 -0.692 69 99 35
41.3139 26.4218 69.7146 0.523 -0.401 -0.752 95 104 78
41.4485 26.4143 69.7437 0.413 -0.288 -0.864 107 116 90
42.3648 26.5796 70.4693 0.352 0.069 -0.933 82 90 70
43.0908 26.8485 71.3807 0.300 -0.325 -0.897 103 109 97
43.2186 26.8522 71.4347 0.270 -0.277 -0.922 90 96 84
43.6225 26.8318 71.5268 0.034 -0.482 -0.875 89 94 87
43.7316 26.8642 71.6442 0.724 -0.118 -0.680 96 101 94
44.0169 26.8249 71.6486 0.400 -0.628 -0.667 89 95 85
44.9983 26.9185 72.2221 0.120 0.152 -0.981 64 75 58
45.1436 26.8930 72.2109 0.169 0.031 -0.985 77 86 68
45.4157 26.8717 72.2545 0.162 -0.072 -0.984 86 101 81
46.1393 26.9665 72.7401 -0.473 -0.363 -0.803 72 93 73
48.5909 27.7991 75.6341 0.405 -0.416 -0.814 58 84 47
52.9938 22.4270 64.0700 0.482 0.283 -0.829 72 114 38
54.7643 29.7939 82.6728 0.844 -0.528 0.089 100 111 105
56.5006 30.0786 83.9780 -0.205 0.663 -0.720 138 153 148
56.8972 30.1816 84.3687 0.767 0.517 -0.381 116 118 111
57.0908 30.6339 85.5409 0.738 0.592 -0.322 120 118 105
59.1493 27.9704 79.7636 0.543 0.691 -0.478 119 116 98
59.5118 31.6012 88.7527 0.648 0.667 -0.368 91 90 72
59.5132 32.8965 91.9147 0.434 0.739 -0.516 97 96 78
62.2346 28.3257 81.7153 0.771 -0.397 -0.498 79 83 68
62.3538 28.6172 82.4686 0.321 -0.620 -0.715 79 83 69
62.6158 28.6307 82.5936 0.751 -0.057 -0.658 108 112 98
63.5342 27.6875 80.6143 0.312 0.454 -0.835 90 96 82
63.6613 27.6702 80.6169 0.308 0.441 -0.843 92 98 84
64.7110 28.6596 83.4006 -0.007 0.174 -0.985 100 102 88
66.2707 28.5952 83.7917 -0.122 -0.738 -0.663 102 108 94
66.6737 28.7367 84.2787 0.775 -0.525 -0.352 114 122 109
67.2330 29.0790 85.3109 0.694 -0.491 -0.527 118 125 117
67.3703 29.1294 85.4820 0.660 -0.366 -0.656 123 130 122
67.5071 29.1716 85.6332 0.669 -0.356 -0.652 131 138 130
68.0533 29.3137 86.1721 0.537 -0.666 -0.518 105 115 107
68.3388 29.4604 86.6305 0.598 -0.416 -0.685 107 117 109
68.3876 28.8902 85.2559 0.916 -0.119 -0.384 103 113 105
-17.5421 32.9709 64.5442 -0.190 -0.001 -0.982 50 65 46
-17.2405 32.9130 64.5097 -0.264 -0.292 -0.919 53 67 50
-16.8065 32.7944 64.3744 -0.352 -0.296 -0.888 49 63 48
-12.1977 31.6091 63.1173 -0.111 -0.630 -0.769 44 55 47
-11.9601 31.5760 63.1206 -0.043 -0.696 -0.717 62 70 66
-7.2434 30.4992 62.1651 0.124 0.008 -0.992 72 74 69
-7.0991 30.5074 62.2357 -0.256 -0.466 -0.847 71 76 70
-6.3555 30.3797 62.1874 0.245 -0.095 -0.965 70 72 67
-6.1815 30.3730 62.2323 0.245 -0.095 -0.965 98 100 95
-5.9074 30.3169 62.1925 0.061 -0.109 -0.992 89 91 86
1.6180 28.9427 61.5032 0.473 -0.458 -0.753 70 73 66
3.5326 28.4028 60.8655 0.419 -0.279 -0.864 69 71 66
4.1642 28.3834 61.0407 0.495 -0.358 -0.791 53 58 51
5.8717 28.0146 60.7458 0.210 -0.528 -0.823 59 60 54
10.6448 27.5227 61.2309 0.046 -0.064 -0.997 100 103 92
10.7948 27.5185 61.2737 0.248 -0.316 -0.916 85 88 77
12.0634 27.3560 61.3253 0.177 -0.378 -0.909 116 120 107
12.1638 27.3813 61.4222 0.406 -0.338 -0.849 95 99 84
13.2114 27.1731 61.2850 0.065 -0.372 -0.926 103 103 91
13.6778 27.1458 61.3829 0.067 -0.493 -0.868 96 105 90
13.8488 27.1268 61.3970 0.076 -0.490 -0.868 101 112 98
14.6038 27.0049 61.3665 0.193 -0.416 -0.889 110 111 105
14.7500 27.0008 61.4081 0.256 -0.371 -0.893 131 133 124
14.8986 26.9951 61.4467 0.171 -0.201 -0.964 155 160 150
15.0925 26.9606 61.4310 0.317 -0.313 -0.896 134 135 127
16.0573 26.9671 61.7864 0.409 -0.127 -0.904 147 145 132
16.3090 26.9844 61.9170 -0.003 -0.293 -0.956 140 138 123
16.5050 26.9471 61.8955 0.100 -0.430 -0.897 123 121 106
16.6387 26.9505 61.9507 0.159 -0.617 -0.770 145 143 130
18.5841 26.5722 61.7164 0.526 -0.174 -0.832 131 127 115
19.1141 26.5835 61.9304 0.516 -0.244 -0.821 108 102 86
19.2351 26.5941 61.9989 0.308 -0.426 -0.851 89 83 67
22.7354 26.3197 62.5644 0.290 -0.566 -0.772 139 139 129
22.8216 26.3555 62.6815 0.203 -0.503 -0.840 134 132 120
23.2414 26.3429 62.7988 0.262 -0.523 -0.811 125 115 105
23.5514 26.4129 63.0780 0.306 -0.346 -0.887 121 109 97
26.1874 26.2328 63.5683 0.454 -0.388 -0.802 161 155 140
26.2752 26.2692 63.6875 0.322 -0.208 -0.924 157 150 134
26.9939 26.2243 63.8315 0.168 -0.370 -0.914 114 106 93
27.5382 26.2121 63.9935 0.548 -0.376 -0.747 128 119 112
29.8915 26.1137 64.5826 0.256 -0.267 -0.929 135 125 115
29.9887 26.1440 64.6904 0.318 -0.284 -0.904 144 136 125
31.0327 26.2693 65.3622 0.525 -0.608 -0.596 131 124 108
31.2624 26.3001 65.5178 0.199 -0.236 -0.951 182 174 163
32.6069 26.2685 65.9144 0.353 -0.225 -0.908 157 148 139
32.7003 26.3051 66.0361 0.294 -0.319 -0.901 133 124 115
32.8043 26.3316 66.1370 0.417 -0.559 -0.717 144 135 126
33.4064 26.1235 65.8435 0.419 -0.490 -0.765 138 129 120
34.5636 26.1350 66.2789 0.234 -0.532 -0.814 82 73 70
34.6981 26.1300 66.3140 0.364 -0.504 -0.783 128 121 118
34.8220 26.1360 66.3720 0.378 -0.503 -0.777 99 94 90
34.9473 26.1405 66.4271 0.371 -0.525 -0.766 74 69 65
35.6259 26.3867 67.2641 0.277 -0.115 -0.954 83 83 57
35.7545 26.3887 67.3140 0.239 -0.130 -0.962 71 71 43
35.9177 26.3526 67.2839 0.220 -0.150 -0.964 70 70 40
39.1895 25.9966 67.5707 -0.015 -0.232 -0.973 52 82 20
40.9946 26.4786 69.3768 0.557 -0.514 -0.652 37 47 21
41.4482 26.5637 69.7433 0.473 -0.236 -0.849 123 126 107
43.2396 26.9730 71.3680 0.234 -0.144 -0.962 92 98 88
43.6323 26.9695 71.4978 0.113 -0.307 -0.945 83 88 81
43.7282 27.0228 71.6609 0.683 -0.055 -0.729 99 104 97
44.0454 26.9332 71.5549 0.169 -0.638 -0.751 92 98 88
44.8180 27.1565 72.3691 0.460 -0.212 -0.862 83 93 77
45.3782 27.0904 72.4059 0.204 0.059 -0.977 84 103 85
45.5252 27.0614 72.3870 0.165 0.059 -0.985 84 107 89
45.6314 27.1020 72.5232 0.252 0.062 -0.966 79 104 85
47.2790 27.1752 73.2808 0.474 -0.413 -0.778 119 143 121
52.9756 22.6134 64.2050 0.480 0.625 -0.616 68 111 33
56.6292 30.3463 84.2745 -0.304 0.582 -0.754 130 141 137
59.3631 31.9209 89.0615 0.484 0.741 -0.465 90 89 69
59.5012 33.3090 92.4818 0.517 0.635 -0.574 116 115 97
62.4961 28.8505 82.7061 0.739 -0.609 -0.287 103 109 97
62.6283 28.8282 82.6985 0.647 -0.663 -0.377 111 117 103
63.1699 27.5377 79.7544 -0.107 -0.208 -0.972 82 88 74
66.0205 28.6724 83.5139 0.137 -0.671 -0.729 88 94 82
67.0788 28.8725 84.3724 0.801 0.032 -0.598 115 122 114
67.2241 29.0083 84.7535 0.172 0.233 -0.957 121 128 120
67.3928 29.3375 85.6126 0.251 0.281 -0.926 124 131 123
67.6215 29.0513 84.9978 0.492 0.279 -0.825 126 131 126
67.7542 29.0669 85.0824 0.492 0.279 -0.825 119 126 119
68.4056 29.0523 85.2762 0.864 -0.111 -0.492 102 112 103
67.0201 16.8410 55.1266 -0.224 0.579 -0.784 1 1 5
-18.7089 33.5173 64.9911 -0.528 -0.131 -0.839 51 64 49
-17.6145 33.1787 64.5581 -0.190 -0.001 -0.982 49 64 45
-13.0683 31.7930 62.8103 0.301 -0.823 -0.482 68 82 69
-12.1366 31.8272 63.2214 0.273 -0.704 -0.655 65 74 69
-12.0450 31.8630 63.3402 0.003 -0.772 -0.636 64 71 64
-9.4795 31.2723 62.8165 0.239 -0.593 -0.769 62 71 66
-6.2070 30.5476 62.2177 0.134 -0.206 -0.969 79 81 76
-5.8572 30.4538 62.1144 0.183 -0.476 -0.860 79 81 76
-3.7117 30.0161 61.8122 0.162 0.100 -0.982 57 62 55
0.5423 29.1835 61.2986 0.480 -0.305 -0.823 86 91 85
7.9359 27.9893 61.0172 -0.132 -0.555 -0.821 88 83 77
10.9333 27.6694 61.3002 0.328 -0.389 -0.861 111 115 101
11.1005 27.6549 61.3241 0.116 -0.163 -0.980 106 110 95
11.9656 27.4765 61.1977 0.110 -0.629 -0.770 114 118 104
12.0806 27.4929 61.2778 0.178 -0.386 -0.905 117 121 106
13.8799 27.2536 61.3335 0.082 0.031 -0.996 79 91 77
14.0971 27.2053 61.2933 -0.146 -0.529 -0.836 68 80 66
14.7712 27.0445 61.1421 0.088 -0.260 -0.962 137 140 131
14.7768 27.1294 61.3494 0.302 -0.338 -0.891 117 120 111
14.9258 27.1234 61.3874 0.313 -0.313 -0.897 125 130 120
15.1131 27.0929 61.3797 0.286 -0.203 -0.937 119 121 109
16.3518 27.1020 61.8380 -0.134 -0.076 -0.988 126 124 109
16.5611 27.0557 61.7999 0.121 -0.395 -0.911 109 107 92
18.6222 26.6899 61.6422 0.538 -0.193 -0.820 135 131 119
18.7820 26.6741 61.6602 0.613 -0.109 -0.783 137 134 119
18.8771 26.7024 61.7621 0.606 -0.111 -0.787 143 140 125
19.1290 26.7170 61.8861 0.355 -0.462 -0.812 88 82 68
19.9907 26.6866 62.1164 0.190 -0.508 -0.840 141 137 128
20.3058 26.6563 62.1542 0.192 -0.228 -0.954 136 132 123
20.3628 26.7122 62.3093 0.200 -0.119 -0.972 141 137 128
20.4638 26.7371 62.4051 0.296 -0.130 -0.946 143 139 130
22.7302 26.4664 62.5494 0.268 -0.552 -0.790 147 144 135
22.8627 26.4678 62.5994 0.251 -0.556 -0.792 149 144 133
23.4737 26.5132 62.9246 0.352 -0.304 -0.885 117 106 94
23.6051 26.5154 62.9762 0.362 -0.318 -0.876 119 109 97
27.2495 26.2648 63.6549 0.567 -0.410 -0.714 183 175 162
29.6657 26.3406 64.6896 0.320 -0.415 -0.852 159 149 139
29.8629 26.2819 64.6171 0.374 -0.299 -0.878 144 134 124
29.9918 26.2840 64.6677 0.246 -0.279 -0.928 147 139 128
31.0495 26.3972 65.3142 0.415 -0.283 -0.865 137 130 114
31.1532 26.4231 65.4132 0.258 -0.313 -0.914 129 121 110
32.9473 26.3348 65.8319 0.242 -0.478 -0.844 120 111 102
34.7224 26.2485 66.2490 0.364 -0.504 -0.783 121 114 108
34.8462 26.2545 66.3071 0.378 -0.503 -0.777 75 70 66
34.9728 26.2576 66.3592 0.371 -0.525 -0.766 84 79 75
35.0282 26.3360 66.5682 0.123 -0.344 -0.931 75 70 64
35.5503 26.4729 67.0831 0.523 -0.427 -0.738 71 70 50
35.6767 26.4770 67.1376 0.395 -0.274 -0.877 79 78 57
35.7925 26.4926 67.2161 0.407 -0.297 -0.864 85 85 62
35.9466 26.4663 67.2069 0.277 -0.225 -0.934 75 75 49
36.1161 26.4227 67.1612 0.322 -0.189 -0.927 65 65 39
36.2225 26.4486 67.2614 0.346 -0.175 -0.922 71 71 46
39.3334 26.6024 68.7295 0.374 -0.612 -0.697 46 77 19
39.4979 26.5581 68.6803 0.403 -0.508 -0.762 44 75 16
39.6286 26.5562 68.7219 0.476 -0.487 -0.732 47 79 16
39.7450 26.5725 68.8024 0.255 -0.485 -0.836 53 84 15
40.3819 26.5838 69.0541 0.584 -0.381 -0.716 54 75 35
40.4881 26.6139 69.1643 0.512 -0.382 -0.770 46 62 32
40.6783 26.5328 69.0352 0.615 -0.440 -0.654 49 60 38
41.4591 26.6979 69.7096 0.546 -0.233 -0.805 133 134 121
42.1664 26.7937 70.1904 0.454 -0.488 -0.746 94 92 84
42.2521 26.8565 70.3725 0.302 -0.245 -0.921 108 108 97
42.3684 26.8758 70.4600 0.297 -0.248 -0.922 119 120 107
42.5027 26.8688 70.4904 0.573 -0.090 -0.814 121 122 108
43.2453 27.1172 71.3527 0.223 -0.146 -0.964 125 131 121
43.3796 27.1109 71.3847 0.223 -0.146 -0.964 109 115 105
43.6510 27.0937 71.4387 0.119 -0.383 -0.916 100 105 98
43.7318 27.1706 71.6533 0.683 -0.055 -0.729 109 114 107
43.8549 27.1820 71.7242 0.720 -0.155 -0.676 109 114 107
44.3063 27.2945 72.1552 0.484 -0.459 -0.745 85 91 79
44.4426 27.2851 72.1806 0.527 -0.257 -0.810 80 87 73
44.7607 27.4072 72.5878 0.848 0.015 -0.529 80 92 78
44.9749 27.4874 72.8571 0.396 0.243 -0.886 74 88 74
47.5258 27.1076 72.8380 0.688 -0.586 -0.428 101 127 102
48.7230 26.5011 71.7937 -0.400 -0.595 -0.697 52 84 45
56.1597 30.7989 84.8045 -0.284 0.382 -0.879 134 155 148
56.2764 30.9139 85.1236 -0.219 0.615 -0.757 133 151 145
56.4191 30.9070 85.1572 0.049 0.736 -0.675 135 149 144
56.6215 30.6028 84.4932 -0.437 0.213 -0.874 127 136 131
56.9549 29.6221 82.2397 -0.164 0.409 -0.898 113 119 112
56.7821 31.2192 86.0398 0.774 0.522 -0.357 118 121 113
56.8519 31.6022 86.9903 0.770 0.552 -0.320 115 115 104
58.9916 28.6360 80.5737 0.504 0.686 -0.525 122 121 100
63.0572 27.6884 79.7156 -0.450 -0.614 -0.649 97 103 91
63.1839 27.6454 79.6562 -0.170 -0.174 -0.970 79 85 73
63.5617 27.8893 80.3792 0.262 -0.627 -0.734 82 88 76
63.6883 27.8241 80.2662 0.613 0.119 -0.781 86 92 80
67.8105 29.5346 85.8540 0.311 0.411 -0.857 115 120 114
67.9472 29.5693 85.9860 0.713 0.279 -0.643 114 121 114
68.4815 29.6086 86.2692 0.434 -0.030 -0.900 97 107 96
68.7316 30.3904 88.2474 0.913 0.329 -0.242 94 102 92
66.9632 17.0258 55.3154 -0.125 0.696 -0.708 55 56 76
67.0445 17.0194 55.3286 -0.182 0.592 -0.785 0 0 5
67.1202 16.9803 55.2608 -0.211 0.563 -0.799 1 0 0
-13.0329 31.9447 62.7445 -0.233 -0.290 -0.928 74 88 73
-12.7726 31.9012 62.7316 -0.017 -0.710 -0.704 37 51 38
-12.0540 31.9564 63.1180 0.419 -0.637 -0.647 64 73 68
-11.9752 31.9984 63.2467 0.137 -0.687 -0.714 61 68 61
-11.7658 31.9783 63.2724 -0.056 0.072 -0.996 57 63 59
-2.3101 29.9402 61.7053 0.243 -0.307 -0.920 51 56 50
2.1833 29.1122 61.2986 0.079 -0.233 -0.969 64 67 60
4.3555 28.6647 60.9885 0.492 -0.601 -0.630 49 55 41
6.8513 28.4254 61.2935 0.205 -0.191 -0.960 70 70 68
10.1267 27.8715 61.1165 0.091 -0.043 -0.995 83 85 74
10.2591 27.8781 61.1791 0.191 -0.011 -0.982 109 113 99
10.9081 27.7468 61.0923 0.243 -0.590 -0.770 110 117 101
12.0916 27.5469 61.0287 0.067 -0.650 -0.757 122 124 110
12.1442 27.6013 61.1782 0.364 -0.449 -0.816 123 125 111
13.1901 27.4793 61.2539 0.153 -0.014 -0.988 23 27 12
13.8538 27.4163 61.3363 0.082 0.031 -0.996 42 56 41
14.8016 27.1704 61.0793 0.066 -0.222 -0.973 121 123 112
15.1301 27.2275 61.3326 0.413 -0.354 -0.839 106 108 94
16.6699 27.1291 61.6392 0.387 -0.152 -0.909 134 132 117
18.7589 26.8336 61.6653 0.506 -0.246 -0.827 135 133 120
18.8578 26.8595 61.7624 0.503 -0.254 -0.826 118 116 101
19.1173 26.8689 61.8768 0.521 -0.191 -0.832 132 129 114
19.2410 26.8778 61.9418 0.328 -0.245 -0.912 158 155 140
19.3840 26.8734 61.9816 0.270 -0.262 -0.927 128 124 112
19.5233 26.8714 62.0259 0.324 -0.247 -0.913 143 139 127
19.6463 26.8808 62.0920 0.219 -0.175 -0.960 143 139 128
19.7762 26.8854 62.1488 0.417 -0.225 -0.881 137 133 122
19.9397 26.8663 62.1607 0.309 -0.235 -0.922 141 137 128
20.1171 26.8372 62.1532 0.367 -0.114 -0.923 131 127 118
20.2443 26.8436 62.2134 0.366 -0.117 -0.923 123 119 110
21.4585 26.7513 62.4200 0.570 -0.433 -0.698 130 130 120
21.5788 26.7623 62.4888 0.606 -0.396 -0.690 124 124 114
21.7165 26.7606 62.5333 0.514 -0.441 -0.735 103 100 91
21.8498 26.7620 62.5837 0.526 -0.415 -0.742 155 152 143
23.4877 26.6457 62.8818 0.326 -0.312 -0.892 126 117 105
24.8751 26.6086 63.2823 0.360 -0.490 -0.794 108 104 92
25.1707 26.5861 63.3323 0.195 -0.304 -0.933 127 123 114
25.3019 26.5879 63.3829 0.270 -0.103 -0.957 123 119 110
25.3656 26.6436 63.5394 0.274 -0.060 -0.960 121 117 106
25.7025 26.5875 63.5233 0.395 -0.232 -0.889 130 123 115
27.6968 26.4755 63.9575 0.644 -0.340 -0.685 152 143 136
29.6746 26.4758 64.6562 0.394 -0.486 -0.780 133 123 113
31.0525 26.5382 65.2925 0.307 -0.294 -0.905 146 137 122
31.4127 26.5700 65.4963 0.373 -0.432 -0.821 130 122 111
31.8770 26.5025 65.4976 0.240 -0.324 -0.915 165 157 146
32.0021 26.5081 65.5552 0.319 -0.313 -0.895 160 152 141
34.7332 26.3811 66.2134 0.474 -0.430 -0.769 98 91 83
34.8526 26.3917 66.2810 0.474 -0.430 -0.769 114 109 103
34.9800 26.3939 66.3314 0.462 -0.447 -0.766 106 101 95
34.9549 26.5583 66.7181 0.259 -0.357 -0.897 71 66 60
35.1615 26.6159 66.9296 0.581 -0.273 -0.767 59 54 49
35.5796 26.5862 67.0057 0.512 -0.441 -0.737 68 66 53
36.1143 26.5699 67.1551 0.390 -0.158 -0.907 67 66 48
36.2492 26.5643 67.1890 0.335 -0.159 -0.929 70 69 51
37.3140 26.5318 67.4868 0.179 -0.616 -0.767 57 59 36
37.4497 26.5244 67.5167 0.179 -0.606 -0.775 60 63 35
37.5759 26.5279 67.5696 0.413 0.006 -0.911 65 68 39
37.6884 26.5474 67.6564 0.373 0.005 -0.928 65 71 41
37.7943 26.5750 67.7601 0.081 -0.263 -0.961 56 65 38
39.2290 26.7183 68.6113 0.691 -0.615 -0.381 48 77 22
40.5145 26.7272 69.0861 0.584 -0.381 -0.716 45 59 34
41.0219 26.7387 69.2928 0.494 -0.384 -0.780 115 122 106
41.4885 26.8064 69.6204 0.534 -0.510 -0.674 140 137 128
42.3958 26.9868 70.3746 0.282 -0.244 -0.928 122 120 108
43.5017 27.2767 71.4623 0.462 -0.314 -0.830 120 123 116
43.6262 27.2856 71.5276 0.474 -0.364 -0.801 116 119 112
43.7033 27.3693 71.7562 0.746 -0.071 -0.662 118 121 114
44.1777 27.4461 72.1084 0.287 -0.184 -0.940 87 93 83
44.7648 27.5564 72.5809 0.818 0.031 -0.574 70 84 69
44.8676 27.6037 72.7311 0.818 0.035 -0.574 76 90 77
44.9602 27.6691 72.9211 0.427 0.162 -0.890 56 72 61
48.5650 26.7220 71.9145 0.460 0.523 -0.718 46 77 36
48.7628 26.5752 71.6311 -0.435 -0.179 -0.883 60 90 52
48.6037 27.9848 74.9665 0.491 -0.871 -0.003 43 67 33
53.9822 29.7192 81.0373 0.837 0.222 -0.500 100 111 107
54.1000 30.2798 82.4278 0.647 -0.761 -0.045 110 121 117
54.4670 29.9475 81.7577 -0.384 -0.875 -0.294 107 118 114
59.1258 28.8546 80.7722 0.895 -0.446 0.005 113 112 91
59.2136 29.1871 81.6032 0.812 -0.572 0.119 110 108 87
59.3449 29.1990 81.6781 0.171 0.768 -0.618 102 100 79
59.6493 28.8755 81.0071 0.174 0.773 -0.610 96 95 75
62.3950 29.0647 82.4311 0.990 -0.081 -0.115 108 114 104
63.0705 27.8400 79.7230 -0.432 -0.586 -0.686 94 100 90
63.1964 27.8699 79.8392 -0.027 -0.134 -0.991 84 90 80
63.3223 27.9364 80.0437 0.237 -0.464 -0.853 85 91 79
63.7021 27.9771 80.2757 0.654 0.076 -0.752 87 93 82
64.5948 28.1967 81.1191 -0.006 -0.231 -0.973 95 96 82
64.8432 28.0467 80.8458 0.443 -0.147 -0.884 93 91 78
67.9723 29.7891 86.1422 0.765 0.226 -0.603 113 120 113
68.5078 29.8279 86.4245 0.430 -0.072 -0.900 92 100 89
66.8199 17.1933 55.4298 -0.107 0.692 -0.714 84 94 87
66.9053 17.2102 55.5007 -0.134 0.686 -0.715 89 94 95
66.9827 17.1767 55.4472 -0.137 0.685 -0.715 49 50 68
67.0602 17.1458 55.4004 -0.241 0.551 -0.799 1 1 5
-15.2399 32.9086 63.8312 -0.034 -0.535 -0.844 64 81 62
-12.4676 32.1623 63.0235 0.122 -0.695 -0.708 53 63 54
-11.9565 32.0783 63.0031 0.442 -0.631 -0.638 73 83 75
-11.8892 32.1258 63.1406 0.137 -0.687 -0.714 86 93 86
-11.6929 32.1118 63.1764 -0.033 -0.617 -0.786 73 79 75
-10.0201 31.7063 62.7964 -0.316 -0.234 -0.919 75 85 86
-7.0712 30.9819 62.1037 -0.011 -0.306 -0.952 73 75 70
-5.9030 30.8002 62.0812 0.031 0.005 -0.999 73 75 70
-2.8030 30.1115 61.5273 0.306 -0.281 -0.910 75 80 74
-2.6473 30.1117 61.5829 0.244 -0.329 -0.912 60 65 58
-2.3216 30.1046 61.6809 0.252 -0.318 -0.914 39 44 38
4.0680 28.8935 61.0383 0.107 -0.141 -0.984 73 79 65
11.8808 27.7362 61.0272 0.471 -0.518 -0.714 121 125 108
12.1335 27.7552 61.1621 0.468 -0.556 -0.686 111 114 97
13.5289 27.5902 61.2600 0.297 -0.141 -0.944 54 64 50
13.8965 27.5357 61.2593 -0.057 -0.266 -0.962 77 91 76
14.8138 27.3971 61.2516 0.355 -0.429 -0.831 77 79 66
15.0402 27.3412 61.1978 0.225 -0.495 -0.840 102 106 91
15.1478 27.3616 61.2847 0.413 -0.354 -0.839 116 118 104
16.6669 27.2762 61.6167 0.384 -0.166 -0.908 137 135 120
21.4618 26.8925 62.3920 0.556 -0.439 -0.705 125 125 115
21.5749 26.9088 62.4711 0.556 -0.439 -0.705 133 130 121
21.7412 26.8860 62.4753 0.514 -0.441 -0.735 113 110 101
21.8785 26.8845 62.5201 0.576 -0.459 -0.677 209 205 196
22.0787 26.9365 62.7154 0.479 -0.244 -0.843 118 114 105
23.5184 26.7654 62.8143 0.336 -0.320 -0.886 130 123 107
23.6734 26.7494 62.8308 0.334 -0.326 -0.885 130 126 111
24.7376 26.7548 63.2197 0.435 -0.501 -0.748 59 52 38
24.8598 26.7639 63.2847 0.435 -0.501 -0.748 99 93 81
24.9764 26.7775 63.3584 0.363 -0.424 -0.829 124 117 109
27.3881 26.5442 63.6519 0.610 -0.363 -0.705 139 131 118
27.5058 26.5563 63.7224 0.607 -0.376 -0.700 159 151 140
27.5865 26.5997 63.8550 0.482 -0.187 -0.856 195 186 177
29.4151 26.6156 64.5391 0.342 -0.287 -0.895 131 121 111
29.5470 26.6154 64.5852 0.341 -0.310 -0.887 136 126 116
29.6769 26.6169 64.6346 0.341 -0.310 -0.887 141 131 121
30.4630 26.4988 64.6295 0.310 -0.066 -0.948 144 138 126
31.0513 26.6830 65.2786 0.276 -0.272 -0.922 147 138 123
31.3130 26.6840 65.3733 0.088 -0.457 -0.885 152 144 133
34.9961 26.6593 66.6156 0.060 -0.139 -0.988 62 59 52
35.5966 26.7129 66.9561 0.504 -0.432 -0.748 83 81 69
36.3601 26.7309 67.2690 0.356 -0.186 -0.916 47 47 35
37.1099 26.6145 67.2550 0.267 -0.629 -0.730 47 47 34
37.2710 26.5775 67.2234 0.527 -0.564 -0.636 54 55 39
37.3579 26.6264 67.3712 0.694 -0.438 -0.572 59 61 40
37.5663 26.6849 67.5849 0.632 -0.292 -0.718 77 80 53
37.6658 26.7200 67.7042 0.631 -0.208 -0.747 69 74 47
37.8053 26.7080 67.7247 0.081 -0.263 -0.961 53 61 38
39.3091 26.7647 68.3918 0.852 -0.052 -0.520 48 76 24
40.6338 26.8885 69.1564 0.497 0.001 -0.868 80 88 70
41.0069 26.9077 69.3342 0.451 -0.078 -0.889 105 112 96
41.3356 26.8102 69.2168 0.354 -0.004 -0.935 119 120 110
41.4727 26.7984 69.2369 0.407 -0.077 -0.910 121 118 109
42.2017 27.2317 70.5322 0.493 -0.465 -0.735 123 118 106
43.5576 27.3429 71.2774 0.439 -0.410 -0.800 127 130 123
43.6677 27.3740 71.3909 0.449 -0.377 -0.811 123 125 120
44.2691 27.4527 71.7917 0.199 -0.274 -0.941 99 110 96
46.2500 27.3934 72.3496 0.587 -0.752 -0.299 95 127 104
53.9794 29.9210 81.1332 0.753 -0.639 0.158 109 119 118
54.1346 30.3509 82.2176 0.658 -0.751 -0.046 105 115 114
54.7843 30.5174 82.8457 0.137 -0.025 -0.990 116 127 123
54.9123 30.5610 82.9955 0.078 0.058 -0.995 131 142 136
55.5927 30.6245 83.3878 -0.405 -0.363 -0.839 114 131 130
56.3115 32.6015 88.3762 1.000 -0.009 0.007 110 116 112
60.0994 28.6213 80.1832 -0.627 -0.697 -0.347 127 130 113
63.0830 28.0459 79.8596 0.297 -0.274 -0.915 96 101 94
64.4850 28.4559 81.3367 0.574 -0.629 -0.525 104 106 92
67.1353 29.4104 84.5586 0.854 -0.089 -0.512 126 133 125
67.2703 29.4489 84.6987 0.443 0.158 -0.883 123 130 122
67.4050 29.4820 84.8256 0.358 0.127 -0.925 110 117 109
67.5735 29.7977 85.6411 0.266 0.022 -0.964 98 105 97
68.4404 29.4082 85.0146 0.531 -0.170 -0.830 95 103 92
66.8550 17.4492 55.8169 -0.214 0.634 -0.743 83 93 84
66.9289 17.3885 55.6976 -0.236 0.618 -0.750 89 95 94
67.0110 17.3822 55.7114 -0.231 0.624 -0.746 45 46 61
67.0778 17.2836 55.4991 -0.252 0.522 -0.815 0 1 3
-15.1338 33.0310 63.7106 -0.026 -0.474 -0.880 55 73 52
-14.6669 32.8919 63.5444 -0.268 -0.369 -0.890 60 77 57
-14.3914 32.8424 63.5237 -0.166 -0.218 -0.962 52 71 52
-11.9009 32.2198 62.9211 0.208 0.176 -0.962 79 89 81
-11.9031 32.3009 63.1133 0.164 -0.559 -0.812 94 101 94
-11.6585 32.2636 63.1110 -0.030 -0.450 -0.892 76 82 78
-7.1003 31.1592 62.0915 0.201 0.056 -0.978 69 71 66
-6.8661 31.1228 62.0876 0.148 0.081 -0.986 62 67 61
-2.6452 30.2693 61.5465 0.214 -0.290 -0.933 55 60 53
-2.2983 30.2512 61.6260 0.244 -0.329 -0.912 57 62 56
8.2815 28.2380 60.5706 0.344 -0.228 -0.911 102 93 94
9.7613 28.2153 61.0401 0.505 -0.261 -0.823 102 103 94
12.0558 27.8630 61.0120 0.464 -0.546 -0.698 113 116 97
13.0829 27.7517 61.1100 0.430 -0.273 -0.861 135 139 120
13.2144 27.7575 61.1705 0.393 -0.283 -0.875 114 121 103
13.3464 27.7632 61.2306 0.403 -0.288 -0.869 73 81 66
13.5222 27.7411 61.2402 0.505 -0.151 -0.850 37 48 31
14.8105 27.4553 61.0149 0.066 -0.222 -0.973 85 87 73
14.8244 27.5361 61.2122 0.348 -0.430 -0.833 66 68 54
16.6672 27.4212 61.5903 0.384 -0.166 -0.908 144 142 127
16.8089 27.4190 61.6353 0.281 -0.226 -0.933 137 135 120
20.8641 26.9785 62.0200 0.646 -0.429 -0.631 145 142 133
20.9473 27.0163 62.1395 0.681 -0.133 -0.720 134 131 122
21.4176 27.0686 62.4304 0.261 -0.539 -0.801 130 127 120
21.5114 27.0992 62.5366 0.277 -0.566 -0.777 113 110 101
22.4877 27.0779 62.8313 0.519 -0.018 -0.855 125 115 106
24.7339 26.9010 63.2041 0.400 -0.391 -0.829 81 73 60
24.8908 26.8825 63.2157 0.400 -0.378 -0.835 91 83 72
24.9910 26.9092 63.3147 0.378 -0.412 -0.829 102 95 86
27.4815 26.7195 63.7436 0.455 -0.177 -0.872 161 153 142
27.6038 26.7279 63.8068 0.481 -0.188 -0.856 164 155 146
27.7246 26.7375 63.8726 0.481 -0.188 -0.856 173 164 155
29.1873 26.7272 64.3653 0.535 -0.341 -0.773 119 109 99
29.3033 26.7411 64.4395 0.535 -0.341 -0.773 81 71 61
29.4320 26.7437 64.4912 0.305 -0.459 -0.835 103 93 83
29.5782 26.7305 64.5116 0.283 -0.426 -0.859 139 129 119
29.7085 26.7316 64.5603 0.363 -0.480 -0.799 144 134 124
29.8625 26.7112 64.5660 0.084 -0.305 -0.949 127 117 107
31.1027 26.7784 65.1650 0.458 -0.444 -0.770 152 142 129
31.6233 26.7821 65.3580 0.223 -0.343 -0.912 132 124 113
31.7855 26.7521 65.3439 0.305 -0.543 -0.782 127 119 108
31.9095 26.7587 65.4035 0.348 -0.589 -0.729 112 104 93
32.0191 26.7794 65.4917 0.426 -0.477 -0.769 81 73 62
32.1493 26.7801 65.5393 0.270 -0.553 -0.788 76 68 57
34.9501 26.8535 66.7050 0.342 -0.222 -0.913 53 50 41
35.2722 26.9281 66.9968 0.539 -0.381 -0.751 54 52 43
36.4657 26.9041 67.3619 0.501 -0.515 -0.695 39 39 30
37.5578 26.8408 67.5974 0.700 -0.287 -0.654 77 79 54
37.6520 26.8826 67.7302 0.655 -0.326 -0.682 65 70 46
37.8051 26.8544 67.7172 0.024 -0.315 -0.949 52 58 37
39.3203 26.8977 68.3564 0.859 -0.062 -0.508 45 72 23
39.4092 26.9490 68.5100 0.526 0.010 -0.850 41 67 21
40.6562 27.0070 69.0894 0.578 -0.457 -0.676 60 68 48
41.4225 27.0171 69.3846 0.223 -0.335 -0.915 107 105 93
43.5840 27.4547 71.1922 0.466 -0.407 -0.785 120 123 116
43.6907 27.4912 71.3170 0.482 -0.350 -0.804 123 125 120
44.8242 27.9910 72.9091 0.139 0.740 -0.658 82 99 82
46.8246 27.6854 72.8884 0.733 -0.663 -0.153 117 149 128
48.4044 27.1044 72.0626 0.974 0.114 -0.196 40 66 27
48.5807 27.2656 72.5093 0.460 0.522 -0.718 50 76 38
54.2503 30.1252 81.3303 -0.215 -0.858 -0.466 114 124 123
54.6587 30.1351 81.4983 0.092 -0.838 -0.538 116 126 126
62.9698 28.1937 79.8116 0.467 -0.028 -0.884 124 129 123
66.7741 29.7248 84.8064 -0.130 -0.380 -0.916 131 139 127
67.1634 29.6761 84.8281 0.884 0.026 -0.467 123 130 122
67.3107 29.8204 85.2241 0.141 -0.405 -0.903 110 117 110
67.4489 29.8765 85.4067 0.352 -0.352 -0.867 93 100 92
67.5851 29.9128 85.5414 0.409 -0.262 -0.874 91 98 90
67.7203 29.9385 85.6506 0.419 -0.278 -0.864 99 104 97
68.4521 29.5272 84.9291 0.537 -0.194 -0.821 91 98 90
67.0298 17.5290 55.8298 -0.248 0.586 -0.772 38 38 54
67.1064 17.4883 55.7599 -0.256 0.581 -0.772 1 1 3
-15.2117 33.2396 63.7305 -0.271 -0.316 -0.909 61 78 61
-14.7182 33.0874 63.5443 -0.133 -0.240 -0.962 60 77 60
-14.4509 33.0416 63.5301 -0.139 -0.235 -0.962 65 82 66
-11.9765 32.4243 62.9422 0.208 0.176 -0.962 71 82 74
-11.5823 32.3951 63.0126 0.003 -0.484 -0.875 81 90 85
-9.4948 31.8627 62.4890 -0.096 -0.565 -0.820 94 109 109
5.9068 28.9149 60.9516 0.488 -0.259 -0.834 89 90 85
12.9059 27.9211 61.0731 0.223 -0.374 -0.900 140 144 128
13.0920 27.8927 61.0717 0.393 -0.283 -0.875 127 131 115
13.2254 27.8974 61.1302 0.393 -0.283 -0.875 103 108 91
13.3579 27.9027 61.1897 0.403 -0.288 -0.869 54 62 42
13.5209 27.8886 61.2140 0.570 -0.180 -0.802 42 50 28
14.6830 27.6831 61.1380 0.301 -0.230 -0.926 115 118 99
14.8560 27.6614 61.1478 0.344 -0.430 -0.835 96 99 82
17.5452 27.4397 61.5746 0.319 -0.510 -0.799 155 154 136
17.6944 27.4319 61.6087 0.322 -0.497 -0.806 143 142 124
17.8761 27.4016 61.6013 0.301 -0.451 -0.840 120 119 101
21.1762 27.1907 62.2698 0.282 -0.020 -0.959 124 121 114
24.4417 26.9581 62.8748 0.437 -0.398 -0.806 117 113 101
24.5552 26.9740 62.9526 0.415 -0.416 -0.809 117 112 100
24.8005 26.9913 63.0806 0.237 -0.468 -0.852 97 90 77
25.1977 26.9939 63.2275 0.566 -0.360 -0.742 100 93 82
25.5489 27.0337 63.4462 0.558 -0.347 -0.754 139 131 120
25.6693 27.0443 63.5141 0.391 -0.200 -0.898 131 122 112
25.7978 27.0483 63.5692 0.391 -0.200 -0.898 134 124 114
25.8942 27.0788 63.6755 0.252 -0.400 -0.882 155 145 135
26.0437 27.0656 63.6972 0.205 -0.322 -0.924 126 116 105
27.2206 26.8594 63.6249 0.279 -0.111 -0.954 151 145 129
27.3255 26.8826 63.7171 0.242 -0.139 -0.960 143 133 121
29.4358 26.8836 64.4669 0.445 -0.324 -0.835 135 125 115
30.3243 26.7917 64.5638 0.310 -0.066 -0.948 145 133 124
31.9318 26.8809 65.3447 0.370 -0.563 -0.739 180 172 161
32.0428 26.9003 65.4299 0.426 -0.477 -0.769 164 156 145
32.1927 26.8815 65.4386 0.028 -0.503 -0.864 150 142 131
34.9828 26.9634 66.6210 0.643 -0.318 -0.697 86 82 71
36.3817 26.9979 67.1984 0.612 -0.264 -0.746 37 36 31
37.5572 26.9877 67.5905 0.667 -0.302 -0.681 36 37 21
37.6592 27.0204 67.7042 0.667 -0.322 -0.672 33 36 19
39.2054 27.1916 68.6579 0.445 0.313 -0.839 40 63 23
39.3470 27.1764 68.6719 0.379 0.285 -0.880 37 60 19
39.5077 27.1362 68.6335 0.308 0.379 -0.873 37 58 18
39.6814 27.0787 68.5587 0.220 -0.342 -0.914 43 63 23
40.5612 27.1096 68.9437 0.525 -0.174 -0.833 61 69 44
40.6807 27.1224 69.0164 0.525 -0.174 -0.833 65 70 48
41.1328 27.2103 69.3850 0.479 -0.151 -0.865 106 106 94
41.3274 27.1192 69.2378 0.092 -0.280 -0.956 104 104 92
41.4405 27.1410 69.3296 0.182 -0.426 -0.886 109 107 95
41.6676 27.1841 69.5124 0.524 -0.312 -0.793 141 137 125
43.6848 27.6541 71.3417 0.441 -0.383 -0.811 113 116 109
43.7996 27.6785 71.4403 0.303 -0.330 -0.894 119 122 115
43.9352 27.6697 71.4673 0.650 -0.391 -0.652 122 125 118
44.0805 27.6450 71.4603 0.655 -0.206 -0.727 97 104 93
44.1693 27.7120 71.6506 0.503 -0.554 -0.663 93 102 88
44.9795 28.1077 72.8763 0.505 -0.030 -0.863 79 97 78
45.3479 28.1531 73.1144 -0.121 0.738 -0.664 86 115 92
46.8350 27.8236 72.8597 0.937 -0.319 -0.145 109 140 122
47.1059 27.8017 72.9035 0.219 -0.505 -0.835 68 97 78
54.1302 31.2788 83.6398 0.618 -0.782 0.076 122 132 131
54.2176 31.4817 84.1521 0.342 -0.936 -0.082 119 129 128
56.2507 32.6322 87.6015 0.865 0.437 -0.247 111 122 114
56.3206 33.0186 88.5427 0.873 0.420 -0.249 90 98 93
58.7413 30.4278 83.2544 0.402 0.773 -0.491 113 112 91
60.5930 28.0689 78.3146 0.459 -0.661 -0.594 120 125 105
65.7174 29.5949 83.7495 0.625 -0.071 -0.778 89 93 79
66.7849 29.8257 84.6750 -0.073 -0.442 -0.894 118 125 116
67.3253 29.9607 85.1868 0.453 -0.779 -0.434 91 97 93
68.4742 29.7173 85.0163 0.239 -0.403 -0.883 82 89 81
66.6977 17.0104 54.2441 0.047 0.008 -0.999 77 84 76
66.9639 17.6695 55.9017 -0.273 0.283 -0.920 100 103 109
67.0458 17.6589 55.9057 -0.318 0.139 -0.938 40 38 58
67.1256 17.6366 55.8812 -0.307 0.141 -0.941 1 0 3
-15.1021 33.3599 63.6072 -0.291 -0.172 -0.941 70 87 71
-14.6741 33.2380 63.4711 -0.134 -0.219 -0.966 72 89 73
-14.3896 33.1837 63.4438 -0.134 -0.219 -0.966 65 83 67
-11.5443 32.5448 62.9444 0.014 -0.479 -0.878 71 80 75
-8.0686 31.7264 62.2446 -0.228 -0.598 -0.769 65 67 62
5.9202 29.0588 60.9072 0.465 -0.161 -0.870 69 70 65
8.1454 28.7011 60.8516 0.144 -0.285 -0.948 94 91 90
9.3358 28.5958 61.0251 0.559 -0.161 -0.814 81 80 75
13.3893 28.0296 61.1260 0.415 -0.353 -0.839 119 127 106
13.7832 28.0477 61.3083 0.315 -0.169 -0.934 67 77 50
15.0566 27.7673 61.0977 0.240 0.007 -0.971 113 116 97
15.3430 27.6709 60.9719 0.020 -0.141 -0.990 121 124 107
15.5703 27.6128 60.9152 0.197 -0.505 -0.841 124 125 109
18.4524 27.4323 61.5112 0.167 -0.498 -0.851 88 86 71
18.6154 27.4140 61.5258 0.163 -0.495 -0.853 93 94 78
18.8169 27.3687 61.4904 0.258 -0.516 -0.817 108 109 93
24.8083 27.1283 63.0473 0.309 -0.411 -0.858 118 112 98
24.9430 27.1273 63.0929 0.373 -0.424 -0.825 104 98 86
25.8085 27.1832 63.5317 0.399 -0.199 -0.895 155 145 135
25.9302 27.1928 63.5976 0.362 -0.200 -0.911 161 151 141
27.3469 27.0073 63.6621 0.233 -0.098 -0.967 142 132 120
28.9573 26.9837 64.1774 0.223 -0.238 -0.945 141 135 123
29.1114 26.9636 64.1845 0.578 -0.378 -0.723 156 148 137
29.4512 27.0130 64.4217 0.432 -0.345 -0.833 157 147 137
30.5203 26.9965 64.7618 0.227 -0.442 -0.868 173 163 154
31.6798 27.0154 65.2177 0.294 -0.478 -0.828 99 91 80
31.9580 26.9992 65.2782 0.387 -0.526 -0.757 146 138 127
32.0665 27.0210 65.3681 0.426 -0.477 -0.769 173 165 154
32.1956 27.0227 65.4178 0.403 -0.480 -0.779 149 141 130
33.6389 27.1499 66.2301 0.484 -0.260 -0.835 89 75 66
33.7818 27.1373 66.2510 0.329 -0.389 -0.861 126 112 103
36.0017 27.2796 67.3741 0.595 -0.347 -0.725 104 103 99
36.1139 27.3004 67.4632 0.596 -0.340 -0.727 27 26 24
36.2393 27.3062 67.5214 0.587 -0.354 -0.728 33 32 27
37.7994 27.1542 67.7156 0.176 -0.325 -0.929 32 36 24
38.2306 26.9446 67.3736 0.765 -0.055 -0.641 32 37 30
39.4800 27.1532 68.3092 0.574 -0.591 -0.567 40 58 22
39.6810 27.0598 68.1601 0.617 -0.547 -0.566 43 59 23
39.7052 27.1956 68.4894 0.270 -0.350 -0.897 45 61 25
40.6837 27.2671 69.0051 0.552 -0.199 -0.809 63 68 46
41.0451 27.3022 69.2163 0.134 -0.301 -0.944 77 77 65
41.1504 27.3353 69.3316 0.176 -0.202 -0.963 98 98 88
41.3173 27.2824 69.2658 0.187 -0.152 -0.971 118 118 108
41.4425 27.2875 69.3224 0.420 -0.148 -0.895 122 120 108
42.4007 27.7784 70.8212 0.258 -0.414 -0.873 135 132 124
44.9961 28.2366 72.8234 0.503 -0.026 -0.864 80 97 79
44.8973 28.6374 73.7349 -0.121 0.738 -0.664 87 107 88
46.3666 27.1844 70.8252 0.558 -0.286 -0.779 86 120 95
48.1470 27.9502 73.2646 0.839 0.431 -0.332 40 68 28
48.3961 28.5225 74.7043 -0.315 0.690 -0.651 45 69 37
54.0518 30.2412 80.7679 0.907 -0.401 0.125 124 134 133
54.1041 30.5469 81.5084 0.928 -0.357 0.104 125 135 134
54.1555 30.8655 82.2789 0.943 -0.329 0.057 124 134 133
54.2859 31.4254 83.6471 0.755 -0.653 0.056 124 134 133
54.3454 31.7405 84.4120 0.734 -0.672 0.099 122 132 131
54.7123 30.8586 82.4599 0.354 0.127 -0.927 118 129 125
56.0386 31.7896 85.1285 0.846 0.482 -0.228 131 150 146
56.2845 33.4360 89.1029 0.986 -0.164 0.035 89 97 92
56.2841 34.2137 90.9391 0.982 -0.176 0.062 92 95 91
60.1669 28.7793 79.4849 -0.585 -0.732 -0.350 137 141 124
60.6070 28.1951 78.2618 0.479 -0.729 -0.489 113 118 98
60.7276 28.2612 78.4605 0.406 -0.615 -0.676 105 108 91
60.8264 28.5913 79.2750 -0.005 0.013 -1.000 93 95 81
60.8846 29.4583 81.3426 0.183 0.113 -0.977 87 88 74
61.0497 29.0146 80.3535 -0.468 -0.778 -0.419 85 86 72
66.8000 29.9706 84.6501 -0.088 -0.443 -0.892 101 108 100
68.4845 29.8266 84.9074 0.236 -0.416 -0.878 81 88 81
66.8920 17.7739 55.8852 -0.277 0.297 -0.914 86 92 86
66.9768 17.7810 55.9322 -0.273 0.283 -0.920 99 102 111
67.0642 17.8041 56.0176 -0.336 0.161 -0.928 39 38 58
67.1379 17.7429 55.8993 -0.312 0.134 -0.940 0 0 2
-15.4365 33.6096 63.6312 -0.248 -0.155 -0.956 84 102 88
-15.1013 33.5316 63.5671 -0.214 -0.047 -0.976 80 98 84
-14.4589 33.3880 63.4577 -0.012 -0.028 -1.000 73 91 75
-13.0265 32.8641 62.7351 -0.292 -0.414 -0.862 55 76 61
-12.6849 32.7804 62.6597 -0.292 -0.414 -0.862 56 76 64
3.2222 29.8951 61.5270 0.277 -0.315 -0.908 26 32 19
8.1288 28.8608 60.8385 0.104 -0.295 -0.950 79 79 77
9.3545 28.7340 60.9757 0.466 -0.231 -0.854 83 82 77
13.7832 28.1947 61.2808 0.324 -0.158 -0.933 93 101 78
13.9820 28.1571 61.2631 0.123 -0.214 -0.969 85 93 70
15.4897 27.8109 60.9848 0.197 -0.562 -0.803 120 121 105
15.7740 27.8062 61.0747 0.213 -0.556 -0.803 119 117 102
18.6394 27.5415 61.4699 0.264 -0.348 -0.900 111 109 94
18.7786 27.5396 61.5149 0.256 -0.339 -0.905 80 78 63
19.0629 27.6281 61.8241 0.265 -0.358 -0.895 121 124 107
20.4463 27.5160 62.0518 0.037 -0.216 -0.976 136 134 122
21.1420 27.5037 62.2699 0.272 -0.036 -0.962 104 101 92
23.4022 27.4292 62.8973 0.676 -0.401 -0.619 111 111 95
24.9567 27.2596 63.0506 0.225 -0.407 -0.886 127 123 111
27.3444 27.1525 63.6468 0.233 -0.098 -0.967 146 136 124
27.9841 27.0561 63.6474 0.410 -0.435 -0.802 144 134 124
29.3505 27.1284 64.3023 0.470 -0.354 -0.808 163 153 143
29.4852 27.1255 64.3435 0.466 -0.349 -0.813 171 158 149
29.6305 27.1129 64.3654 0.396 -0.330 -0.857 167 153 144
29.7621 27.1127 64.4117 0.392 -0.337 -0.856 148 134 125
30.1233 27.1430 64.6111 0.317 -0.465 -0.827 162 148 139
30.2791 27.1202 64.6129 0.527 -0.491 -0.694 164 149 142
30.5421 27.1196 64.7048 0.227 -0.442 -0.868 172 159 151
31.5637 27.1449 65.1271 0.270 -0.425 -0.864 118 109 100
31.7164 27.1236 65.1313 0.260 -0.402 -0.878 142 133 124
34.7035 27.1340 66.2163 0.266 -0.346 -0.900 62 54 43
36.7436 27.3220 67.3824 0.448 -0.299 -0.843 34 31 26
37.5966 27.0791 67.1146 0.328 -0.517 -0.791 34 34 27
38.3013 27.1614 67.5581 0.625 -0.293 -0.724 43 51 39
38.8403 27.2933 68.0595 0.189 -0.392 -0.900 35 53 16
39.6549 27.2409 68.2255 0.589 -0.463 -0.663 48 62 29
39.7188 27.3256 68.4473 0.277 -0.350 -0.895 46 60 27
40.6788 27.4225 69.0159 0.537 -0.142 -0.832 59 64 42
41.0537 27.4395 69.1890 0.299 -0.158 -0.941 81 81 69
41.4488 27.4280 69.3022 0.420 -0.148 -0.895 123 121 108
42.0569 27.8604 70.5342 0.289 -0.248 -0.925 139 135 123
42.1887 27.8582 70.5760 0.289 -0.248 -0.925 127 125 113
42.2886 27.9037 70.7182 0.319 -0.387 -0.865 122 119 110
42.4243 27.8957 70.7478 0.287 -0.412 -0.865 137 134 127
46.3926 27.2906 70.7348 0.228 -0.105 -0.968 80 114 89
48.3720 28.4577 74.1802 0.925 -0.367 -0.095 43 67 31
48.4707 28.5265 74.3769 0.937 -0.292 -0.193 36 60 28
51.8589 24.7185 66.6310 0.566 -0.788 -0.242 54 92 42
54.3586 30.8220 81.8623 0.719 -0.636 0.280 127 137 136
56.1582 31.4379 83.9485 0.980 -0.194 0.035 135 151 148
56.2111 31.8609 84.9615 0.984 -0.176 0.037 137 152 147
58.4344 31.1439 84.0660 0.134 0.820 -0.556 114 113 93
60.6149 28.3898 78.3676 0.176 -0.505 -0.845 107 110 93
60.6532 29.3993 80.7538 0.466 0.755 -0.461 97 100 83
65.4817 29.8263 83.4717 0.563 -0.177 -0.807 74 80 66
65.6126 29.8292 83.5250 0.441 -0.215 -0.872 95 99 84
65.7416 29.8029 83.5090 0.295 -0.234 -0.927 117 123 109
65.8757 29.8544 83.6777 0.412 0.230 -0.882 118 124 110
66.0130 29.9445 83.9381 0.608 0.223 -0.762 116 122 110
66.8139 30.1042 84.5978 -0.047 -0.372 -0.927 97 104 96
67.0699 30.0382 84.5336 0.891 -0.121 -0.438 90 97 90
68.1652 30.3937 85.7579 0.569 -0.794 -0.213 92 99 92
66.9090 17.9127 55.9806 -0.271 -0.023 -0.962 85 95 90
66.9895 17.8911 55.9585 -0.271 -0.023 -0.962 90 93 105
67.0698 17.8696 55.9365 -0.271 -0.023 -0.962 39 39 59
67.1499 17.8481 55.9144 -0.271 -0.023 -0.962 1 2 4
-15.4567 33.7917 63.6069 -0.248 -0.155 -0.956 64 82 71
-14.7724 33.6281 63.4674 0.041 -0.112 -0.993 71 89 75
-11.7066 32.8792 62.8054 0.362 -0.422 -0.831 61 68 64
-10.3617 32.6260 62.6914 -0.367 -0.177 -0.913 79 87 82
-7.6031 31.9839 62.1701 -0.008 -0.607 -0.795 73 74 69
-1.5924 30.5951 61.0582 0.032 -0.289 -0.957 60 71 57
-0.1322 30.3904 61.0986 0.293 -0.318 -0.902 50 56 46
3.2271 30.0473 61.4900 0.252 -0.234 -0.939 21 27 17
5.2791 29.3918 60.6863 0.308 -0.180 -0.934 38 43 36
5.4927 29.3540 60.6738 0.528 -0.297 -0.796 39 41 36
9.0567 28.8890 60.8531 0.245 -0.219 -0.944 102 103 97
9.2289 28.8722 60.8751 0.331 -0.242 -0.912 90 91 85
9.3635 28.8780 60.9365 0.458 -0.243 -0.855 84 83 78
11.7226 28.4837 60.8527 0.324 -0.565 -0.759 89 94 72
11.8741 28.4777 60.8925 0.356 -0.548 -0.757 84 89 68
12.0379 28.4639 60.9186 0.402 -0.549 -0.733 81 84 64
12.2344 28.4294 60.9078 0.242 -0.566 -0.788 84 87 67
13.3852 28.3261 61.0751 0.437 -0.144 -0.888 92 96 79
13.9302 28.3376 61.2959 0.294 -0.117 -0.949 114 119 101
18.9512 27.7549 61.7178 0.571 -0.120 -0.812 140 142 128
19.0624 27.7731 61.7999 0.245 -0.335 -0.910 130 133 116
23.0005 27.5714 62.7280 0.123 -0.723 -0.680 116 108 95
23.4254 27.5551 62.8410 0.676 -0.401 -0.619 86 84 69
24.6151 27.3556 62.7972 0.531 -0.180 -0.828 157 158 144
24.7251 27.3744 62.8803 0.525 -0.187 -0.830 153 154 138
24.9922 27.3742 62.9747 0.245 -0.405 -0.881 145 143 130
25.1261 27.3737 63.0213 0.157 -0.453 -0.878 141 137 125
26.7889 27.3177 63.4813 0.203 -0.120 -0.972 126 119 103
29.3517 27.2707 64.2824 0.476 -0.312 -0.822 133 123 113
29.4861 27.2681 64.3241 0.375 -0.098 -0.922 142 129 120
29.6465 27.2416 64.3191 0.404 -0.358 -0.842 150 136 127
29.7541 27.2634 64.4085 0.354 -0.266 -0.897 153 139 130
30.1466 27.2649 64.5515 0.317 -0.465 -0.827 139 125 116
30.3051 27.2394 64.5482 0.527 -0.491 -0.694 133 116 109
31.5899 27.2633 65.0608 0.251 -0.417 -0.874 113 102 96
31.7405 27.2440 65.0692 0.238 -0.462 -0.855 149 138 132
33.3948 27.2867 65.7573 0.476 -0.341 -0.810 163 155 144
34.2790 27.3157 66.1394 0.519 -0.209 -0.829 54 41 32
34.8497 27.2611 66.2146 0.488 -0.449 -0.748 96 90 78
37.4772 27.2135 67.0374 0.469 0.043 -0.882 33 31 26
38.3563 27.2399 67.4115 0.703 0.001 -0.711 46 54 41
38.3756 27.3755 67.7356 0.398 -0.050 -0.916 48 57 38
38.5271 27.3475 67.7239 0.281 0.026 -0.959 50 60 27
38.7948 27.3350 67.7900 0.317 0.002 -0.949 30 43 6
39.3195 27.3226 67.9475 0.099 -0.624 -0.775 42 55 33
39.6702 27.3683 68.1789 0.576 -0.466 -0.672 47 58 28
39.7149 27.4788 68.4533 0.476 -0.168 -0.864 43 54 24
40.2486 27.4551 68.5876 -0.040 -0.043 -0.998 42 53 23
40.6013 27.5010 68.8204 0.566 -0.288 -0.773 51 57 29
40.7139 27.5233 68.9126 0.509 -0.236 -0.828 58 62 39
41.0603 27.5797 69.1676 0.299 -0.158 -0.941 129 127 114
41.1687 27.6087 69.2741 0.205 -0.214 -0.955 121 119 107
41.9483 27.9804 70.4207 0.570 -0.420 -0.706 176 173 158
42.0501 28.0227 70.5558 0.097 -0.326 -0.940 186 182 170
42.1885 28.0108 70.5772 0.109 -0.331 -0.937 168 166 154
42.3096 28.0247 70.6528 0.013 -0.456 -0.890 118 115 106
42.4351 28.0322 70.7148 0.315 -0.380 -0.870 134 131 126
43.4299 27.9011 70.7619 -0.204 0.514 -0.833 117 118 113
51.7476 30.1493 78.9777 0.905 -0.362 0.221 65 102 48
54.5118 30.9627 81.8630 0.738 -0.617 0.273 130 140 139
56.5627 30.3615 81.1857 0.805 0.532 -0.262 151 165 160
58.3037 31.3361 84.0844 0.788 0.516 -0.335 103 102 82
58.4464 31.3059 84.0645 0.577 0.621 -0.531 126 125 105
59.5513 30.1285 81.7033 0.535 0.762 -0.366 115 113 98
65.3645 29.9509 83.3543 0.643 -0.494 -0.586 82 89 73
65.4947 29.9414 83.3784 -0.039 -0.513 -0.858 79 85 71
65.6234 29.9095 83.3495 -0.056 -0.426 -0.903 103 110 94
65.7503 29.8543 83.2656 -0.123 -0.403 -0.907 125 132 116
65.8809 29.8587 83.3222 -0.096 -0.366 -0.926 121 127 113
66.0287 30.1013 83.9423 0.637 0.218 -0.740 117 123 109
67.2245 30.2610 84.7410 0.604 -0.335 -0.723 80 87 79
67.3589 30.2885 84.8530 0.597 -0.342 -0.726 79 86 78
67.4947 30.3257 84.9883 0.605 -0.323 -0.728 86 93 85
67.6334 30.3861 85.1790 0.725 -0.265 -0.636 93 98 91
67.7712 30.4355 85.3435 0.737 -0.224 -0.638 97 105 94
68.0448 30.5110 85.6173 0.789 -0.437 -0.433 95 102 94
68.3137 30.5460 85.7948 0.696 -0.564 -0.445 82 91 86
66.9188 18.0044 55.9621 -0.363 -0.842 -0.399 84 95 92
-11.7016 33.0450 62.7632 0.271 -0.657 -0.704 64 73 68
-10.3783 32.8013 62.6669 -0.365 -0.179 -0.914 73 81 76
-8.0628 32.1350 61.9396 -0.113 -0.597 -0.794 67 76 68
3.2334 30.1987 61.4517 0.244 -0.271 -0.931 25 31 21
3.4413 30.1662 61.4502 0.263 -0.251 -0.932 46 51 45
5.9344 29.4207 60.6017 0.294 -0.262 -0.919 34 36 31
6.8273 29.3275 60.7026 0.393 -0.128 -0.911 29 34 28
8.8851 29.0550 60.8005 0.235 -0.189 -0.953 52 54 49
9.2238 29.0248 60.8508 0.347 -0.255 -0.902 81 82 76
9.3709 29.0231 60.8991 0.458 -0.243 -0.855 73 72 67
10.4020 28.8319 60.8210 0.206 -0.349 -0.914 69 73 58
10.6644 28.8467 60.9487 0.425 -0.295 -0.856 96 103 85
10.8237 28.8366 60.9820 0.234 -0.076 -0.969 81 89 70
11.0341 28.7947 60.9593 0.150 -0.269 -0.951 75 79 61
13.1399 28.4498 60.9058 0.159 -0.472 -0.867 102 106 91
13.4297 28.4445 60.9964 0.399 -0.332 -0.855 92 96 81
16.5862 28.0155 61.1212 0.490 -0.350 -0.798 156 154 141
18.7669 27.9333 61.7059 0.718 0.021 -0.696 136 137 119
18.9117 27.9277 61.7443 0.129 -0.365 -0.922 148 151 134
22.2289 27.6865 62.3635 0.551 -0.352 -0.757 141 137 126
26.7338 27.5079 63.5511 0.571 -0.269 -0.776 120 113 97
27.5971 27.5649 63.9911 0.388 -0.070 -0.919 162 149 140
29.3428 27.4223 64.2804 0.497 -0.441 -0.747 148 138 128
29.4815 27.4158 64.3147 0.315 -0.190 -0.930 149 136 127
29.6180 27.4112 64.3525 0.337 -0.168 -0.926 189 175 166
29.9984 27.4243 64.5183 0.180 -0.220 -0.959 139 125 116
30.1312 27.4229 64.5624 0.425 -0.116 -0.898 147 133 124
30.3010 27.3868 64.5387 0.417 -0.175 -0.892 148 131 124
30.4502 27.3698 64.5522 0.512 -0.201 -0.835 151 136 129
30.5789 27.3720 64.6033 0.266 -0.397 -0.879 147 134 126
30.7301 27.3528 64.6124 0.175 -0.385 -0.906 134 123 117
30.8546 27.3589 64.6709 0.204 -0.335 -0.920 139 128 122
31.2228 27.3824 64.8567 0.168 -0.455 -0.874 142 133 126
31.7839 27.3453 64.9698 0.212 -0.449 -0.868 150 139 133
32.1932 27.4577 65.3772 0.367 -0.446 -0.816 146 135 129
33.4164 27.4088 65.6989 0.435 -0.396 -0.809 149 141 130
33.7271 27.4929 66.0052 0.268 -0.411 -0.871 151 137 128
33.8598 27.4906 66.0472 0.268 -0.411 -0.871 76 62 53
34.8845 27.3681 66.1266 0.391 -0.285 -0.875 103 97 85
38.3477 27.3967 67.4259 0.677 -0.165 -0.717 45 51 36
38.3660 27.5343 67.7527 0.238 -0.647 -0.724 55 62 42
38.5142 27.5105 67.7500 0.254 -0.006 -0.967 74 81 49
39.0191 27.5248 67.9629 0.165 -0.523 -0.836 57 67 44
39.5538 27.4998 68.0950 0.332 -0.814 -0.476 41 50 24
39.9419 27.3270 67.8310 -0.015 -0.302 -0.953 36 47 17
