ply
format ascii 1.0
element vertex 888
property float x
property float y
property float z
property float nx
property float ny
property float nz
property uchar diffuse_red
property uchar diffuse_green
property uchar diffuse_blue
end_header
33.5609 12.9074 75.2120 0.405 -0.913 -0.048 30 44 29
36.1708 12.9486 76.0879 0.284 0.378 -0.881 130 142 138
37.1489 13.3376 77.6955 0.665 -0.586 -0.464 117 126 125
37.2609 13.3651 77.8213 0.665 -0.586 -0.464 114 123 122
37.4249 13.3433 77.7928 -0.049 -0.841 -0.538 108 117 116
37.7615 13.2903 77.7061 0.272 -0.620 -0.736 119 128 127
37.9251 13.2679 77.6754 0.282 -0.648 -0.708 121 130 129
38.0524 13.2805 77.7544 -0.064 -0.591 -0.804 127 136 135
38.6388 13.2548 77.8314 0.318 -0.393 -0.863 107 112 115
38.7920 13.2414 77.8286 0.314 -0.404 -0.859 102 107 110
38.7202 13.4554 78.5413 0.658 -0.300 -0.691 99 105 105
38.8276 13.4894 78.6880 0.621 -0.328 -0.712 106 112 112
38.9443 13.5144 78.8063 0.698 -0.266 -0.665 121 127 127
39.0625 13.5380 78.9206 0.698 -0.266 -0.665 120 125 128
39.1703 13.5726 79.0694 0.697 -0.284 -0.658 119 124 128
39.3055 13.5790 79.1293 0.148 -0.258 -0.955 127 132 137
39.4261 13.6007 79.2376 0.105 -0.132 -0.986 114 118 128
39.5744 13.5934 79.2543 0.105 -0.132 -0.986 93 97 108
39.7203 13.5885 79.2786 0.218 -0.133 -0.967 80 84 95
39.8663 13.5832 79.3017 0.559 -0.411 -0.720 65 69 80
40.7760 13.5116 79.3125 0.160 -0.151 -0.975 59 66 73
40.9450 13.4793 79.2496 0.454 -0.568 -0.686 41 48 56
41.0385 13.5316 79.4550 0.515 -0.531 -0.673 26 33 42
43.9868 14.0648 82.1111 -0.039 -0.110 -0.993 30 39 38
44.1179 14.0792 82.1973 0.694 -0.332 -0.639 26 32 32
44.3018 14.0217 82.0523 0.878 0.107 -0.467 30 36 36
44.4613 13.9967 82.0116 0.841 0.098 -0.531 35 39 40
44.6388 13.9464 81.8892 0.770 -0.070 -0.634 32 36 39
44.7844 13.9396 81.9068 0.574 -0.131 -0.809 31 34 39
44.9532 13.9000 81.8187 0.075 -0.104 -0.992 33 36 41
52.4098 12.6639 79.6859 0.019 -0.148 -0.989 60 59 55
62.1187 13.9418 86.7956 0.127 0.641 -0.757 94 96 83
63.8866 14.6279 89.6430 0.106 0.471 -0.876 80 82 69
64.3226 14.9575 90.8943 -0.197 -0.497 -0.845 79 75 63
64.7102 14.7423 90.2667 0.396 -0.237 -0.887 63 64 50
64.8465 14.7484 90.3259 0.396 -0.237 -0.887 79 81 67
66.2472 15.0328 91.6940 0.638 -0.378 -0.671 95 98 79
66.3909 15.0744 91.8771 0.613 -0.171 -0.771 83 86 69
66.8408 15.2868 92.7310 0.647 -0.436 -0.625 86 87 71
66.9936 15.3651 93.0422 0.670 -0.436 -0.600 91 92 76
67.0932 15.1728 92.4118 0.681 -0.485 -0.549 91 92 74
67.5401 15.3415 93.1153 0.837 -0.428 -0.341 91 94 73
-12.1682 15.0689 69.1344 0.704 -0.584 -0.405 62 74 74
-11.1997 15.0955 69.4984 -0.090 -0.765 -0.637 25 37 37
2.2557 13.5085 67.8990 0.348 -0.537 -0.768 44 60 50
2.6141 13.4921 67.9442 0.072 -0.649 -0.758 44 61 55
7.2646 13.1213 67.9961 0.104 -0.774 -0.625 41 57 43
8.6557 12.9847 67.9244 0.309 -0.373 -0.875 78 87 78
8.7875 12.9937 67.9921 0.074 -0.328 -0.942 74 81 73
12.1217 12.7867 68.2297 0.336 -0.379 -0.862 72 72 70
12.2995 12.7738 68.2358 -0.042 -0.300 -0.953 61 61 59
15.5673 12.7755 69.1649 0.287 -0.193 -0.938 65 71 71
18.7060 12.5959 69.4403 0.442 -0.656 -0.612 92 99 92
19.4606 12.5034 69.3388 -0.115 -0.473 -0.874 47 49 46
19.4485 12.6645 69.8836 0.745 -0.185 -0.640 73 78 74
19.7208 12.6744 69.9939 0.571 -0.598 -0.562 65 71 69
20.2926 12.5216 69.6356 0.440 -0.430 -0.788 65 71 69
20.1608 12.6718 70.1096 0.489 -0.726 -0.484 61 67 65
20.2603 12.6967 70.2223 0.481 -0.728 -0.488 61 70 65
20.8327 12.4623 69.5864 0.428 -0.298 -0.853 60 69 64
21.0323 12.6703 70.3507 -0.189 -0.531 -0.826 51 67 57
21.7421 12.5958 70.2975 -0.123 -0.771 -0.625 107 123 113
22.6298 12.7471 71.0632 -0.065 -0.882 -0.467 77 87 78
23.0912 12.7300 71.1352 -0.280 -0.888 -0.363 69 72 65
24.9215 12.2327 69.9600 0.584 -0.736 -0.342 71 72 70
28.2239 12.4469 71.6218 0.328 -0.579 -0.746 52 53 48
28.6035 12.4735 71.8197 0.542 -0.444 -0.713 119 123 116
28.7098 12.4962 71.9271 0.546 -0.338 -0.767 83 88 80
29.7299 12.7617 73.1188 0.199 0.025 -0.980 89 90 84
29.8742 12.7592 73.1508 0.181 -0.001 -0.984 91 92 85
29.9917 12.7757 73.2402 0.235 -0.103 -0.966 141 141 131
30.0505 12.8345 73.4570 0.746 0.066 -0.662 63 63 53
30.2020 12.8269 73.4739 0.632 -0.140 -0.762 95 92 83
30.3183 12.8447 73.5672 0.632 -0.140 -0.762 96 92 83
32.6394 12.7860 74.0231 0.235 -0.252 -0.939 43 62 43
33.1520 12.8215 74.2889 0.550 -0.049 -0.834 35 54 34
33.2747 12.8349 74.3690 0.550 -0.049 -0.834 34 53 33
33.4032 12.8435 74.4348 0.543 -0.060 -0.837 33 52 33
33.5812 13.0390 75.1501 -0.124 -0.975 -0.185 30 44 27
33.6379 13.1075 75.3993 0.386 -0.920 -0.074 30 44 27
33.7439 13.1360 75.5262 0.041 -0.929 -0.369 30 44 27
33.8388 13.1739 75.6821 -0.008 -0.952 -0.304 30 44 27
34.0456 13.1192 75.5544 -0.085 -0.932 -0.353 32 46 29
34.2822 13.0390 75.3483 -0.065 -0.933 -0.355 34 48 31
35.4896 12.9613 75.4251 0.701 0.141 -0.699 30 43 36
35.7071 12.8926 75.2526 0.986 -0.159 -0.051 31 44 37
35.9213 13.0714 75.9215 0.219 0.523 -0.823 143 155 151
36.0476 13.0830 75.9968 0.154 0.457 -0.876 119 131 127
38.8580 13.6119 78.5906 0.209 -0.898 -0.387 127 133 133
38.8934 13.7207 78.9709 0.298 -0.571 -0.765 120 126 126
39.0262 13.7297 79.0389 0.309 -0.505 -0.806 107 113 113
39.5769 13.7455 79.2481 0.116 -0.069 -0.991 110 115 122
39.7250 13.7382 79.2651 0.135 -0.125 -0.983 130 134 142
39.8921 13.7103 79.2174 0.467 -0.463 -0.754 130 134 142
40.1527 13.7334 79.3697 0.562 -0.596 -0.573 105 109 118
40.2760 13.7528 79.4705 0.562 -0.596 -0.573 99 106 114
40.8240 13.6126 79.1483 0.512 -0.636 -0.577 37 44 54
40.9472 13.6315 79.2473 0.476 -0.575 -0.665 33 39 51
41.0620 13.6600 79.3769 0.507 -0.574 -0.643 47 53 65
41.1785 13.6870 79.5018 0.662 -0.554 -0.505 58 65 76
43.2453 14.0833 81.4342 0.178 -0.731 -0.659 105 110 113
43.3861 14.0841 81.4764 0.303 -0.620 -0.724 71 79 81
43.5508 14.0534 81.4185 0.261 -0.644 -0.719 44 54 53
43.5618 14.2249 82.0052 0.271 -0.159 -0.949 35 44 43
43.9294 14.3034 82.3765 0.548 -0.755 -0.361 40 50 49
44.2458 14.0665 81.6595 0.787 -0.172 -0.593 50 59 58
44.2785 14.2148 82.1735 0.724 -0.049 -0.688 53 59 59
44.3517 14.3092 82.5155 0.314 0.219 -0.924 42 47 50
44.4546 14.3638 82.7304 -0.058 0.234 -0.970 34 38 41
44.6089 14.3471 82.7171 -0.058 0.234 -0.970 31 35 38
44.7436 14.3576 82.7908 0.464 -0.049 -0.885 32 35 40
46.9273 11.9918 75.3566 0.278 -0.673 -0.685 41 41 50
62.0016 14.1816 87.0671 0.139 0.419 -0.897 91 93 79
62.1334 13.8635 86.0218 -0.557 0.061 -0.828 88 90 76
65.4221 15.0173 90.8772 0.521 -0.647 -0.557 99 102 92
67.1242 15.3873 92.6173 0.182 -0.496 -0.849 90 91 72
67.2533 15.3472 92.5171 0.390 -0.406 -0.826 84 86 65
-12.3192 15.3441 69.4265 0.781 -0.305 -0.545 66 78 76
3.9712 13.3509 67.3018 0.337 -0.073 -0.939 56 71 66
8.3833 13.1849 67.9906 0.516 -0.488 -0.703 67 73 66
8.5997 13.2239 68.1840 0.594 -0.372 -0.713 69 72 66
10.7211 13.1609 68.5718 0.484 -0.635 -0.602 60 62 59
10.9289 13.1352 68.5441 0.449 -0.603 -0.659 62 64 61
11.8757 12.9087 68.0461 0.219 -0.564 -0.796 60 62 59
12.0301 12.9065 68.0824 0.195 -0.605 -0.772 57 59 56
12.1856 12.9037 68.1171 0.179 -0.635 -0.752 57 59 56
12.3932 12.8767 68.0847 0.056 -0.477 -0.877 51 53 50
13.9307 12.9243 68.6814 0.198 -0.288 -0.937 32 36 35
14.0877 12.9203 68.7124 0.090 -0.343 -0.935 42 46 45
14.5550 12.9097 68.8089 0.076 -0.327 -0.942 65 69 70
15.2743 12.8474 68.8021 0.204 -0.706 -0.679 69 73 72
15.3078 12.9036 69.0018 0.371 -0.345 -0.862 65 69 68
15.6044 12.9032 69.0843 0.319 -0.213 -0.924 58 62 63
15.7627 12.8979 69.1112 0.017 -0.254 -0.967 45 49 48
19.6935 12.7558 69.7444 0.619 -0.396 -0.679 71 76 72
19.8056 12.7735 69.8363 0.619 -0.396 -0.679 54 60 56
19.9416 12.7784 69.8913 0.643 -0.386 -0.661 47 53 49
20.2443 12.8508 70.2220 0.640 0.067 -0.765 48 55 49
20.5308 12.8528 70.3100 -0.088 -0.168 -0.982 44 55 47
20.6808 12.8500 70.3430 -0.134 -0.182 -0.974 41 52 44
20.8570 12.8325 70.3338 -0.203 -0.272 -0.941 36 49 40
21.0497 12.8057 70.2976 -0.224 -0.475 -0.851 36 52 42
22.3793 12.8706 70.8938 -0.082 -0.882 -0.464 60 76 66
23.4235 12.7636 70.8279 -0.046 -0.819 -0.572 70 71 66
26.9090 12.8092 71.9699 0.122 -0.216 -0.969 95 95 80
27.0860 12.7860 71.9415 0.399 -0.046 -0.916 85 86 68
27.3425 12.8033 72.0727 0.630 -0.612 -0.478 79 75 65
28.2305 12.5862 71.5901 0.467 -0.210 -0.859 52 53 46
28.3737 12.5838 71.6226 0.428 -0.144 -0.892 57 58 52
28.7247 12.6301 71.8787 0.546 -0.338 -0.767 56 62 50
29.7215 12.9136 73.1200 0.207 -0.283 -0.937 84 85 77
29.8180 12.9453 73.2545 0.606 -0.335 -0.722 99 101 91
29.9353 12.9622 73.3451 0.606 -0.335 -0.722 108 108 97
30.0274 12.9976 73.4907 0.691 -0.340 -0.638 73 73 61
30.1624 13.0019 73.5438 0.284 -0.209 -0.936 98 96 84
30.3034 13.0020 73.5839 0.251 -0.188 -0.950 93 89 80
30.4542 12.9948 73.6024 0.144 -0.385 -0.912 90 87 78
30.6576 12.9488 73.5043 -0.181 -0.579 -0.795 109 106 99
31.4937 12.9532 73.7563 0.348 -0.847 -0.402 106 107 108
31.6103 12.9711 73.8497 0.330 -0.836 -0.439 123 127 130
32.6638 12.9132 73.9526 0.308 -0.337 -0.890 49 68 47
33.1565 12.9646 74.2660 0.543 -0.060 -0.837 33 52 32
33.2796 12.9777 74.3450 0.543 -0.060 -0.837 37 56 36
33.4028 12.9907 74.4241 0.543 -0.060 -0.837 29 48 28
33.8734 12.9476 74.4117 -0.099 -0.607 -0.789 33 47 30
35.5299 13.0741 75.3089 0.734 0.166 -0.659 29 42 35
36.0087 13.2671 76.0973 0.227 0.423 -0.877 129 141 137
36.3739 13.7053 77.6826 0.605 -0.795 -0.048 129 141 139
37.3144 13.6183 77.6551 0.059 0.257 -0.965 124 133 132
37.6279 13.5874 77.6394 -0.013 0.080 -0.997 133 142 141
37.8971 13.4617 77.2906 0.411 -0.817 -0.405 132 141 140
38.9404 13.8264 78.8196 0.554 -0.367 -0.747 117 123 123
39.0506 13.8588 78.9604 0.434 -0.435 -0.789 116 122 122
39.2206 13.8288 78.9071 0.546 -0.603 -0.582 115 121 121
39.3212 13.8716 79.0805 0.252 -0.482 -0.839 114 120 121
39.4632 13.8709 79.1183 0.247 -0.497 -0.832 119 124 127
39.6040 13.8714 79.1598 0.247 -0.497 -0.832 122 127 130
39.7305 13.8872 79.2492 0.125 -0.127 -0.984 118 123 127
39.8884 13.8691 79.2328 0.187 -0.242 -0.952 115 120 124
40.0445 13.8527 79.2214 0.424 -0.504 -0.753 118 123 127
40.1824 13.8559 79.2715 0.562 -0.596 -0.573 121 126 130
40.7288 13.7170 78.9565 0.517 -0.637 -0.572 140 147 153
40.8533 13.7342 79.0499 0.517 -0.637 -0.572 143 150 158
40.9907 13.7370 79.0983 0.376 -0.569 -0.731 134 141 150
41.1105 13.7599 79.2095 0.297 -0.703 -0.646 129 138 146
41.2132 13.8025 79.3829 0.504 -0.537 -0.676 112 119 128
41.3422 13.8153 79.4626 0.552 -0.496 -0.671 96 103 111
42.2061 14.1268 80.7610 0.558 -0.706 -0.436 64 76 78
42.3198 14.1608 80.9084 0.549 -0.773 -0.317 59 73 74
43.2491 14.4230 82.0583 0.026 -0.245 -0.969 116 126 125
43.4127 14.3951 82.0103 0.221 -0.132 -0.966 105 116 113
43.5553 14.3945 82.0488 0.212 -0.145 -0.966 104 114 113
43.9994 14.3703 82.0926 -0.018 -0.231 -0.973 68 78 77
44.1579 14.3473 82.0600 -0.013 -0.220 -0.975 65 75 74
44.3110 14.3315 82.0498 -0.010 -0.226 -0.974 62 71 70
44.4916 14.2770 81.9168 0.176 -0.177 -0.968 51 56 59
60.1002 13.2753 82.9521 -0.115 -0.845 -0.523 137 138 129
61.4889 14.1145 86.1838 0.519 -0.697 -0.495 110 113 95
61.6207 14.1430 86.3177 0.505 -0.704 -0.498 106 107 90
61.8863 13.9692 85.8050 -0.200 0.276 -0.940 95 98 81
63.6695 15.2455 90.6269 -0.241 -0.970 0.021 118 121 110
64.0575 14.9495 89.7357 -0.001 -0.207 -0.978 73 73 63
64.1927 14.9445 89.7572 0.482 0.048 -0.875 70 70 60
65.6997 15.0842 90.6568 0.306 -0.262 -0.916 98 102 87
67.1398 15.5245 92.5538 0.201 -0.504 -0.840 89 91 70
67.2699 15.4892 92.4712 0.452 -0.425 -0.784 82 84 63
-14.1367 16.0737 70.7671 0.691 -0.531 -0.490 56 67 69
-12.3168 15.5077 69.3819 0.467 -0.235 -0.852 64 78 78
-12.0686 15.5429 69.5709 0.626 -0.423 -0.655 47 62 57
-4.5885 14.3296 67.6189 0.084 -0.336 -0.938 47 61 64
-3.9128 14.3843 67.9949 0.059 -0.640 -0.766 44 58 60
3.0531 13.6192 67.4032 0.190 -0.500 -0.845 48 65 57
3.2014 13.6227 67.4572 0.189 -0.496 -0.847 54 71 61
3.4123 13.6009 67.4438 0.030 -0.576 -0.817 62 79 69
5.5161 13.4408 67.5037 0.050 -0.385 -0.922 54 67 60
6.9759 13.4113 67.8194 0.269 -0.309 -0.912 49 56 53
7.1284 13.4119 67.8648 0.260 -0.321 -0.911 41 50 48
7.2433 13.4286 67.9538 0.279 -0.334 -0.900 47 56 54
7.4744 13.3953 67.9077 0.272 -0.443 -0.854 56 62 57
7.7812 13.4622 68.2197 0.110 -0.540 -0.834 55 58 51
7.9950 13.4361 68.1926 0.351 -0.743 -0.570 47 50 45
8.1414 13.4392 68.2448 0.355 -0.740 -0.571 63 68 64
8.5197 13.3406 68.0207 0.386 -0.561 -0.732 73 75 72
9.6945 13.2249 67.9658 0.278 -0.601 -0.749 48 47 45
12.2444 13.0227 68.0110 0.234 -0.585 -0.777 42 44 41
12.4351 13.0033 68.0001 0.052 -0.476 -0.878 38 43 39
14.2371 13.0661 68.7235 -0.097 -0.366 -0.926 68 72 71
14.4103 13.0541 68.7323 -0.064 -0.347 -0.936 98 102 101
14.6044 13.0317 68.7122 -0.023 -0.660 -0.751 112 116 115
15.4084 13.0732 69.0804 0.516 -0.746 -0.421 77 81 82
15.7444 13.0531 69.1081 -0.040 -0.295 -0.955 27 29 28
17.9929 13.1084 69.9333 -0.485 0.058 -0.873 65 76 72
18.9919 12.8879 69.4762 -0.043 -0.090 -0.995 46 52 48
19.6025 12.8714 69.5941 0.619 -0.396 -0.679 56 61 57
19.7145 12.8892 69.6858 0.619 -0.396 -0.679 60 67 60
19.8266 12.9070 69.7776 0.619 -0.396 -0.679 52 59 52
19.9622 12.9121 69.8332 0.643 -0.386 -0.661 45 52 45
20.4965 13.0174 70.3390 -0.287 -0.259 -0.922 30 41 33
20.6783 12.9968 70.3216 -0.248 -0.317 -0.916 31 42 34
20.8918 12.9584 70.2529 -0.065 -0.535 -0.843 41 54 45
21.0835 12.9318 70.2182 -0.224 -0.475 -0.851 57 73 63
23.4772 12.8763 70.7122 0.352 0.154 -0.923 47 52 48
26.9680 12.9156 71.8364 -0.211 -0.504 -0.838 87 85 70
27.1008 12.9212 71.8932 0.411 -0.067 -0.909 84 83 64
27.2493 12.9165 71.9193 0.584 -0.531 -0.615 81 75 60
27.3406 12.9497 72.0570 0.533 -0.514 -0.671 77 70 58
28.4014 12.7088 71.5487 0.486 -0.078 -0.871 52 53 43
28.5187 12.7239 71.6331 0.501 -0.276 -0.820 57 60 49
28.6515 12.7286 71.6865 0.514 -0.275 -0.813 116 123 108
29.4126 12.9789 72.7440 0.448 -0.828 -0.337 86 91 84
29.7242 13.0576 73.0974 0.191 -0.220 -0.957 73 75 64
29.8697 13.0542 73.1273 0.210 -0.222 -0.952 100 102 91
29.9737 13.0808 73.2463 0.586 -0.336 -0.737 97 97 85
30.5935 13.0388 73.2810 -0.160 -0.296 -0.942 89 86 77
32.3776 13.0653 73.8775 0.070 -0.673 -0.736 105 122 112
32.6681 13.0562 73.9295 0.290 -0.541 -0.790 83 104 83
32.9060 13.0887 74.1062 0.240 -0.442 -0.865 52 74 51
33.2815 13.1231 74.3286 0.568 -0.218 -0.794 51 73 50
33.4144 13.1283 74.3840 0.589 -0.315 -0.744 51 73 50
33.7628 13.0711 74.2908 -0.108 -0.671 -0.733 46 62 43
33.9335 13.0449 74.2510 -0.104 -0.643 -0.759 43 58 39
34.1018 13.0203 74.2162 -0.150 -0.545 -0.825 41 56 37
35.5523 13.2024 75.2406 0.615 -0.351 -0.706 30 43 36
37.9904 13.7986 77.9376 0.494 0.226 -0.840 130 139 138
38.0495 13.8804 78.2295 0.529 0.208 -0.823 130 139 138
38.9334 13.9880 78.8425 0.403 -0.427 -0.809 127 133 133
39.2019 14.0030 78.9691 0.252 -0.482 -0.839 118 124 124
39.3427 14.0036 79.0111 0.252 -0.482 -0.839 109 115 115
39.4834 14.0041 79.0530 0.252 -0.482 -0.839 107 113 113
39.6241 14.0047 79.0949 0.252 -0.482 -0.839 107 113 113
39.7367 14.0356 79.2308 0.125 -0.127 -0.984 107 113 114
39.8947 14.0173 79.2142 0.145 -0.272 -0.951 109 115 115
40.0406 14.0120 79.2379 0.145 -0.272 -0.951 116 122 123
40.3537 13.9773 79.2102 0.530 -0.086 -0.844 136 144 146
41.0161 13.8628 79.0135 0.376 -0.569 -0.731 121 131 134
41.1320 13.8901 79.1384 0.274 -0.712 -0.647 112 122 125
41.2158 13.9550 79.3801 0.606 -0.503 -0.616 125 133 137
41.3467 13.9656 79.4532 0.517 -0.596 -0.615 134 142 146
41.4557 14.0021 79.6069 0.359 -0.628 -0.690 138 143 147
41.5800 14.0209 79.7055 0.423 -0.648 -0.633 145 150 153
41.7106 14.0324 79.7810 0.423 -0.648 -0.633 153 155 160
41.8414 14.0438 79.8566 0.423 -0.648 -0.633 154 157 162
41.9869 14.0374 79.8766 0.416 -0.683 -0.600 154 158 162
43.2615 14.5679 82.0220 0.026 -0.245 -0.969 128 140 136
43.4274 14.5367 81.9644 0.202 -0.150 -0.968 112 124 120
43.5766 14.5275 81.9756 0.240 -0.087 -0.967 105 117 115
43.7198 14.5259 82.0112 0.240 -0.087 -0.967 109 121 119
43.8714 14.5129 82.0103 0.115 0.043 -0.992 110 122 120
44.0187 14.5054 82.0270 0.115 0.043 -0.992 94 106 104
44.1728 14.4884 82.0137 0.114 0.049 -0.992 85 95 94
44.3176 14.4839 82.0399 0.115 0.031 -0.993 78 87 86
44.2407 14.9920 83.7257 0.327 -0.945 0.007 49 53 56
44.3188 15.0861 84.0644 0.371 -0.928 0.041 42 46 47
44.6941 15.3852 85.1764 0.937 0.298 -0.185 44 47 56
60.1179 13.3721 82.7940 -0.062 -0.421 -0.905 132 133 126
60.8371 14.3589 86.3157 0.365 -0.917 -0.161 109 113 98
60.9482 14.8625 88.0400 0.200 -0.725 -0.659 120 127 111
61.3684 14.3874 86.5624 0.245 -0.755 -0.608 109 112 91
61.5024 14.3381 86.4346 0.115 -0.720 -0.685 100 102 81
61.9022 14.0168 85.4683 -0.479 -0.582 -0.657 87 88 70
63.5671 15.7052 91.6169 -0.281 -0.960 0.007 134 138 124
64.2148 15.1549 89.9513 0.195 0.030 -0.980 61 61 51
64.6181 15.1150 89.9318 0.561 -0.526 -0.640 82 85 71
65.5735 15.1755 90.4069 -0.028 0.084 -0.996 110 114 101
65.7140 15.2109 90.5657 0.064 -0.187 -0.980 93 97 82
67.1523 15.6464 92.4384 0.460 -0.084 -0.884 86 87 70
67.2922 15.6595 92.5222 0.464 -0.074 -0.883 77 78 62
-15.8177 16.0827 69.7126 0.225 -0.248 -0.942 62 82 89
-14.0845 16.2238 70.6781 0.691 -0.531 -0.490 47 61 62
-12.5895 15.7668 69.5779 0.300 -0.207 -0.931 46 60 60
-12.2214 15.6998 69.4590 0.685 -0.014 -0.728 59 74 72
-7.1741 14.7023 67.5657 -0.017 -0.166 -0.986 37 47 57
-7.0955 14.7342 67.6945 -0.008 -0.447 -0.894 39 49 56
-6.8760 14.7153 67.6942 0.012 -0.431 -0.902 45 56 62
-6.6681 14.7006 67.7041 0.012 -0.431 -0.902 47 58 62
-4.1078 14.4296 67.5291 -0.017 -0.503 -0.864 56 70 73
-3.6463 14.5026 67.9044 0.078 -0.671 -0.737 49 62 69
3.0510 13.7709 67.3698 0.302 -0.597 -0.743 50 66 56
3.2206 13.7658 67.4011 0.405 -0.525 -0.749 54 71 63
3.5007 13.7156 67.3132 0.117 -0.215 -0.970 48 63 56
3.6675 13.7114 67.3467 -0.041 -0.331 -0.943 50 65 58
3.8612 13.6961 67.3509 -0.143 -0.319 -0.937 44 57 50
5.5370 13.5816 67.4460 0.050 -0.385 -0.922 58 71 63
6.7298 13.5339 67.6270 0.016 -0.326 -0.945 52 59 52
7.8062 13.5336 67.9328 0.256 -0.652 -0.713 64 67 58
8.4228 13.5997 68.3296 0.076 -0.970 -0.232 62 62 60
8.5841 13.5962 68.3639 0.058 -0.967 -0.250 62 61 59
8.7625 13.5850 68.3773 -0.070 -0.927 -0.369 58 57 55
12.2952 13.1452 67.9152 0.230 -0.575 -0.785 26 28 25
12.4733 13.1315 67.9204 0.053 -0.471 -0.881 19 21 18
16.7344 12.9206 68.4308 0.179 -0.654 -0.735 71 73 68
18.6625 13.0537 69.4251 0.443 0.022 -0.896 71 84 77
19.4849 13.0014 69.4850 -0.055 -0.207 -0.977 26 33 26
19.6236 13.0047 69.5355 0.619 -0.396 -0.679 37 44 37
19.7356 13.0226 69.6272 0.619 -0.396 -0.679 48 55 48
19.9828 13.0458 69.7751 0.643 -0.386 -0.661 41 48 41
20.9548 13.0681 70.1267 -0.221 -0.471 -0.854 44 57 48
26.5324 13.0679 71.7166 -0.176 -0.611 -0.772 90 80 78
27.0971 13.0688 71.8805 0.411 -0.067 -0.909 76 73 54
27.2139 13.0852 71.9685 0.403 -0.061 -0.913 67 60 42
27.3452 13.0919 72.0286 0.534 -0.148 -0.833 82 75 58
27.4699 13.1031 72.1016 0.299 -0.181 -0.937 105 99 81
27.6305 13.0901 72.1039 0.373 -0.572 -0.730 113 110 93
29.4723 13.0819 72.6017 0.800 -0.526 -0.289 49 55 45
32.8461 13.1719 73.8641 0.172 -0.713 -0.680 37 59 36
33.3190 13.2396 74.2253 0.535 -0.190 -0.823 31 53 30
33.4455 13.2501 74.2963 0.782 -0.042 -0.621 39 62 36
33.9603 13.1693 74.1732 0.010 -0.581 -0.814 35 50 31
33.8592 13.3693 74.8125 0.140 -0.724 -0.675 34 49 30
35.5797 13.3262 75.1591 0.373 -0.913 -0.167 30 42 38
35.5463 13.4796 75.6621 0.341 -0.888 -0.308 30 42 38
36.2417 13.6089 76.2924 -0.051 0.482 -0.875 48 60 56
37.4661 14.0512 78.1191 0.242 -0.969 -0.047 135 144 143
39.2392 14.1182 78.8484 0.185 -0.551 -0.814 123 129 129
39.3823 14.1161 78.8823 0.185 -0.551 -0.814 122 128 128
39.5103 14.1302 78.9657 0.246 -0.503 -0.828 122 128 126
39.6117 14.1732 79.1384 -0.267 0.009 -0.964 118 124 122
39.7751 14.1490 79.1042 -0.223 -0.033 -0.974 117 123 121
39.9056 14.1606 79.1801 0.112 -0.093 -0.989 119 125 123
40.0570 14.1492 79.1851 0.211 0.212 -0.954 116 122 120
40.2264 14.1175 79.1276 0.473 0.236 -0.849 110 116 114
40.3568 14.1290 79.2033 0.473 0.236 -0.849 102 111 110
41.0409 13.9892 78.9311 0.318 -0.598 -0.736 105 113 113
41.1652 14.0068 79.0256 0.276 -0.708 -0.650 122 132 131
41.2538 14.0662 79.2491 0.395 -0.321 -0.861 126 135 135
41.4453 14.0057 79.1018 0.425 -0.450 -0.785 135 143 144
41.5782 14.0136 79.1658 0.476 -0.419 -0.773 143 148 151
41.8853 14.1474 79.7006 0.592 -0.511 -0.623 157 160 165
42.0229 14.1504 79.7499 0.489 -0.587 -0.645 140 143 148
42.1512 14.1647 79.8342 0.489 -0.587 -0.645 126 131 135
43.6127 14.6404 81.8399 0.228 0.240 -0.944 98 110 108
43.9037 14.6304 81.8895 0.142 0.178 -0.974 86 101 98
44.6277 14.6074 82.0194 0.231 -0.206 -0.951 111 112 116
60.1376 13.4429 82.5513 0.004 -0.862 -0.508 124 126 114
62.7156 14.6820 87.4261 0.964 -0.241 -0.108 105 107 93
66.6108 15.7396 92.0696 0.759 -0.381 -0.529 84 86 72
66.7555 15.7805 92.2476 0.759 -0.381 -0.529 85 88 71
67.0403 15.8338 92.5070 0.802 -0.328 -0.499 88 91 75
67.2984 15.7506 92.3025 0.620 -0.262 -0.740 73 75 66
-16.1050 16.3476 69.9098 0.132 -0.264 -0.955 61 80 87
-13.9635 16.3497 70.5291 0.672 -0.560 -0.485 50 65 66
-12.5845 15.9302 69.5308 0.314 -0.208 -0.926 43 58 58
-12.2430 15.8721 69.4354 0.685 -0.014 -0.728 47 61 61
-12.0962 15.8820 69.5102 0.442 -0.361 -0.821 54 69 67
-11.9214 15.8821 69.5604 0.424 -0.414 -0.805 46 61 58
-11.7729 15.8914 69.6338 0.424 -0.414 -0.805 35 50 47
-11.9254 16.0071 69.9744 -0.503 -0.484 -0.717 30 42 42
-3.5731 14.6313 67.7950 0.078 -0.671 -0.737 53 68 75
-1.0764 14.2983 67.4033 0.287 -0.400 -0.870 59 69 66
-0.2004 14.2701 67.5604 0.416 -0.368 -0.832 42 52 54
-0.1338 14.3070 67.7019 0.141 -0.600 -0.787 37 47 48
3.3088 13.8808 67.2711 0.556 -0.173 -0.813 34 49 43
3.5090 13.8629 67.2690 0.126 -0.141 -0.982 30 45 40
3.7132 13.8432 67.2622 -0.061 -0.202 -0.978 25 37 33
5.5579 13.7223 67.3883 0.050 -0.385 -0.922 58 71 61
7.2733 13.6474 67.6301 0.045 -0.437 -0.898 64 70 67
7.4214 13.6497 67.6802 -0.053 -0.430 -0.901 67 76 71
7.6582 13.6133 67.6269 0.038 -0.407 -0.913 62 71 62
7.8378 13.6016 67.6396 0.038 -0.407 -0.913 61 67 57
7.9990 13.5980 67.6735 -0.010 -0.444 -0.896 58 63 52
9.8076 13.4694 67.7639 0.279 -0.580 -0.765 50 51 49
12.3210 13.2793 67.8514 0.211 -0.295 -0.932 52 52 50
12.5030 13.2636 67.8515 0.053 -0.471 -0.881 37 39 37
15.9311 13.2509 68.7895 0.001 -0.874 -0.485 26 28 27
16.7410 13.0618 68.3933 0.690 -0.197 -0.696 72 74 69
18.6884 13.1850 69.3594 0.460 0.000 -0.888 65 80 73
20.9207 13.2326 70.1561 -0.128 -0.506 -0.853 46 58 49
21.0631 13.2338 70.2008 -0.359 -0.346 -0.867 56 72 62
21.9413 13.0596 69.8736 0.149 0.032 -0.988 47 66 54
22.0435 13.0833 69.9815 0.332 -0.053 -0.942 51 69 57
24.9402 13.0536 70.7111 0.500 -0.313 -0.808 75 76 70
26.1799 13.1658 71.4383 0.773 -0.478 -0.417 79 69 67
26.9551 13.0275 71.2008 0.009 -0.646 -0.763 87 78 71
27.1074 13.0196 71.2183 0.015 -0.648 -0.762 67 61 49
27.0938 13.2162 71.8671 0.287 -0.511 -0.811 77 72 54
27.2098 13.2333 71.9568 0.403 -0.061 -0.913 77 69 50
27.3239 13.2517 72.0507 0.377 -0.046 -0.925 86 78 59
27.4812 13.2410 72.0601 0.258 -0.228 -0.939 93 87 68
27.7552 13.2468 72.1579 0.413 -0.575 -0.706 115 114 94
30.0600 13.3104 73.0280 0.437 -0.757 -0.485 89 89 77
30.7764 13.2992 73.1959 0.064 -0.308 -0.949 99 95 89
34.1460 13.2765 74.0842 -0.215 -0.491 -0.844 67 82 63
36.5860 13.8298 76.6193 0.320 -0.941 0.112 48 59 58
36.6640 13.8886 76.8369 0.296 -0.949 0.111 39 51 49
38.0451 14.3361 78.7176 0.230 -0.968 0.098 134 143 140
38.2921 14.2286 78.4312 0.334 -0.940 -0.071 135 141 140
39.9027 14.0110 78.1694 0.145 0.056 -0.988 123 129 127
39.8815 14.3427 79.2647 0.186 0.202 -0.961 126 132 130
40.0516 14.3106 79.2067 0.237 0.246 -0.940 125 131 129
40.1941 14.3090 79.2421 0.237 0.246 -0.940 120 126 124
40.3365 14.3074 79.2776 0.237 0.246 -0.940 115 124 121
41.1983 14.1233 78.9128 0.276 -0.708 -0.650 118 128 123
41.2703 14.2024 79.1962 0.364 -0.269 -0.892 116 125 122
41.4650 14.1377 79.0369 0.425 -0.450 -0.785 109 115 115
41.6051 14.1370 79.0747 0.515 -0.467 -0.719 103 107 110
42.1037 14.2085 79.4546 0.584 -0.474 -0.659 120 126 129
43.3201 14.8130 81.8097 0.232 0.246 -0.941 97 111 111
43.4636 14.8112 81.8447 0.232 0.246 -0.941 86 98 98
43.6126 14.8019 81.8564 0.232 0.310 -0.922 80 92 90
44.2201 14.7460 81.8448 -0.133 -0.423 -0.896 77 89 87
44.3756 14.7263 81.8236 -0.164 -0.431 -0.887 80 89 89
44.6483 14.7400 81.9473 0.008 -0.825 -0.566 103 105 109
44.7306 15.8885 85.7842 0.486 -0.828 0.280 28 28 36
59.1078 13.7387 82.7579 0.848 -0.309 -0.431 138 142 127
59.3847 13.5719 82.2834 0.931 -0.294 -0.216 109 113 98
61.6718 14.2346 85.1378 0.312 -0.528 -0.790 84 85 67
64.6527 15.4177 89.9186 0.363 -0.552 -0.751 84 92 78
65.6168 15.5338 90.5799 0.165 -0.506 -0.847 113 116 107
65.7608 15.5903 90.8088 -0.061 -0.500 -0.864 96 99 90
66.7618 15.8664 92.0116 0.840 -0.003 -0.543 81 85 68
67.1707 15.8559 92.0937 0.481 -0.725 -0.493 80 81 72
67.3120 15.8782 92.2082 0.493 -0.720 -0.489 61 62 57
67.4576 15.9202 92.3895 0.701 -0.230 -0.675 61 62 59
67.6190 16.0347 92.8157 0.825 -0.512 -0.239 67 68 62
-13.8068 16.4627 70.3492 0.547 -0.694 -0.468 47 66 68
-12.2437 16.0372 69.3934 -0.255 -0.727 -0.638 40 56 55
-11.9224 16.0473 69.5188 0.066 -0.833 -0.549 57 69 69
-11.7012 16.0308 69.5280 0.065 -0.860 -0.506 45 56 55
-11.1838 15.9089 69.2739 -0.263 -0.560 -0.786 26 36 35
-3.5017 14.7604 67.6872 0.077 -0.675 -0.733 69 82 88
2.7950 13.9855 66.9361 0.419 -0.401 -0.815 38 47 46
3.3070 14.0323 67.2376 0.556 -0.173 -0.813 40 52 48
3.4971 14.0185 67.2464 0.114 -0.226 -0.968 44 56 52
3.7194 13.9912 67.2202 -0.040 -0.328 -0.944 54 67 60
5.6749 13.8222 67.2233 0.179 -0.525 -0.832 54 68 56
12.3314 13.4206 67.8073 0.180 -0.280 -0.943 105 107 107
12.5328 13.3956 67.7827 0.053 -0.471 -0.881 107 108 109
13.0602 13.3564 67.8046 0.069 -0.432 -0.899 50 56 52
13.2553 13.3338 67.7861 0.331 -0.468 -0.819 34 40 36
15.8566 13.3597 68.6176 0.204 -0.720 -0.663 40 40 42
17.4231 13.2299 68.6387 0.540 0.171 -0.824 71 76 71
18.1991 13.5158 69.8047 0.945 -0.209 -0.253 45 65 55
18.7731 13.2843 69.2055 0.411 0.083 -0.908 54 73 64
20.5221 13.1956 69.4143 0.348 -0.499 -0.794 44 51 43
22.5594 13.2611 70.2149 0.434 -0.221 -0.873 46 69 50
22.7028 13.2609 70.2553 0.611 0.118 -0.783 44 67 49
22.8161 13.2786 70.3463 0.611 0.118 -0.783 45 66 52
22.9295 13.2964 70.4374 0.611 0.118 -0.783 49 69 57
23.0430 13.3141 70.5286 0.611 0.118 -0.783 44 63 52
23.1590 13.3305 70.6158 0.618 0.105 -0.780 45 62 52
23.2799 13.3439 70.6948 0.547 0.070 -0.834 46 62 52
24.3777 13.3722 71.1030 0.392 -0.625 -0.675 94 94 89
24.9790 13.1735 70.6197 0.474 -0.198 -0.858 80 83 76
27.0645 13.3813 71.9040 0.511 -0.464 -0.724 72 65 51
27.3326 13.3914 72.0141 0.386 -0.032 -0.922 76 70 52
29.6015 13.3811 72.6309 0.647 -0.447 -0.618 82 80 66
29.7164 13.3996 72.7250 0.661 -0.440 -0.607 96 93 81
30.2871 13.3923 72.8647 0.562 -0.704 -0.435 95 92 77
30.4905 13.4496 73.1119 -0.112 -0.218 -0.970 78 70 58
30.6331 13.4478 73.1469 -0.129 -0.188 -0.974 84 75 66
30.8156 13.4158 73.0939 0.205 -0.346 -0.916 98 88 85
30.9784 13.3985 73.0833 0.430 -0.366 -0.825 107 96 96
31.0812 13.4266 73.2056 0.370 -0.415 -0.831 128 118 121
31.2046 13.4391 73.2824 0.083 -0.425 -0.901 140 132 135
32.7532 13.4278 73.6890 0.534 -0.437 -0.724 45 55 44
32.8748 13.4418 73.7703 0.534 -0.437 -0.724 36 47 37
34.7566 13.3735 74.0846 -0.064 -0.481 -0.875 33 54 33
35.7651 13.5805 75.0571 0.377 -0.872 -0.312 33 46 37
36.1543 13.9910 76.5234 -0.024 0.471 -0.882 108 115 115
39.1007 14.2744 78.3039 0.515 -0.798 -0.312 140 146 146
39.2197 14.2974 78.4141 0.493 -0.805 -0.329 138 144 142
39.3703 14.2867 78.4218 0.535 -0.725 -0.434 135 141 139
39.4899 14.3093 78.5309 0.538 -0.723 -0.434 133 139 137
39.6170 14.3240 78.6157 0.602 -0.694 -0.396 134 140 138
39.7277 14.3568 78.7556 0.640 -0.676 -0.365 131 137 135
39.8517 14.3752 78.8520 0.652 -0.646 -0.396 131 137 133
39.9725 14.3973 78.9595 0.620 -0.664 -0.418 129 135 131
40.0385 14.4809 79.2546 0.211 0.212 -0.954 128 134 130
40.2060 14.4513 79.2048 0.383 0.135 -0.914 127 133 129
40.3420 14.4570 79.2626 0.383 0.135 -0.914 128 134 130
40.4779 14.4627 79.3204 0.383 0.135 -0.914 127 133 129
40.6138 14.4684 79.3781 0.383 0.135 -0.914 122 131 126
41.3908 14.3812 79.3134 0.290 -0.460 -0.839 114 123 120
41.5206 14.3935 79.3911 0.294 -0.511 -0.807 116 125 124
41.9250 14.4123 79.5692 0.356 -0.480 -0.802 113 123 124
42.2204 14.3931 79.5904 0.687 -0.535 -0.491 96 107 107
42.3367 14.4222 79.7201 0.440 -0.658 -0.611 88 99 100
42.4589 14.4443 79.8280 0.392 -0.523 -0.757 95 106 107
42.9200 14.5709 80.3779 0.663 -0.740 -0.114 91 103 103
43.0179 14.6261 80.5882 0.663 -0.740 -0.114 102 117 117
43.0671 14.7460 80.9980 0.813 -0.565 -0.140 118 137 135
43.1588 14.8113 81.2400 0.911 -0.223 -0.346 131 150 148
43.3897 14.8811 81.5365 0.619 -0.705 -0.347 160 174 175
43.7559 14.9619 81.9084 0.256 0.321 -0.912 172 186 187
44.6916 14.8400 81.7744 -0.044 -0.792 -0.609 185 192 194
48.0699 12.3431 74.5031 0.540 -0.831 -0.134 44 45 47
47.1617 14.7010 82.0242 -0.522 0.233 -0.820 70 70 68
56.8405 18.6143 97.7157 0.930 -0.347 0.121 46 60 62
56.7818 19.8355 101.7290 0.949 -0.294 0.114 32 43 41
59.0098 13.7421 82.2583 0.573 -0.761 -0.305 102 104 90
62.6105 14.8188 86.8443 0.712 0.203 -0.672 98 101 82
64.6638 15.5080 89.7078 0.342 -0.608 -0.716 89 95 81
65.2197 15.6283 90.2644 0.539 -0.552 -0.636 108 112 97
67.1826 15.9744 91.9699 0.554 -0.798 -0.237 81 82 72
67.3299 16.0268 92.1850 0.577 -0.784 -0.229 61 62 57
67.6371 16.1839 92.7915 0.826 -0.532 -0.188 67 68 62
-15.9194 16.7438 70.0704 0.311 -0.333 -0.890 54 74 80
-11.8763 16.1958 69.4358 -0.216 -0.462 -0.860 54 64 65
-3.4166 14.8840 67.5664 0.053 -0.683 -0.729 65 79 82
0.3703 14.2878 66.7003 0.117 -0.308 -0.944 36 45 44
0.5493 14.2797 66.7251 0.117 -0.308 -0.944 38 48 47
3.3177 14.1788 67.1906 0.613 -0.203 -0.764 65 78 71
3.5027 14.1670 67.2051 0.123 -0.220 -0.968 59 72 65
3.7561 14.1266 67.1453 -0.134 -0.344 -0.930 52 65 58
6.6021 13.9703 67.4516 0.147 -0.352 -0.924 55 66 60
12.3629 13.5518 67.7362 0.126 -0.223 -0.967 87 87 86
12.5694 13.5243 67.7051 0.041 -0.403 -0.914 82 84 83
15.4063 13.5102 68.4751 0.420 -0.362 -0.832 65 67 65
18.4759 13.2770 68.5933 0.402 -0.795 -0.453 42 55 44
18.3133 13.6002 69.6069 0.740 -0.660 -0.128 45 65 52
18.6811 13.4795 69.3165 0.706 -0.543 -0.455 47 68 55
19.9171 13.4372 69.5333 0.598 -0.397 -0.696 58 66 59
20.0593 13.4384 69.5784 0.612 -0.424 -0.668 37 45 38
20.5664 13.3150 69.3192 0.417 -0.426 -0.803 43 54 44
20.5072 13.5947 70.2198 0.285 -0.826 -0.486 57 60 51
20.5986 13.6255 70.3471 0.299 -0.841 -0.451 53 60 47
20.7274 13.6349 70.4150 0.299 -0.841 -0.451 56 66 53
20.9136 13.6111 70.3907 0.705 -0.415 -0.574 57 72 59
21.0345 13.6251 70.4711 0.753 -0.363 -0.549 51 69 55
21.8817 13.2997 69.6474 0.297 -0.856 -0.423 36 58 45
22.8153 13.4240 70.3238 0.593 0.119 -0.797 45 66 51
22.9305 13.4408 70.4120 0.593 0.119 -0.797 46 66 54
23.4430 13.2172 69.8260 -0.127 -0.909 -0.396 41 61 49
23.1412 13.4865 70.6227 0.618 0.105 -0.780 45 63 51
23.2700 13.4953 70.6885 0.591 0.089 -0.801 48 64 53
23.4031 13.5014 70.7469 0.586 0.082 -0.806 54 68 57
23.5300 13.5114 70.8162 0.568 0.096 -0.818 64 76 64
23.7038 13.4925 70.8041 0.067 0.232 -0.970 64 76 64
24.4278 13.4862 70.9918 0.378 -0.672 -0.636 111 111 104
24.8389 13.3169 70.5547 0.473 -0.190 -0.860 92 93 87
24.9835 13.3148 70.5896 0.474 -0.198 -0.858 81 84 73
26.1083 13.1351 70.3236 -0.115 -0.350 -0.930 87 83 70
27.2038 13.5285 71.9293 0.541 -0.453 -0.708 64 58 42
27.3057 13.5555 72.0470 0.329 -0.167 -0.929 70 64 48
27.4402 13.5603 72.1015 0.030 -0.166 -0.986 80 75 56
30.7083 13.5373 72.9665 -0.051 -0.535 -0.844 91 81 72
30.8673 13.5228 72.9644 0.430 -0.358 -0.829 85 74 71
30.9945 13.5323 73.0322 0.430 -0.366 -0.825 81 69 70
31.1001 13.5584 73.1483 0.370 -0.415 -0.831 93 82 86
32.5016 13.5529 73.5335 0.312 -0.610 -0.729 57 59 54
32.6350 13.5574 73.5867 0.312 -0.610 -0.729 41 44 38
32.7752 13.5565 73.6241 0.218 -0.588 -0.779 40 48 39
33.2642 13.6114 73.9446 0.618 -0.358 -0.700 45 57 47
34.2072 13.5179 73.9093 -0.180 -0.525 -0.832 44 59 37
34.8588 13.5511 74.2058 -0.005 -0.506 -0.862 26 45 28
34.9997 13.5486 74.2379 0.258 -0.451 -0.855 27 41 31
35.9425 13.5675 74.5714 -0.021 -0.699 -0.715 29 42 35
36.7701 13.9564 76.0851 0.488 -0.872 -0.031 117 123 122
38.8127 14.4355 78.2445 0.106 -0.994 0.041 136 142 142
41.2208 14.2437 78.3081 0.695 -0.387 -0.606 129 135 131
41.3136 14.4626 79.0527 0.594 -0.509 -0.623 122 128 124
41.4431 14.4749 79.1302 0.541 -0.498 -0.678 119 128 125
41.5635 14.4981 79.2410 0.401 -0.624 -0.671 119 128 125
42.1553 14.4574 79.2777 0.500 -0.036 -0.865 112 126 126
42.2832 14.4716 79.3613 0.608 0.209 -0.766 106 121 120
42.6326 14.5586 79.7472 0.817 -0.259 -0.516 105 119 119
45.3722 15.2529 82.8128 0.459 -0.845 0.275 49 50 51
47.8878 13.2079 76.8281 -0.429 0.284 -0.857 54 54 52
47.1381 14.9049 82.1794 -0.527 0.211 -0.823 60 60 58
62.4977 15.1906 87.5354 0.967 -0.215 -0.138 95 98 77
63.9693 15.2151 88.0394 0.737 0.601 -0.310 111 113 102
64.6752 15.6023 89.5125 0.263 -0.409 -0.874 101 107 91
65.7907 15.8532 90.6564 -0.063 -0.769 -0.636 91 94 83
66.0774 15.9492 91.0540 0.529 -0.356 -0.770 88 92 78
67.0929 16.2759 92.4176 0.846 -0.174 -0.505 102 105 89
67.1868 16.0533 91.7145 0.554 -0.798 -0.237 83 85 74
-15.9601 16.9891 70.2641 -0.415 -0.756 -0.506 73 90 97
-12.2469 16.2440 68.9060 0.137 -0.538 -0.832 57 76 81
-11.8825 16.3629 69.3987 -0.227 -0.452 -0.862 43 53 54
-10.6917 16.1219 68.9565 -0.415 -0.474 -0.777 39 47 46
-10.3909 16.0756 68.8922 -0.395 -0.578 -0.714 28 39 40
-4.6261 15.1260 67.4593 -0.115 -0.455 -0.883 68 80 75
-3.6625 15.0089 67.3554 0.062 -0.797 -0.601 40 52 49
-3.3397 15.0104 67.4535 0.053 -0.683 -0.729 36 47 49
-0.2306 14.7433 67.4796 -0.025 -0.647 -0.762 47 58 54
3.0461 14.3126 67.0207 0.334 -0.186 -0.924 55 66 62
3.3295 14.3249 67.1425 0.468 -0.493 -0.733 34 45 38
3.5341 14.3048 67.1360 -0.053 -0.321 -0.946 25 36 28
6.9922 14.0833 67.4115 -0.120 -0.602 -0.790 36 48 42
12.3648 13.6972 67.7029 0.126 -0.223 -0.967 55 57 53
12.6100 13.6508 67.6222 0.042 -0.408 -0.912 52 54 53
13.3330 13.5875 67.6244 -0.017 -0.174 -0.985 56 59 56
13.5508 13.5532 67.5754 0.100 -0.164 -0.981 50 55 51
13.7102 13.5473 67.6022 0.100 -0.167 -0.981 42 47 43
15.2094 13.6066 68.2282 0.205 -0.461 -0.863 43 48 42
17.5535 13.5275 68.6467 0.277 -0.273 -0.921 52 62 52
17.8769 13.4325 68.4301 0.710 -0.227 -0.666 54 63 57
18.3674 13.6374 69.2398 0.706 -0.692 -0.150 44 64 47
18.4378 13.6785 69.3939 0.693 -0.706 -0.146 46 67 50
18.6499 13.7220 69.5971 -0.472 -0.366 -0.802 39 57 41
18.9045 13.6620 69.4748 -0.472 -0.366 -0.802 51 69 54
23.0747 13.6725 70.7124 -0.048 -0.444 -0.895 45 63 49
23.2523 13.6515 70.6953 -0.013 -0.464 -0.886 48 65 51
23.8902 13.3470 69.8863 0.259 -0.669 -0.697 53 67 52
23.9848 13.3759 70.0078 0.268 -0.689 -0.673 58 72 55
23.7248 13.6249 70.7447 -0.355 -0.493 -0.794 60 74 57
24.4817 13.4188 70.2911 0.277 -0.225 -0.934 62 66 51
24.5866 13.4418 70.3964 0.246 -0.112 -0.963 63 65 52
24.5106 13.5793 70.8226 0.393 -0.681 -0.618 119 119 109
24.6574 13.5764 70.8556 0.310 -0.685 -0.660 103 105 94
27.3208 13.6911 71.9981 0.290 -0.281 -0.915 63 57 42
28.2217 13.6539 72.1366 0.250 -0.165 -0.954 65 68 40
28.3676 13.6503 72.1670 0.411 -0.278 -0.868 90 94 72
28.5098 13.6493 72.2049 0.356 -0.261 -0.897 108 111 90
30.6005 13.6592 72.8404 0.186 -0.623 -0.760 85 74 61
30.7452 13.6554 72.8699 0.122 -0.669 -0.733 90 77 68
30.8806 13.6587 72.9196 0.309 -0.598 -0.739 88 74 70
31.0313 13.6502 72.9354 0.312 -0.424 -0.850 78 66 67
31.1532 13.6639 73.0151 0.329 -0.446 -0.832 74 62 65
32.5293 13.6771 73.4553 0.535 -0.218 -0.817 116 117 112
34.0521 13.6790 73.9008 0.458 -0.526 -0.716 41 56 35
34.1699 13.6965 73.9919 0.394 -0.521 -0.757 43 58 35
37.6287 14.2211 76.7003 -0.110 0.356 -0.928 79 89 88
40.0138 14.6618 78.8256 0.306 -0.948 -0.089 136 142 138
41.6686 14.5271 78.8639 0.336 -0.647 -0.684 122 131 128
42.8357 14.8153 80.1402 0.786 -0.566 -0.250 115 128 128
43.2944 14.9510 80.7152 0.755 -0.653 -0.056 112 126 126
44.8666 15.1149 81.7031 0.368 -0.643 -0.672 86 97 98
45.6152 15.2621 82.3991 0.491 -0.823 0.286 74 79 73
48.3472 12.3909 73.8254 0.352 -0.895 -0.273 50 50 49
63.3337 15.6813 88.8784 0.588 -0.787 -0.184 133 138 118
63.4714 15.7222 89.0514 0.564 0.361 -0.743 124 129 109
63.6019 15.6393 88.8187 0.575 0.237 -0.783 110 114 97
64.6873 15.7023 89.3375 0.258 -0.447 -0.857 111 118 99
65.2426 15.8324 89.9219 0.598 -0.646 -0.475 123 128 108
67.1953 16.1540 91.5340 0.849 -0.478 -0.226 97 98 87
67.3467 16.2299 91.8251 0.875 -0.424 -0.236 84 85 79
67.4983 16.3027 92.1060 0.888 -0.394 -0.236 78 79 73
67.6524 16.3845 92.4174 0.901 -0.291 -0.322 75 77 68
-15.6895 17.0011 69.7883 -0.248 -0.535 -0.808 61 78 85
-11.8112 16.3769 68.8874 -0.061 -0.640 -0.766 35 50 53
-11.4719 16.4425 69.1983 -0.222 -0.558 -0.800 27 36 35
-2.1711 14.9645 67.0989 -0.014 -0.560 -0.829 33 43 41
-1.0176 14.8910 67.1946 0.336 -0.461 -0.822 41 52 48
3.0534 14.4606 66.9774 0.333 -0.199 -0.922 32 42 40
3.3918 14.4498 67.0405 0.455 -0.520 -0.723 23 34 28
7.3082 14.0926 67.0157 0.223 -0.525 -0.821 52 67 60
7.4567 14.1622 67.2843 0.007 -0.635 -0.772 44 61 49
7.6046 14.1644 67.3341 -0.098 -0.506 -0.857 49 67 54
7.8045 14.1432 67.3233 -0.098 -0.496 -0.863 47 68 47
7.9864 14.1299 67.3331 -0.074 -0.461 -0.884 46 67 44
9.3098 14.0114 67.3318 0.261 -0.463 -0.847 51 72 43
13.3359 13.7317 67.5903 0.029 -0.289 -0.957 52 54 49
13.6355 13.7296 67.6700 0.143 -0.160 -0.977 40 45 39
13.8307 13.7060 67.6499 0.143 -0.147 -0.979 41 46 40
14.9378 13.6667 67.8429 0.152 -0.491 -0.858 46 56 48
15.0515 13.6833 67.9297 0.016 -0.528 -0.849 47 58 48
15.2080 13.6783 67.9587 0.128 -0.493 -0.861 46 56 45
15.3346 13.6884 68.0281 0.758 -0.160 -0.632 46 56 42
17.6733 13.6084 68.4457 0.411 -0.357 -0.839 54 64 51
18.1465 13.5096 68.2623 0.186 -0.501 -0.845 57 67 68
18.3065 13.5010 68.2808 0.121 -0.545 -0.830 47 59 56
18.4987 13.4749 68.2518 0.030 -0.583 -0.812 45 58 50
18.6707 13.4596 68.2520 0.103 -0.588 -0.802 46 60 43
18.4384 13.7442 69.1071 0.499 -0.821 -0.277 45 65 45
18.8393 13.7634 69.2853 -0.473 -0.528 -0.706 43 62 42
19.3761 13.7066 69.2566 0.390 0.130 -0.911 44 65 48
20.1630 13.5882 69.1007 0.169 -0.614 -0.771 51 67 54
20.3111 13.5857 69.1352 0.169 -0.614 -0.771 37 55 43
21.3499 13.3995 68.8324 -0.156 -0.224 -0.962 50 57 46
21.5244 13.3807 68.8218 -0.118 -0.270 -0.956 48 55 44
23.6969 13.7878 70.7699 -0.335 -0.431 -0.838 58 74 54
24.6396 13.5526 70.2804 0.266 -0.221 -0.938 63 66 51
24.8840 13.5770 70.4302 0.470 -0.143 -0.871 105 109 95
25.0233 13.5782 70.4746 0.594 -0.220 -0.774 88 94 76
28.3427 13.8138 72.1988 0.267 -0.391 -0.881 71 73 51
28.5022 13.8006 72.2019 0.282 -0.388 -0.877 83 85 64
30.7824 13.7732 72.7728 0.110 -0.641 -0.759 91 78 69
36.8380 14.3264 76.3181 0.304 0.399 -0.865 114 123 120
36.9317 14.3711 76.4903 0.289 0.346 -0.893 118 129 125
36.9900 14.4512 76.7666 0.184 0.444 -0.877 105 116 112
37.7599 14.3809 76.7617 -0.165 0.151 -0.975 85 90 93
41.7818 14.7147 79.0074 0.604 -0.255 -0.755 124 132 134
41.9015 14.7389 79.1205 0.619 -0.257 -0.742 122 133 133
42.4137 14.7964 79.4549 0.236 -0.422 -0.876 110 126 125
42.5619 14.9649 80.0441 0.209 -0.945 -0.254 114 130 129
47.3769 13.4974 76.6808 0.191 0.119 -0.974 41 45 48
50.1520 16.5748 87.4584 0.931 -0.316 0.182 56 55 53
51.9604 14.3012 80.6122 0.768 0.005 -0.640 65 67 61
52.1005 14.2824 80.5920 0.728 0.195 -0.657 64 69 62
57.4208 5.8832 54.9079 0.896 -0.417 0.151 26 45 59
63.4800 15.7284 88.5715 0.628 0.111 -0.770 104 109 89
63.6182 15.7835 88.7902 0.635 0.229 -0.738 94 98 81
63.7610 15.8990 89.2057 0.754 0.553 -0.353 80 83 66
64.7070 15.8770 89.4080 -0.118 -0.318 -0.941 109 117 95
66.9755 16.4914 92.0560 0.763 -0.052 -0.644 119 122 105
67.1139 16.4969 92.1138 0.660 -0.582 -0.474 117 120 104
67.6624 16.4954 92.2678 0.900 -0.325 -0.291 73 75 64
-11.6175 16.4712 68.6758 0.351 -0.787 -0.508 67 83 84
-2.0790 15.0830 66.9709 0.241 -0.148 -0.959 53 64 59
-1.3607 15.0538 67.0852 0.619 -0.233 -0.750 42 53 47
-0.8553 15.0444 67.2019 0.468 -0.167 -0.868 37 48 44
3.0848 14.5985 66.9084 0.260 -0.390 -0.883 19 29 29
3.2443 14.5971 66.9503 0.653 -0.171 -0.737 17 29 26
3.4406 14.5802 66.9527 0.448 -0.576 -0.684 19 30 24
8.2788 14.2151 67.1802 -0.051 -0.629 -0.776 46 72 41
10.8185 14.0872 67.5051 0.074 -0.462 -0.884 46 65 45
11.2280 14.0349 67.4556 0.019 -0.481 -0.876 54 73 52
14.5412 13.8642 67.8668 0.118 -0.339 -0.933 47 59 49
14.8092 13.8028 67.7469 0.182 -0.660 -0.729 49 62 52
15.2653 13.7942 67.8516 0.742 -0.242 -0.625 85 97 83
15.7431 13.6988 67.6827 0.025 -0.495 -0.869 89 102 84
15.8791 13.7037 67.7381 0.251 -0.531 -0.809 89 102 83
15.7081 13.8677 68.2168 -0.095 -0.247 -0.964 75 88 68
17.9120 13.6246 68.0731 0.405 -0.309 -0.860 56 67 52
17.9047 13.7064 68.3346 0.710 -0.176 -0.682 60 69 63
18.3386 13.6276 68.2067 0.496 -0.193 -0.847 73 85 83
18.4928 13.6221 68.2334 0.480 -0.218 -0.850 64 78 68
18.3245 13.7929 68.7351 0.787 -0.104 -0.609 60 74 55
19.6352 13.9510 69.6247 0.580 0.334 -0.742 52 70 54
21.8493 13.4996 68.8130 0.174 -0.321 -0.931 46 60 43
21.8998 13.5535 69.0010 0.253 -0.620 -0.743 46 63 45
22.6748 13.5987 69.3717 0.187 -0.865 -0.466 48 66 50
24.5978 13.6337 70.0424 0.470 -0.201 -0.860 60 68 47
24.7057 13.6548 70.1416 0.491 -0.186 -0.851 80 84 67
24.7517 13.7156 70.3509 0.415 -0.306 -0.857 96 100 85
24.8924 13.7160 70.3930 0.416 -0.312 -0.854 92 96 81
25.0302 13.7182 70.4402 0.594 -0.220 -0.774 75 83 64
28.0693 13.9538 72.0811 0.268 -0.386 -0.883 66 66 42
28.2201 13.9468 72.1024 0.129 -0.395 -0.909 67 69 44
28.3553 13.9509 72.1548 0.210 -0.338 -0.917 72 71 51
28.5253 13.9300 72.1369 0.232 -0.344 -0.910 88 87 67
30.7661 13.9318 72.7927 0.076 -0.616 -0.784 91 79 67
31.1290 13.8668 72.6886 0.261 -0.821 -0.508 79 65 64
32.6461 13.9886 73.5213 0.121 0.449 -0.885 66 63 57
32.7850 13.9887 73.5620 0.093 0.485 -0.870 83 89 78
33.7800 14.2073 74.5549 0.517 0.109 -0.849 52 63 46
34.0929 14.3000 74.9444 0.724 -0.181 -0.666 54 70 48
35.2675 14.3761 75.5306 0.032 -0.791 -0.611 37 50 41
35.6004 14.1985 75.0548 -0.480 0.236 -0.845 41 54 47
37.1851 14.5486 76.6428 0.382 -0.581 -0.719 85 97 93
37.3107 14.5629 76.7251 0.231 -0.625 -0.746 105 117 113
37.4226 14.5910 76.8482 -0.624 -0.355 -0.696 114 126 124
37.7403 14.5527 76.8169 0.228 -0.177 -0.957 111 116 119
37.8718 14.5609 76.8817 0.232 -0.202 -0.952 118 123 126
38.0518 14.5194 76.8003 0.345 -0.702 -0.623 112 120 122
38.1776 14.5334 76.8818 0.687 -0.542 -0.485 97 105 107
38.4314 14.5594 77.0391 0.594 -0.654 -0.467 106 116 117
38.5791 14.5506 77.0538 0.250 -0.785 -0.566 124 134 135
38.7234 14.5452 77.0783 0.245 -0.785 -0.568 132 142 143
42.4140 14.9532 79.4637 0.156 -0.632 -0.759 108 122 122
48.2840 12.5831 73.5308 0.183 -0.075 -0.980 46 48 48
56.8728 17.7765 92.7558 0.953 -0.285 0.108 35 50 55
57.1310 18.8695 96.3520 0.918 -0.373 0.132 69 79 74
58.6421 14.5653 82.9227 0.198 0.479 -0.855 110 116 104
58.9986 14.8444 83.9255 -0.656 -0.538 -0.529 125 130 123
59.1357 14.7971 83.8129 -0.655 -0.541 -0.527 119 124 118
63.4962 15.8715 88.5398 0.668 0.084 -0.739 94 98 81
66.9987 16.6700 92.1288 0.766 -0.060 -0.640 113 116 99
67.3519 16.3743 91.2785 0.909 -0.352 -0.224 99 100 91
67.5061 16.4636 91.6111 0.933 -0.175 -0.315 78 79 70
67.6650 16.5713 92.0041 0.929 -0.166 -0.332 81 83 70
-14.1182 15.5932 64.5691 0.039 -0.423 -0.905 1 0 0
-13.1984 16.5186 67.8005 0.324 -0.505 -0.800 82 96 105
-11.9888 16.5814 68.3538 0.490 -0.651 -0.580 46 66 77
-11.5665 16.6165 68.5889 -0.064 -0.616 -0.785 82 98 98
-2.7602 15.3148 66.9824 0.073 -0.326 -0.942 39 48 44
3.1049 14.7410 66.8513 0.260 -0.390 -0.883 45 57 55
3.3070 14.7216 66.8480 0.358 -0.562 -0.745 42 56 52
4.5903 14.5718 66.7413 0.142 -0.238 -0.961 27 45 32
4.7615 14.5646 66.7683 0.142 -0.238 -0.961 39 57 45
10.3380 14.2488 67.3794 0.340 -0.532 -0.776 44 68 37
10.3690 14.3052 67.5691 0.704 -0.330 -0.629 48 70 42
10.5042 14.3124 67.6315 0.023 -0.633 -0.774 53 72 48
11.5830 14.1548 67.4407 -0.328 -0.345 -0.880 61 80 51
15.2155 13.9651 67.8900 0.222 -0.462 -0.859 62 74 58
15.7885 13.8199 67.5917 0.027 -0.497 -0.867 73 86 66
15.9296 13.8221 67.6399 0.277 -0.485 -0.829 75 88 66
15.6693 14.0336 68.2414 -0.116 -0.209 -0.971 69 83 60
15.8468 14.0174 68.2412 -0.123 -0.198 -0.972 69 81 62
16.1900 13.9908 68.2559 0.166 -0.473 -0.865 59 71 59
17.9173 13.7658 68.0379 0.399 -0.314 -0.861 61 72 57
18.2434 13.9030 68.5722 0.818 0.025 -0.575 60 73 62
18.3237 13.9384 68.7090 0.787 -0.104 -0.609 59 74 55
22.2929 13.7163 69.1526 0.498 -0.636 -0.589 55 72 53
22.7918 13.6715 69.1543 0.314 -0.858 -0.406 54 71 55
23.3245 13.9548 70.2165 -0.341 -0.421 -0.841 47 61 48
23.5582 13.8978 70.1020 -0.281 -0.468 -0.838 54 68 54
24.1329 13.8039 69.9687 0.399 -0.629 -0.667 66 84 64
27.9570 14.0795 71.9641 0.042 -0.343 -0.938 61 60 39
28.1057 14.0740 71.9898 0.319 -0.277 -0.906 66 66 42
28.5673 14.0457 72.0335 0.109 -0.525 -0.844 109 106 87
28.6949 14.0551 72.1007 0.081 -0.413 -0.907 97 92 73
29.4418 14.1260 72.5451 -0.154 -0.744 -0.650 98 89 69
31.5815 13.9849 72.7157 0.080 -0.258 -0.963 95 85 83
31.8250 14.0121 72.8738 0.014 -0.190 -0.982 89 88 80
34.3843 14.5641 75.3863 0.430 -0.764 -0.482 34 50 39
34.6117 14.4861 75.2027 0.259 -0.784 -0.564 31 43 39
35.5841 14.3626 75.0902 -0.463 0.244 -0.852 40 52 47
35.8417 14.2521 74.8113 -0.527 0.401 -0.750 41 53 51
37.3073 14.7183 76.7308 -0.255 -0.627 -0.736 108 120 116
37.4392 14.7265 76.7954 -0.613 -0.455 -0.645 135 147 145
37.7837 14.5185 76.2295 -0.315 0.215 -0.924 122 132 131
38.0786 14.6438 76.7165 0.345 -0.700 -0.625 114 122 124
38.2273 14.6339 76.7283 0.534 -0.590 -0.605 117 125 127
40.0766 14.7386 77.6016 0.533 -0.651 -0.540 123 129 125
40.2033 14.7524 77.6827 0.367 -0.604 -0.707 110 116 112
40.2311 14.8798 78.0989 0.306 -0.844 -0.439 87 93 89
42.2258 14.9948 79.0475 0.770 -0.254 -0.585 111 122 123
42.3608 15.0002 79.1041 0.662 -0.213 -0.719 113 125 125
42.4485 15.0663 79.3416 0.182 -0.631 -0.754 113 125 125
43.1427 15.0694 79.5533 0.429 -0.586 -0.687 121 133 133
48.3383 16.2114 84.7228 0.449 0.252 -0.857 58 58 48
56.0093 17.2201 90.1856 0.694 -0.475 -0.542 34 48 49
56.9529 20.1922 99.9797 0.964 -0.265 -0.030 66 75 70
58.3459 15.0418 83.8889 -0.120 -0.215 -0.969 112 118 106
58.4955 14.9185 83.5375 -0.311 -0.165 -0.936 115 121 109
58.6387 14.8330 83.3053 -0.427 -0.318 -0.846 120 126 114
58.7689 14.8384 83.3604 0.056 -0.718 -0.694 125 131 119
58.9027 14.8155 83.3260 -0.382 -0.258 -0.887 127 133 123
65.1423 16.1386 89.3793 0.702 -0.549 -0.454 119 122 101
67.3550 16.4486 91.0160 0.949 -0.135 -0.284 100 102 91
67.5170 16.5779 91.4774 0.947 -0.153 -0.281 80 82 70
67.6830 16.7198 91.9802 0.929 -0.166 -0.332 87 90 75
67.8332 16.7823 92.2242 0.557 0.263 -0.788 99 102 83
-14.7134 17.2853 69.2364 -0.556 -0.061 -0.829 86 103 110
-2.8236 15.4951 67.0055 0.043 -0.456 -0.889 37 43 39
-1.0002 15.3465 67.0646 0.361 -0.336 -0.870 39 52 42
-0.9371 15.3860 67.2087 0.065 -0.463 -0.884 39 52 42
1.5998 14.9321 66.5038 0.431 -0.539 -0.724 35 43 36
1.7009 14.9554 66.6074 0.434 -0.565 -0.701 32 41 38
1.8487 14.9593 66.6629 0.402 -0.547 -0.735 31 39 40
2.0480 14.9417 66.6649 0.302 -0.625 -0.720 51 59 61
3.1337 14.8800 66.7853 0.301 -0.293 -0.907 48 62 56
3.2993 14.8759 66.8207 0.287 -0.293 -0.912 51 67 59
4.3757 14.7476 66.7262 0.112 -0.248 -0.962 42 60 44
4.5920 14.7210 66.7046 0.142 -0.238 -0.961 54 72 56
4.7473 14.7207 66.7489 0.112 -0.247 -0.963 59 78 61
7.3308 14.8758 67.9966 0.574 -0.019 -0.818 49 74 45
9.7077 14.3394 66.9824 0.246 -0.635 -0.732 46 72 34
11.5083 14.3379 67.5028 -0.015 -0.657 -0.754 71 90 62
13.1630 14.1818 67.4888 0.239 -0.660 -0.712 35 41 31
15.3218 14.1314 67.9581 0.871 -0.112 -0.478 69 79 60
15.3844 14.1751 68.1154 0.688 -0.256 -0.678 80 90 71
22.4212 13.7826 68.9190 0.402 -0.729 -0.554 69 86 67
23.0131 13.7660 69.0390 0.306 -0.660 -0.686 79 95 82
24.1113 13.8723 69.6980 0.464 -0.131 -0.876 70 88 73
24.2452 13.8769 69.7514 0.453 -0.237 -0.860 82 102 84
25.8790 13.8192 70.0444 -0.171 -0.375 -0.911 78 85 69
28.0097 14.1880 71.8404 -0.070 -0.516 -0.854 59 58 37
29.2333 13.9095 71.3108 0.424 -0.518 -0.743 99 90 73
29.4972 14.2311 72.4117 -0.154 -0.744 -0.650 103 92 74
31.5900 14.1241 72.6819 0.070 -0.250 -0.966 85 76 73
31.7362 14.1182 72.7057 0.065 -0.244 -0.968 83 77 71
31.8699 14.1223 72.7576 0.155 -0.299 -0.942 94 90 84
32.2394 14.2736 73.3472 0.563 0.119 -0.818 94 87 81
32.3664 14.2837 73.4165 0.487 0.115 -0.866 75 68 62
32.5185 14.2731 73.4272 0.149 -0.003 -0.989 95 88 82
