ply
format ascii 1.0
element vertex 878
property float x
property float y
property float z
property float nx
property float ny
property float nz
property uchar diffuse_red
property uchar diffuse_green
property uchar diffuse_blue
end_header
4.3943 17.2126 65.7688 0.223 0.460 -0.860 83 73 71
6.4190 16.9242 65.1492 -0.019 -0.367 -0.930 90 81 74
6.5596 16.9208 65.1765 -0.008 -0.323 -0.946 94 85 80
6.7174 16.9038 65.1510 -0.290 -0.254 -0.923 99 90 85
6.8234 16.9281 65.2842 -0.204 -0.328 -0.922 100 91 86
6.9507 16.9356 65.3528 0.070 -0.440 -0.895 92 83 78
7.1224 16.9072 65.2837 -0.049 -0.391 -0.919 93 84 79
7.2845 16.8864 65.2438 -0.036 -0.443 -0.896 92 83 78
7.4338 16.8758 65.2430 -0.036 -0.443 -0.896 88 79 74
7.5830 16.8652 65.2422 -0.036 -0.443 -0.896 81 71 69
7.6034 16.9613 65.6522 0.297 -0.459 -0.837 82 72 70
9.7041 16.8009 65.5930 0.238 -0.146 -0.960 89 72 74
9.8423 16.7995 65.6275 0.238 -0.146 -0.960 87 74 72
9.9720 16.8057 65.6918 0.242 -0.129 -0.962 88 77 75
10.1230 16.7926 65.6807 0.268 -0.258 -0.928 87 78 75
11.5780 16.7072 65.7479 0.407 -0.299 -0.863 96 85 81
11.7093 16.7124 65.8081 0.407 -0.299 -0.863 95 84 80
12.0095 16.6851 65.7812 -0.408 -0.485 -0.774 114 103 96
13.4408 16.6148 65.9049 0.434 -0.679 -0.593 128 118 109
13.7317 16.5948 65.9062 0.048 -0.785 -0.618 117 107 98
14.6568 16.6307 66.3278 -0.034 -0.281 -0.959 116 103 95
14.8027 16.6201 66.3257 -0.034 -0.281 -0.959 118 105 97
17.2396 16.4773 66.4394 0.064 -0.627 -0.777 131 118 110
17.3680 16.4889 66.5256 0.285 -0.565 -0.774 125 112 104
17.5022 16.4926 66.5806 0.186 -0.473 -0.861 120 107 99
17.6444 16.4850 66.5901 0.289 -0.417 -0.862 127 114 106
18.1413 16.5610 67.0550 0.250 -0.702 -0.667 113 100 92
19.8790 16.4177 66.9617 0.307 -0.474 -0.825 128 115 109
20.0201 16.4107 66.9733 0.330 -0.499 -0.801 129 116 110
20.3000 16.4006 67.0130 0.519 -0.453 -0.725 132 119 113
20.4282 16.4169 67.1190 0.273 -0.548 -0.791 124 111 105
20.5616 16.4241 67.1882 0.168 -0.574 -0.801 125 112 106
20.7068 16.4096 67.1699 0.202 -0.702 -0.683 125 112 106
20.9776 16.4171 67.2807 0.171 -0.362 -0.916 123 108 101
21.1091 16.4287 67.3678 0.396 -0.365 -0.843 123 108 101
21.2447 16.4327 67.4245 0.392 -0.416 -0.821 122 107 100
21.3798 16.4380 67.4863 0.392 -0.416 -0.821 124 109 102
21.5150 16.4433 67.5482 0.392 -0.416 -0.821 134 119 112
21.6520 16.4450 67.5954 0.186 -0.440 -0.879 128 113 106
21.7886 16.4479 67.6476 -0.155 -0.334 -0.930 121 106 99
22.6406 16.3941 67.6709 -0.231 -0.110 -0.967 141 132 123
23.0641 16.3703 67.6950 0.273 -0.278 -0.921 140 130 121
23.1966 16.3836 67.7895 0.223 -0.532 -0.817 132 119 110
24.8453 16.4172 68.4134 0.104 -0.551 -0.828 108 98 88
24.9856 16.4124 68.4342 0.104 -0.551 -0.828 109 99 89
25.1266 16.4050 68.4448 0.099 -0.523 -0.847 113 100 91
25.2659 16.4034 68.4785 -0.120 -0.471 -0.874 110 97 88
25.5437 16.4033 68.5594 0.385 -0.690 -0.613 109 96 87
25.6812 16.4088 68.6229 0.369 -0.642 -0.672 109 96 87
25.8135 16.4344 68.7694 0.225 -0.188 -0.956 99 86 77
25.9536 16.4316 68.7984 -0.025 -0.328 -0.944 98 85 76
26.0982 16.4099 68.7496 0.129 -0.469 -0.874 99 86 77
30.2981 16.2500 69.3071 0.153 -0.253 -0.955 158 143 136
34.1519 16.6344 72.0514 0.666 -0.171 -0.726 114 110 98
34.3004 16.6590 72.1984 0.652 -0.158 -0.742 125 119 107
34.4353 16.6145 72.0506 0.094 -0.573 -0.814 129 125 114
34.5651 16.5483 71.8104 -0.001 -0.040 -0.999 129 125 114
34.7061 16.5385 71.8106 -0.001 -0.040 -0.999 129 125 113
35.1436 16.5709 72.0747 0.509 -0.167 -0.844 137 135 120
35.3029 16.6343 72.3877 0.480 -0.159 -0.862 136 134 119
40.3523 16.8725 74.8675 0.656 -0.391 -0.646 87 98 81
42.2360 17.0514 76.1708 0.309 -0.485 -0.818 85 94 91
42.3862 17.0522 76.2182 0.397 -0.485 -0.780 84 93 92
42.5419 17.0618 76.3041 0.388 -0.480 -0.787 83 93 92
42.6973 17.0706 76.3867 0.307 -0.656 -0.689 99 109 109
44.9493 17.2701 77.8844 0.258 0.032 -0.966 100 115 112
45.0455 16.9934 76.7499 -0.115 -0.596 -0.794 98 113 112
45.1435 16.9248 76.4902 -0.273 -0.568 -0.776 90 108 107
-14.9177 19.0368 67.1129 -0.059 -0.750 -0.659 77 95 99
-14.4880 19.3128 68.3893 -0.566 -0.258 -0.783 59 77 81
-10.8767 18.7521 67.1060 -0.082 -0.607 -0.790 32 32 30
-10.7215 18.7462 67.1266 -0.092 -0.601 -0.794 34 34 32
-10.5547 18.7343 67.1259 -0.102 -0.586 -0.804 45 45 45
-9.1883 18.5466 66.7422 0.119 -0.361 -0.925 62 63 58
-8.7266 18.5287 66.8022 -0.031 -0.402 -0.915 97 98 92
-8.5661 18.5191 66.8094 -0.042 -0.400 -0.915 81 82 76
-6.0170 18.2135 66.2795 0.062 -0.466 -0.883 53 57 40
-5.8924 18.2227 66.3540 0.051 -0.430 -0.901 47 50 31
-5.7394 18.2160 66.3709 0.046 -0.430 -0.902 50 53 36
-5.5800 18.2058 66.3747 0.006 -0.440 -0.898 44 46 32
-5.4106 18.1898 66.3575 -0.076 -0.391 -0.917 43 47 33
-5.0956 18.1710 66.3713 -0.053 -0.399 -0.916 53 57 43
-2.9419 17.8973 65.8588 0.207 -0.853 -0.480 46 46 40
-1.5639 17.7370 65.5930 0.451 -0.377 -0.809 46 45 41
-1.4368 17.7443 65.6605 0.451 -0.377 -0.809 43 42 37
-1.3137 17.7542 65.7376 0.221 -0.641 -0.735 41 40 35
1.5866 17.3981 65.0999 0.101 -0.851 -0.515 66 57 58
2.0382 17.4653 65.5119 0.310 -0.219 -0.925 65 61 58
3.1744 17.3454 65.3438 0.196 -0.578 -0.792 65 56 57
3.3230 17.3375 65.3540 0.205 -0.636 -0.744 64 55 56
3.7218 17.3474 65.5120 0.246 -0.574 -0.781 59 50 51
3.8746 17.3365 65.5109 -0.101 -0.496 -0.863 66 56 55
4.1823 17.3126 65.5015 -0.253 -0.219 -0.942 79 69 67
4.2802 17.3419 65.6523 -0.326 0.146 -0.934 86 77 72
6.5259 17.0933 65.2714 -0.010 0.065 -0.998 91 82 77
6.6825 17.0774 65.2508 -0.090 -0.327 -0.941 97 88 83
6.8320 17.0671 65.2513 -0.075 -0.303 -0.950 96 87 82
6.9527 17.0800 65.3403 0.177 -0.300 -0.937 88 79 74
7.1004 17.0710 65.3461 0.243 -0.120 -0.963 88 79 74
7.2690 17.0448 65.2862 0.343 0.009 -0.939 88 79 74
7.4055 17.0450 65.3266 0.419 -0.027 -0.908 85 76 71
9.7107 16.9414 65.5682 0.211 -0.029 -0.977 89 76 76
9.8590 16.9308 65.5670 0.213 -0.128 -0.969 88 78 76
10.0177 16.9104 65.5284 0.268 -0.342 -0.901 88 78 76
10.1574 16.9074 65.5567 0.394 -0.329 -0.858 88 78 76
10.2891 16.9119 65.6141 0.426 -0.301 -0.853 81 73 70
10.4371 16.9011 65.6123 0.159 -0.411 -0.898 78 70 67
10.6919 16.9187 65.7600 0.292 -0.665 -0.688 80 70 68
11.5364 16.8957 65.9106 0.332 -0.436 -0.837 95 84 80
11.6703 16.8987 65.9622 0.332 -0.436 -0.837 95 84 80
11.8590 16.8464 65.7994 -0.384 -0.390 -0.837 95 84 79
12.0277 16.8138 65.7127 -0.396 -0.472 -0.787 97 87 79
12.2538 16.7219 65.3954 0.293 -0.739 -0.606 102 92 83
13.0652 16.7265 65.6515 0.198 -0.802 -0.563 142 132 123
13.1848 16.7444 65.7610 0.216 -0.812 -0.543 126 116 107
13.3457 16.7176 65.6963 0.470 -0.585 -0.661 122 112 103
13.4723 16.7281 65.7771 0.470 -0.585 -0.661 117 107 98
13.6010 16.7364 65.8494 0.479 -0.570 -0.668 114 104 95
13.7277 16.7473 65.9318 0.482 -0.575 -0.661 121 111 102
17.0037 16.5766 66.1767 -0.405 -0.674 -0.618 124 111 103
17.3959 16.6005 66.3907 0.214 -0.667 -0.714 120 107 99
17.6785 16.5872 66.4179 0.468 -0.562 -0.682 118 105 97
20.0519 16.5095 66.7870 0.272 -0.528 -0.804 115 102 96
20.1835 16.5189 66.8645 0.595 -0.317 -0.738 114 101 95
20.8547 16.5459 67.1731 0.195 -0.221 -0.956 128 115 109
20.9887 16.5526 67.2401 0.144 -0.338 -0.930 119 104 97
21.1268 16.5513 67.2752 0.218 -0.345 -0.913 119 104 97
21.2651 16.5498 67.3092 0.223 -0.333 -0.916 118 103 96
21.3946 16.5662 67.4157 0.370 -0.448 -0.814 120 105 98
21.5300 16.5710 67.4749 0.344 -0.464 -0.816 125 110 103
21.6851 16.5349 67.3698 0.019 -0.404 -0.915 120 105 98
22.5181 16.5198 67.5503 0.263 -0.213 -0.941 115 106 97
22.7949 16.5170 67.6192 0.183 -0.179 -0.967 132 123 114
22.9374 16.5056 67.6133 0.200 -0.176 -0.964 143 133 124
23.0754 16.5053 67.6526 0.208 -0.278 -0.938 142 132 123
23.2118 16.5088 67.7070 0.216 -0.536 -0.816 137 124 115
24.9988 16.5413 68.3643 0.104 -0.600 -0.793 116 106 96
25.1403 16.5322 68.3678 0.099 -0.523 -0.847 117 104 95
25.2791 16.5320 68.4073 -0.120 -0.471 -0.874 114 101 92
25.5572 16.5308 68.4834 0.526 -0.527 -0.667 113 100 91
25.6915 16.5479 68.5939 0.494 -0.525 -0.693 113 100 91
25.9653 16.5656 68.7479 0.002 -0.365 -0.931 97 84 75
28.9010 16.5627 69.5932 0.472 0.061 -0.880 126 116 107
29.0414 16.5614 69.6287 0.360 0.123 -0.925 125 115 106
29.1799 16.5841 69.7638 0.372 0.110 -0.922 124 114 105
30.3090 16.3943 69.3020 0.114 -0.326 -0.939 152 139 131
31.4267 16.4006 69.6547 0.361 -0.261 -0.895 163 153 143
35.1705 16.7750 72.3092 0.347 -0.466 -0.814 140 138 123
35.3180 16.7890 72.4105 0.352 -0.486 -0.800 138 139 123
35.4628 16.7912 72.4621 0.352 -0.476 -0.806 137 138 122
40.6715 17.0379 75.0118 0.577 -0.464 -0.672 85 96 80
41.5751 16.8076 74.3157 -0.253 -0.634 -0.730 88 95 88
42.3851 17.1749 76.0835 0.336 -0.634 -0.696 85 94 93
43.9608 17.2880 77.0151 0.690 -0.088 -0.718 88 100 100
44.4771 17.3770 77.5373 0.639 -0.161 -0.752 102 117 114
44.8010 17.4050 77.7485 0.561 -0.153 -0.813 100 115 110
44.9910 17.4565 78.0190 0.456 -0.007 -0.890 100 115 112
45.0477 17.1245 76.6512 -0.115 -0.596 -0.794 97 113 112
49.6589 18.0164 81.7164 0.758 -0.319 -0.568 38 51 47
-22.2662 20.4251 70.0572 -0.010 -0.676 -0.737 67 77 76
-16.1961 19.3134 67.2264 -0.310 -0.324 -0.894 71 86 91
-15.9864 19.2837 67.1644 -0.310 -0.324 -0.894 70 85 92
-15.6283 19.2519 67.1374 0.185 -0.408 -0.894 71 86 93
-15.4541 19.4411 67.9707 0.356 -0.537 -0.765 75 93 97
-9.7333 18.7588 66.8143 -0.267 -0.314 -0.911 68 68 70
-9.5223 18.7234 66.7293 -0.222 -0.313 -0.923 75 75 76
-9.3287 18.6968 66.6757 0.129 -0.350 -0.928 87 88 85
-9.1711 18.6889 66.6889 0.119 -0.361 -0.925 96 97 92
-6.0859 18.4018 66.3997 -0.128 -0.644 -0.754 47 51 32
-5.9185 18.3871 66.3880 -0.015 -0.685 -0.729 40 45 26
-5.7518 18.3728 66.3772 -0.022 -0.650 -0.760 43 45 31
-5.5913 18.3619 66.3788 -0.036 -0.651 -0.758 44 46 33
-4.5491 18.2494 66.2169 -0.261 -0.521 -0.812 34 35 27
-3.5696 18.0043 65.4884 -0.056 -0.330 -0.942 36 36 34
-3.4052 17.9894 65.4747 0.004 -0.375 -0.927 37 36 34
-1.8564 17.8936 65.5296 -0.084 -0.340 -0.937 47 43 40
-1.6979 17.8815 65.5255 0.299 -0.417 -0.859 47 43 40
-1.5470 17.8740 65.5386 0.451 -0.377 -0.809 48 44 41
-1.4199 17.8814 65.6060 0.451 -0.377 -0.809 44 41 36
-1.4759 18.0916 66.4596 -0.751 0.023 -0.660 49 45 42
1.5804 17.5484 65.1025 0.012 -0.658 -0.753 72 63 66
1.3565 17.7942 66.0542 0.395 -0.430 -0.812 72 66 67
1.7673 17.6086 65.4061 0.389 -0.316 -0.865 72 66 66
1.9051 17.6087 65.4466 0.397 -0.312 -0.863 71 67 66
2.0377 17.6125 65.5008 0.378 -0.311 -0.872 71 67 66
2.1744 17.6135 65.5446 0.377 -0.303 -0.875 76 72 71
2.3030 17.6202 65.6098 0.428 -0.337 -0.839 76 72 71
2.3891 17.6567 65.7859 -0.318 -0.203 -0.926 77 73 72
2.5638 17.6312 65.7314 -0.318 -0.203 -0.926 76 70 70
2.7284 17.6127 65.7029 -0.318 -0.213 -0.924 69 63 63
2.9061 17.5847 65.6388 -0.306 -0.216 -0.927 71 62 63
3.1948 17.4772 65.2782 0.140 -0.664 -0.734 71 62 63
3.7252 17.4916 65.4922 0.034 -0.607 -0.794 67 58 59
3.8873 17.4738 65.4658 -0.130 -0.463 -0.877 68 60 58
4.0735 17.4380 65.3720 -0.356 -0.525 -0.773 74 64 62
4.2104 17.4385 65.4138 -0.395 -0.337 -0.854 80 70 68
6.1243 17.2327 65.1198 0.037 -0.404 -0.914 87 76 70
6.2510 17.2405 65.1891 0.171 -0.307 -0.936 88 77 71
6.3865 17.2415 65.2326 0.197 -0.278 -0.940 88 79 72
6.5319 17.2345 65.2463 0.189 -0.308 -0.932 86 77 72
6.6791 17.2261 65.2543 0.092 -0.228 -0.969 85 76 71
6.8239 17.2196 65.2696 0.092 -0.228 -0.969 81 72 67
6.9535 17.2254 65.3314 0.202 -0.188 -0.961 75 66 61
7.0915 17.2245 65.3675 0.252 -0.228 -0.940 75 66 61
7.2438 17.2117 65.3591 0.307 -0.204 -0.930 76 67 62
7.3792 17.2129 65.4036 0.307 -0.204 -0.930 77 68 63
8.0655 17.0950 65.1157 0.468 -0.176 -0.866 85 75 73
8.2018 17.0949 65.1551 0.107 -0.186 -0.977 90 80 78
8.2604 17.1619 65.4493 -0.194 -0.479 -0.856 90 80 78
8.4000 17.1595 65.4798 0.483 -0.622 -0.616 94 79 74
11.8908 16.9615 65.6776 -0.437 -0.394 -0.809 95 84 79
12.2830 16.8384 65.2826 0.248 -0.701 -0.668 93 83 74
13.3688 16.8398 65.6047 0.470 -0.585 -0.661 116 106 97
13.4963 16.8492 65.6808 0.432 -0.505 -0.747 119 109 100
13.6087 16.8758 65.8237 0.023 -0.740 -0.672 121 111 102
13.7439 16.8772 65.8685 0.061 -0.744 -0.666 128 118 109
15.5880 16.7942 66.0623 0.171 -0.590 -0.789 126 111 104
15.7220 16.7973 66.1143 0.121 -0.591 -0.798 142 127 120
15.8646 16.7896 66.1239 0.127 -0.603 -0.787 153 138 131
17.1554 16.7055 66.1520 -0.063 -0.729 -0.682 125 112 104
20.8644 16.6839 67.1432 0.195 -0.221 -0.956 102 89 83
21.0030 16.6817 67.1743 0.173 -0.288 -0.942 112 97 90
21.1346 16.6933 67.2608 0.254 -0.474 -0.843 112 97 90
21.2700 16.6977 67.3182 0.362 -0.482 -0.798 112 97 90
21.4068 16.6994 67.3652 0.347 -0.460 -0.817 112 97 90
21.5443 16.7000 67.4076 0.344 -0.464 -0.816 112 97 90
21.8300 16.6785 67.4021 -0.225 -0.644 -0.732 100 85 78
21.9710 16.6714 67.4139 0.293 -0.801 -0.522 94 80 73
22.1058 16.6779 67.4798 0.293 -0.801 -0.522 84 74 65
23.0843 16.6461 67.6333 0.201 -0.282 -0.938 115 105 96
23.2257 16.6373 67.6379 0.183 -0.546 -0.818 124 111 102
23.6535 16.5996 67.6069 0.317 -0.143 -0.938 128 115 106
24.8741 16.6678 68.2445 0.077 -0.617 -0.783 136 126 116
25.0149 16.6608 68.2565 0.080 -0.639 -0.765 129 119 109
25.1547 16.6568 68.2809 0.077 -0.617 -0.783 123 110 101
25.4350 16.6466 68.3200 0.122 -0.568 -0.814 122 109 100
25.5714 16.6554 68.3961 0.526 -0.527 -0.667 121 108 99
25.7066 16.6690 68.4920 0.526 -0.527 -0.667 121 108 99
25.9769 16.7002 68.6996 -0.052 -0.407 -0.912 121 108 99
26.8190 16.6723 68.8295 0.275 -0.685 -0.674 81 68 62
27.0987 16.6675 68.8914 0.178 -0.714 -0.678 84 71 65
29.0520 16.7052 69.6160 0.426 0.093 -0.900 125 115 106
31.5881 16.7421 70.5077 0.228 -0.671 -0.706 162 154 143
32.2966 16.7468 70.7335 0.199 -0.716 -0.669 158 150 139
34.3202 16.9227 72.0504 0.578 -0.561 -0.592 142 138 126
35.3191 16.8867 72.1926 0.571 -0.362 -0.737 144 142 127
37.7321 16.7805 72.4560 0.354 -0.257 -0.899 117 123 113
40.2123 17.1254 74.6055 0.582 -0.082 -0.809 87 98 82
44.8844 17.6500 78.1365 0.278 0.088 -0.956 95 110 105
52.2465 18.1990 82.5522 0.857 -0.192 -0.478 57 76 78
-24.2023 20.6378 69.6793 -0.598 -0.270 -0.755 158 193 217
-21.0694 20.1359 68.5295 0.042 -0.587 -0.808 65 75 74
-18.8590 19.9453 68.3893 0.267 0.093 -0.959 50 61 57
-15.4195 19.5800 67.8892 0.356 -0.537 -0.765 76 94 98
-13.1500 19.3993 67.8069 -0.211 -0.536 -0.817 52 61 62
-10.8383 19.0372 66.9923 -0.150 -0.536 -0.831 59 61 58
-10.6724 19.0258 66.9935 -0.123 -0.509 -0.852 60 62 61
-9.1568 18.8327 66.6411 0.033 -0.436 -0.899 88 89 84
-8.9976 18.8238 66.6511 0.033 -0.436 -0.899 87 88 82
-8.8338 18.8125 66.6522 0.029 -0.442 -0.896 85 86 80
-8.6864 18.8099 66.6843 -0.037 -0.279 -0.959 70 71 65
-8.1623 18.7579 66.6234 -0.183 -0.161 -0.970 70 71 65
-6.5822 18.5921 66.4015 -0.408 -0.431 -0.805 52 56 39
-6.4741 18.6108 66.5098 -0.422 -0.367 -0.829 47 51 34
-6.2399 18.5589 66.3648 -0.201 -0.657 -0.726 44 48 31
-6.0420 18.5271 66.2919 -0.117 -0.641 -0.759 45 49 31
-5.8891 18.5205 66.3092 -0.058 -0.684 -0.727 47 51 34
-4.5396 18.3932 66.1787 -0.240 -0.510 -0.826 31 31 23
-1.8448 18.0340 65.4874 -0.078 -0.350 -0.934 48 44 40
-1.6788 18.0171 65.4663 0.299 -0.417 -0.859 48 42 42
-1.5373 18.0155 65.5008 0.442 -0.372 -0.816 49 43 42
-1.4096 18.0226 65.5668 0.442 -0.372 -0.816 46 41 38
-1.1009 18.0917 65.9401 -0.782 -0.199 -0.591 56 51 48
1.8310 17.7116 65.2318 0.523 -0.259 -0.812 79 73 74
1.9545 17.7214 65.3082 0.523 -0.259 -0.812 78 74 74
3.2189 17.6062 65.2026 0.161 -0.676 -0.719 77 68 69
3.3589 17.6044 65.2357 0.161 -0.676 -0.719 76 67 68
3.7558 17.6159 65.3984 0.034 -0.607 -0.794 72 63 64
6.2582 17.3808 65.1602 0.190 -0.293 -0.937 89 78 72
6.3843 17.3893 65.2319 0.199 -0.280 -0.939 88 79 74
6.5296 17.3825 65.2462 0.187 -0.291 -0.938 83 74 69
6.6723 17.3778 65.2683 0.148 -0.290 -0.945 75 66 61
6.8144 17.3735 65.2919 0.148 -0.290 -0.945 69 60 56
6.9555 17.3700 65.3187 0.182 -0.300 -0.936 64 55 51
7.0986 17.3650 65.3395 0.166 -0.387 -0.907 64 55 51
7.2383 17.3626 65.3705 0.257 -0.508 -0.822 64 55 50
7.3847 17.3547 65.3806 0.308 -0.460 -0.833 70 62 56
7.6689 17.3460 65.4273 -0.182 -0.443 -0.878 80 71 68
7.8111 17.3416 65.4506 -0.196 -0.478 -0.856 81 70 68
7.9694 17.3232 65.4212 -0.188 -0.481 -0.856 85 75 73
8.1255 17.3067 65.3988 -0.194 -0.479 -0.856 89 80 78
8.2824 17.2893 65.3729 -0.194 -0.479 -0.856 91 80 79
10.9686 17.2105 65.8300 0.093 -0.990 -0.105 92 81 77
11.0999 17.2163 65.8917 0.093 -0.990 -0.105 91 80 77
11.3023 17.1512 65.6834 0.271 -0.855 -0.443 91 80 77
11.8910 17.1086 65.6796 -0.282 -0.285 -0.916 95 84 80
12.2011 17.0703 65.6126 -0.022 -0.089 -0.996 124 114 105
12.3479 17.0594 65.6104 0.011 -0.135 -0.991 129 119 110
13.2573 16.9602 65.4675 0.432 -0.505 -0.747 121 111 102
13.3862 16.9680 65.5369 0.432 -0.505 -0.747 126 116 107
13.5153 16.9758 65.6063 0.432 -0.505 -0.747 135 125 116
13.6391 16.9897 65.6994 0.023 -0.740 -0.672 141 131 122
13.7596 17.0076 65.8080 0.156 -0.769 -0.620 133 123 114
15.3452 16.9058 65.8508 0.402 -0.540 -0.739 119 106 98
15.6086 16.9173 65.9747 0.171 -0.590 -0.789 137 122 115
15.7427 16.9204 66.0262 0.121 -0.591 -0.798 141 126 119
15.8856 16.9120 66.0334 0.127 -0.603 -0.787 143 128 121
18.7971 16.8547 66.6438 0.301 -0.558 -0.774 107 92 85
19.9314 16.7895 66.7057 0.379 -0.164 -0.911 114 101 94
20.0667 16.7924 66.7572 0.521 -0.134 -0.843 114 101 94
20.3322 16.8080 66.8985 0.548 -0.045 -0.835 112 99 93
20.8718 16.8264 67.1308 0.062 0.269 -0.961 100 87 81
21.0109 16.8232 67.1581 0.038 0.260 -0.965 106 92 84
21.1467 16.8268 67.2120 0.133 -0.015 -0.991 106 92 84
21.2859 16.8236 67.2393 0.324 0.009 -0.946 106 92 84
21.4241 16.8222 67.2740 0.352 -0.027 -0.935 105 91 84
21.5616 16.8226 67.3156 0.348 0.113 -0.931 101 87 80
21.7037 16.8133 67.3185 -0.228 -0.642 -0.732 95 81 74
21.9892 16.7913 67.3113 0.153 -0.758 -0.634 83 69 62
23.1036 16.7609 67.5101 -0.029 -0.340 -0.940 117 107 99
23.2357 16.7754 67.6079 0.156 -0.318 -0.935 124 111 102
23.3751 16.7715 67.6325 0.156 -0.318 -0.935 124 111 102
23.5145 16.7676 67.6570 0.156 -0.318 -0.935 126 113 104
23.6626 16.7404 67.5885 0.317 -0.143 -0.938 127 114 105
24.7480 16.7992 68.1451 0.043 -0.642 -0.765 162 152 142
24.8880 16.7946 68.1671 0.120 -0.590 -0.798 154 144 134
25.0293 16.7856 68.1709 0.058 -0.610 -0.790 139 129 119
25.1695 16.7802 68.1895 0.050 -0.607 -0.793 127 117 107
25.4495 16.7702 68.2298 0.045 -0.644 -0.763 119 106 97
27.5217 16.8443 69.1364 0.230 -0.667 -0.709 106 95 89
34.4721 17.0455 71.9815 0.515 -0.604 -0.608 153 147 133
34.7386 16.9476 71.6570 0.408 -0.270 -0.872 152 149 134
35.3269 17.0115 72.0902 0.564 -0.133 -0.815 151 149 134
35.4765 17.0346 72.2285 0.481 -0.079 -0.873 153 151 136
36.8647 16.8700 71.9565 0.283 -0.289 -0.914 144 147 136
37.4531 16.9121 72.3000 0.490 -0.375 -0.787 76 79 71
37.5952 16.9075 72.3225 0.477 -0.357 -0.803 81 84 75
43.0045 17.4582 76.1544 0.506 -0.380 -0.774 100 112 110
43.3510 17.5309 76.5536 0.578 -0.617 -0.534 98 110 110
43.6618 17.5459 76.7057 0.412 -0.685 -0.601 98 110 110
43.8204 17.5578 76.8007 0.412 -0.685 -0.601 95 107 107
-21.4334 20.3228 68.5151 0.192 -0.579 -0.792 58 72 72
-16.9595 19.9760 68.3990 0.190 -0.454 -0.871 84 99 104
-16.7851 19.9634 68.3983 0.174 -0.449 -0.876 84 99 106
-15.4025 19.7272 67.8367 0.138 -0.674 -0.726 76 93 100
-14.1336 19.3981 66.8644 0.442 0.055 -0.895 71 90 95
-13.9937 19.4001 66.9131 0.295 -0.147 -0.944 59 77 81
-11.0023 19.2001 66.9654 -0.305 -0.604 -0.736 68 68 66
-10.5510 19.1155 66.7516 -0.181 -0.402 -0.897 66 68 65
-8.9585 18.9543 66.5565 0.041 -0.655 -0.755 82 83 77
-8.7928 18.9419 66.5539 0.039 -0.659 -0.751 88 89 83
-8.6650 18.9497 66.6228 0.003 -0.463 -0.886 77 78 70
-8.5316 18.9546 66.6813 -0.031 -0.282 -0.959 76 77 69
-8.3548 18.9361 66.6573 -0.247 -0.150 -0.957 77 78 70
-7.7624 18.8461 66.4625 -0.382 -0.275 -0.882 70 69 64
-7.5970 18.8333 66.4583 -0.223 -0.551 -0.804 69 68 63
-5.9855 18.6450 66.1584 -0.053 -0.345 -0.937 44 48 34
-5.8146 18.6281 66.1391 0.097 -0.602 -0.793 52 55 42
-5.6554 18.6177 66.1427 0.122 -0.484 -0.867 71 73 60
-5.4999 18.6094 66.1541 0.104 -0.477 -0.873 92 94 82
-5.3518 18.6053 66.1804 0.085 -0.488 -0.869 90 92 81
-5.1769 18.5857 66.1513 -0.125 -0.547 -0.828 65 66 56
-4.4941 18.5159 66.0650 -0.168 -0.661 -0.731 31 28 21
-1.9914 18.1864 65.4480 -0.232 -0.470 -0.852 49 44 40
-1.8484 18.1839 65.4794 -0.197 -0.436 -0.878 51 45 42
-1.5242 18.1549 65.4550 0.314 -0.416 -0.853 53 45 43
-1.3889 18.1572 65.5036 0.314 -0.416 -0.853 50 42 40
3.1716 17.7870 65.3175 -0.283 -0.755 -0.591 84 74 75
6.2516 17.5322 65.1725 0.216 -0.222 -0.951 84 73 70
6.3910 17.5302 65.2046 0.216 -0.222 -0.951 77 66 64
6.5304 17.5281 65.2368 0.216 -0.222 -0.951 69 59 57
6.6626 17.5320 65.2911 0.110 -0.217 -0.970 61 51 50
7.5332 17.4915 65.3782 0.265 -0.474 -0.840 71 71 66
7.6757 17.4868 65.4005 -0.128 -0.402 -0.907 76 70 66
7.8284 17.4734 65.3899 -0.299 -0.429 -0.852 82 66 67
7.9927 17.4497 65.3412 -0.268 -0.540 -0.798 81 69 69
10.1972 17.3101 65.4115 0.335 -0.385 -0.860 84 71 70
10.7845 17.2702 65.4192 0.082 -0.626 -0.775 88 77 75
11.1974 17.2669 65.5253 0.088 -0.990 -0.108 120 110 109
11.3502 17.2505 65.5028 0.261 -0.858 -0.443 120 110 109
12.6417 17.1847 65.6090 0.587 -0.287 -0.757 123 113 103
12.7814 17.1811 65.6352 0.222 -0.225 -0.949 123 113 103
12.9303 17.1676 65.6231 -0.061 -0.137 -0.989 123 113 103
13.0815 17.1512 65.6004 -0.023 -0.064 -0.998 123 113 103
13.2255 17.1428 65.6077 0.000 -0.071 -0.997 129 118 111
13.6526 17.1224 65.6483 0.133 -0.038 -0.990 150 139 133
15.3731 17.0198 65.7293 0.433 0.115 -0.894 145 132 122
15.5064 17.0233 65.7822 0.423 0.106 -0.900 129 115 106
15.6296 17.0400 65.8857 0.182 -0.585 -0.790 128 114 105
15.7642 17.0422 65.9337 0.195 -0.588 -0.785 128 114 105
17.4318 17.0021 66.2540 0.309 -0.299 -0.903 116 99 92
18.5281 16.9996 66.5614 0.411 -0.764 -0.497 114 104 95
20.8718 16.9834 67.1747 0.062 0.269 -0.961 114 101 93
21.0114 16.9798 67.2003 0.038 0.260 -0.965 126 115 106
21.1566 16.9646 67.1805 0.128 -0.016 -0.992 125 115 106
21.2915 16.9702 67.2426 0.324 0.009 -0.946 125 116 107
21.4296 16.9693 67.2789 0.404 0.119 -0.907 121 112 103
21.5654 16.9735 67.3354 0.348 0.113 -0.931 102 92 83
22.5618 16.9014 67.3304 0.240 -0.778 -0.580 102 88 85
23.1138 16.8984 67.4780 -0.037 -0.337 -0.941 110 96 92
23.2522 16.8970 67.5126 -0.029 -0.316 -0.948 107 94 86
23.5361 16.8749 67.5047 0.309 -0.151 -0.939 115 102 94
23.6743 16.8738 67.5403 0.336 -0.163 -0.928 123 110 102
23.8081 16.8850 67.6249 0.406 -0.507 -0.760 130 117 109
24.2162 16.9023 67.8135 0.454 -0.470 -0.757 137 124 118
25.7341 16.9208 68.3288 0.393 -0.825 -0.406 140 127 121
25.8684 16.9390 68.4417 0.398 -0.830 -0.390 135 122 115
28.0993 16.9311 69.0563 0.270 -0.593 -0.758 122 108 101
28.2372 16.9458 69.1561 0.212 -0.598 -0.773 125 111 104
29.3502 17.0534 69.9169 0.456 -0.496 -0.739 119 111 100
29.4906 17.0634 69.9982 0.345 -0.462 -0.817 120 110 100
29.6311 17.0753 70.0875 0.065 -0.430 -0.900 117 107 97
29.9142 17.0645 70.1254 -0.037 -0.466 -0.884 122 109 100
30.0558 17.0542 70.1248 -0.037 -0.466 -0.884 123 110 101
30.2014 16.8652 69.3971 -0.128 -0.291 -0.948 133 120 111
30.3415 16.8518 69.3829 -0.118 -0.303 -0.946 135 122 113
33.4509 16.9955 70.8696 0.703 -0.273 -0.657 167 157 145
34.3222 17.0930 71.5193 0.430 0.249 -0.868 167 161 147
35.4896 17.1807 72.2148 0.558 -0.142 -0.818 158 155 140
35.6378 17.1968 72.3232 0.386 -0.312 -0.868 160 154 142
35.7834 17.2019 72.3861 0.386 -0.312 -0.868 158 154 142
35.9269 17.1991 72.4164 -0.063 -0.359 -0.931 158 156 141
36.0705 17.1965 72.4476 -0.054 -0.318 -0.946 157 158 142
36.2207 17.2170 72.5743 -0.132 -0.423 -0.897 156 159 142
36.8760 17.0083 71.9145 0.199 -0.425 -0.883 145 147 134
37.0281 17.0349 72.0670 0.405 -0.364 -0.839 138 141 129
37.4655 17.0539 72.2710 0.459 -0.358 -0.813 136 140 128
37.7551 17.0593 72.3767 0.335 -0.275 -0.901 97 100 89
38.0436 17.0611 72.4678 0.310 -0.288 -0.906 112 114 102
39.0846 17.1334 73.0641 0.167 -0.449 -0.878 128 134 119
-27.2217 22.0310 73.0789 -0.738 -0.333 -0.587 159 201 223
-21.1325 20.4794 68.5683 0.133 -0.350 -0.927 54 63 62
-19.1625 20.3297 68.5330 0.104 0.198 -0.975 50 61 58
-16.2317 19.7247 66.9352 -0.279 -0.022 -0.960 81 95 98
-16.9275 20.1177 68.3225 0.202 -0.454 -0.868 89 104 109
-15.5156 19.8667 67.7159 -0.048 -0.563 -0.825 69 86 88
-15.3831 19.8731 67.7802 0.184 -0.637 -0.749 78 93 96
-7.5338 18.9492 66.3154 -0.375 -0.257 -0.890 68 67 63
-7.3476 18.9246 66.2699 -0.348 -0.249 -0.904 75 74 70
-5.9689 18.7854 66.1059 -0.053 -0.345 -0.937 50 53 44
-5.7789 18.7573 66.0474 0.122 -0.484 -0.867 58 60 51
-5.6295 18.7525 66.0711 0.122 -0.484 -0.867 77 78 70
-5.4745 18.7445 66.0833 0.104 -0.477 -0.873 81 82 75
-5.3254 18.7398 66.1074 0.085 -0.488 -0.869 67 67 60
-5.1693 18.7310 66.1171 0.086 -0.489 -0.868 51 52 46
-4.9852 18.7058 66.0684 -0.136 -0.523 -0.841 27 28 22
-4.8070 18.6838 66.0313 -0.228 -0.497 -0.837 27 28 22
-4.2574 18.6083 65.8849 -0.225 -0.595 -0.772 29 24 22
-1.9963 18.3372 65.4428 -0.343 -0.522 -0.781 56 47 44
-1.8495 18.3323 65.4657 -0.201 -0.528 -0.825 68 58 56
-1.6507 18.2946 65.3707 0.300 -0.635 -0.712 68 58 57
-1.5186 18.2990 65.4265 0.397 -0.561 -0.726 68 58 57
-1.4051 18.3152 65.5251 0.282 -0.644 -0.711 65 54 54
2.4201 18.0772 65.6690 -0.500 -0.785 -0.366 90 82 80
6.4179 17.6545 65.1163 0.201 -0.271 -0.941 73 62 60
6.5596 17.6505 65.1412 0.141 -0.229 -0.963 67 57 56
6.7118 17.6379 65.1340 0.098 -0.462 -0.881 60 50 49
6.8610 17.6276 65.1357 0.080 -0.496 -0.865 57 47 46
6.9947 17.6302 65.1849 0.041 -0.681 -0.731 60 50 49
7.1475 17.6168 65.1750 -0.007 -0.688 -0.726 60 50 49
8.3560 17.5176 65.1232 0.347 -0.598 -0.723 77 48 53
8.4983 17.5124 65.1435 0.055 -0.641 -0.766 108 33 49
8.6400 17.5078 65.1660 0.012 -0.599 -0.801 187 18 32
8.9778 17.4493 65.0269 -0.419 -0.373 -0.828 202 26 34
11.2438 17.3675 65.3514 0.050 -0.882 -0.469 91 81 80
11.5156 17.3684 65.4339 0.286 -0.827 -0.484 100 90 89
11.8982 17.3963 65.6573 -0.163 -0.287 -0.944 102 92 91
12.0829 17.3461 65.5076 -0.040 -0.359 -0.932 109 99 90
12.6532 17.3199 65.5667 0.587 -0.287 -0.757 118 108 98
12.7958 17.3132 65.5808 0.180 -0.256 -0.950 119 109 99
13.5365 17.2475 65.5295 0.452 -0.075 -0.889 133 122 116
13.6666 17.2545 65.5951 0.452 -0.075 -0.889 136 125 119
15.3746 17.1668 65.7345 0.383 0.100 -0.919 142 130 118
15.5075 17.1711 65.7903 0.383 0.100 -0.919 128 114 105
15.6274 17.1921 65.9102 0.392 0.122 -0.912 127 113 104
15.7858 17.1637 65.8409 0.099 -0.478 -0.873 127 113 104
15.9320 17.1508 65.8310 0.127 -0.464 -0.877 128 114 105
16.0658 17.1540 65.8828 0.144 -0.463 -0.874 129 115 106
16.8078 17.0711 65.7621 0.129 -0.661 -0.739 143 126 119
17.2124 17.0762 65.8997 0.173 -0.606 -0.777 128 111 104
17.3537 17.0687 65.9103 0.159 -0.628 -0.761 124 107 100
18.8279 17.1111 66.5079 0.427 -0.528 -0.734 133 120 116
20.8873 17.1104 67.1005 0.271 0.026 -0.962 114 102 93
21.0235 17.1134 67.1518 0.294 0.033 -0.955 123 114 105
21.1604 17.1148 67.1973 0.307 -0.022 -0.951 123 114 105
21.2983 17.1146 67.2364 0.319 -0.003 -0.948 123 114 105
21.4331 17.1208 67.3003 0.404 0.119 -0.907 121 112 103
21.5695 17.1240 67.3527 0.401 0.142 -0.905 105 96 87
23.2564 17.0500 67.5414 0.152 -0.512 -0.845 104 91 85
23.3790 17.0909 67.7419 0.337 -0.420 -0.843 111 98 90
28.1121 17.0547 68.9642 0.270 -0.593 -0.758 118 103 96
28.2498 17.0702 69.0667 0.222 -0.596 -0.772 117 102 95
30.2126 16.9954 69.3318 -0.114 -0.413 -0.904 137 124 115
30.3528 16.9805 69.3119 -0.123 -0.280 -0.952 137 124 115
33.9175 17.3067 71.6608 0.524 -0.292 -0.800 163 155 142
34.0586 17.2940 71.6503 0.590 -0.266 -0.762 163 155 142
35.6520 17.3473 72.3263 0.211 -0.599 -0.772 164 158 146
35.7984 17.3555 72.4018 0.216 -0.580 -0.785 155 152 137
36.0791 17.3262 72.3646 -0.091 -0.336 -0.937 149 150 134
37.0460 17.1935 72.1077 0.325 -0.182 -0.928 135 137 123
37.1883 17.1894 72.1325 0.301 -0.220 -0.928 135 139 123
37.3323 17.1906 72.1790 0.301 -0.220 -0.928 142 146 131
37.6219 17.1965 72.2867 0.466 -0.199 -0.862 142 146 132
37.7667 17.1990 72.3385 0.335 -0.275 -0.901 135 137 123
37.9030 17.1789 72.2967 0.063 -0.603 -0.795 119 121 107
38.0551 17.2004 72.4275 0.310 -0.288 -0.906 103 105 90
38.1999 17.2023 72.4769 0.296 -0.279 -0.913 113 115 101
52.2853 18.8098 83.0461 0.941 -0.113 -0.318 50 70 72
-28.2104 22.2162 72.8311 -0.488 -0.590 -0.643 154 196 218
-27.5922 22.0905 72.5054 -0.364 -0.678 -0.638 153 196 217
-21.1586 20.8472 69.3741 -0.224 -0.504 -0.835 52 61 60
-14.3387 19.6640 66.5957 0.163 -0.402 -0.901 79 91 92
-10.7722 19.3857 66.5078 0.122 -0.510 -0.852 78 77 73
-9.2430 19.4883 67.3607 0.227 0.136 -0.964 81 80 75
-6.0833 18.9199 65.9921 -0.037 -0.339 -0.940 47 47 44
-5.9365 18.9166 66.0211 -0.025 -0.341 -0.940 54 54 50
-5.7567 18.8942 65.9834 -0.006 -0.508 -0.862 60 61 56
-5.6038 18.8874 65.9999 0.024 -0.557 -0.830 74 75 70
-5.2779 18.8617 65.9910 -0.119 -0.514 -0.850 59 58 54
-5.1105 18.8462 65.9770 -0.119 -0.514 -0.850 47 46 42
-4.9433 18.8307 65.9631 -0.119 -0.514 -0.850 31 30 26
-4.6242 18.8084 65.9658 -0.121 -0.190 -0.974 31 30 28
-4.4242 18.7731 65.8818 -0.127 -0.379 -0.917 33 29 28
-4.3110 18.7895 65.9800 -0.018 -0.482 -0.876 33 27 29
-1.9787 18.4739 65.3871 -0.316 -0.549 -0.774 63 51 51
-1.8171 18.4596 65.3764 -0.201 -0.528 -0.825 69 57 57
-1.6400 18.4354 65.3304 0.316 -0.581 -0.750 69 57 57
-1.5068 18.4391 65.3837 0.316 -0.581 -0.750 70 57 57
-1.3689 18.4399 65.4265 0.282 -0.644 -0.711 69 56 56
2.1767 18.1023 65.0949 -0.274 -0.649 -0.710 93 85 82
2.3381 18.0854 65.0738 -0.243 -0.619 -0.747 95 87 84
2.4925 18.0734 65.0704 -0.320 -0.467 -0.824 91 83 80
6.2905 17.7931 65.0412 0.227 -0.339 -0.913 83 72 70
6.4289 17.7918 65.0761 0.227 -0.339 -0.913 80 69 67
6.5679 17.7901 65.1092 0.201 -0.271 -0.941 73 63 62
6.7282 17.7706 65.0772 0.098 -0.498 -0.861 66 56 55
6.8763 17.7612 65.0823 0.090 -0.497 -0.863 63 53 52
7.1677 17.7462 65.1062 0.071 -0.657 -0.751 60 50 49
8.1039 17.6456 64.9727 0.344 -0.414 -0.842 64 54 48
8.2429 17.6432 65.0033 0.357 -0.424 -0.832 63 50 44
8.3703 17.6512 65.0720 0.024 -0.600 -0.799 86 38 42
8.5256 17.6344 65.0495 0.014 -0.605 -0.796 122 20 37
8.6664 17.6305 65.0745 0.012 -0.599 -0.801 199 10 29
11.3993 17.4951 65.3195 0.443 -0.557 -0.702 91 81 80
12.1242 17.4499 65.3474 -0.209 -0.189 -0.960 113 103 93
13.1274 17.3960 65.4203 0.448 0.034 -0.893 112 102 92
13.3982 17.3977 65.5055 0.437 0.001 -0.900 120 109 103
13.5297 17.4032 65.5656 0.433 -0.001 -0.902 117 106 100
13.6586 17.4118 65.6371 0.080 -0.139 -0.987 114 103 97
15.3835 17.3046 65.7046 0.480 -0.115 -0.870 135 123 111
15.6315 17.3365 65.9039 0.372 0.131 -0.919 127 113 104
15.8061 17.2867 65.7548 0.042 -0.380 -0.924 127 113 104
15.9324 17.2999 65.8441 0.387 -0.345 -0.855 127 113 104
16.0651 17.3048 65.9022 0.387 -0.345 -0.855 122 108 99
16.2255 17.2727 65.8194 0.005 -0.523 -0.852 122 108 99
17.0961 17.1983 65.7723 0.125 -0.634 -0.763 133 116 109
18.4502 17.2116 66.2161 0.406 -0.476 -0.780 105 95 86
18.5821 17.2191 66.2840 0.430 -0.512 -0.744 96 86 77
18.8452 17.2360 66.4280 0.427 -0.528 -0.734 100 86 83
18.9843 17.2325 66.4538 0.299 -0.415 -0.859 107 93 90
20.9034 17.2359 67.0211 0.363 -0.431 -0.826 113 102 92
21.0354 17.2471 67.1042 0.300 -0.154 -0.941 117 107 98
21.1726 17.2481 67.1477 0.300 -0.154 -0.941 116 107 98
21.3110 17.2469 67.1828 0.292 -0.133 -0.947 116 107 98
21.4468 17.2510 67.2382 0.336 -0.162 -0.928 116 107 98
23.1354 17.1706 67.4027 0.078 -0.574 -0.815 95 81 78
23.2708 17.1769 67.4672 0.152 -0.512 -0.845 104 91 85
23.8072 17.2209 67.7983 -0.101 -0.502 -0.859 120 107 101
24.0907 17.2013 67.8013 -0.012 -0.457 -0.890 119 106 100
24.2308 17.1962 67.8216 -0.012 -0.453 -0.891 117 103 100
24.3703 17.1927 67.8478 0.031 -0.386 -0.922 116 102 99
24.5083 17.1941 67.8928 0.408 -0.394 -0.824 124 110 107
24.6448 17.2003 67.9573 0.408 -0.394 -0.824 135 121 118
24.7814 17.2066 68.0219 0.408 -0.394 -0.824 126 112 109
25.0626 17.1931 68.0490 0.384 -0.442 -0.811 114 100 97
25.2064 17.1747 68.0164 0.011 -0.391 -0.920 116 102 99
25.4881 17.1577 68.0294 -0.075 -0.412 -0.908 119 105 102
25.6297 17.1459 68.0231 -0.075 -0.412 -0.908 117 103 100
25.7693 17.1412 68.0444 0.138 -0.563 -0.815 118 104 101
26.6236 17.0328 67.8561 0.055 -0.424 -0.904 126 113 104
28.1250 17.1779 68.8710 0.267 -0.588 -0.763 117 102 95
28.2609 17.2075 69.0291 0.281 -0.335 -0.899 117 102 95
29.6556 17.3114 69.8481 0.515 -0.470 -0.716 112 102 92
29.7959 17.3281 69.9553 -0.058 -0.518 -0.853 112 99 90
29.9371 17.3259 69.9872 -0.055 -0.513 -0.857 111 98 89
30.0786 17.3151 69.9847 -0.055 -0.513 -0.857 112 99 90
30.3639 17.1140 69.2604 -0.087 -0.420 -0.903 145 132 123
32.4598 17.0501 69.6087 0.492 -0.183 -0.851 162 151 145
33.4717 17.2594 70.7401 0.497 -0.060 -0.865 166 156 144
33.6159 17.2745 70.8420 0.516 -0.075 -0.853 165 155 143
35.6637 17.4881 72.2894 0.138 -0.215 -0.967 164 157 144
35.8089 17.4916 72.3453 0.465 -0.103 -0.879 156 151 137
37.0359 17.2674 71.7998 0.493 -0.512 -0.703 138 141 123
37.4861 17.3258 72.1642 0.546 -0.221 -0.808 145 148 130
37.6185 17.2943 72.0757 0.429 -0.562 -0.707 145 148 130
37.9095 17.3048 72.2018 0.063 -0.603 -0.795 144 147 129
38.3590 17.3508 72.5160 0.355 -0.270 -0.895 124 125 107
40.1231 17.7175 74.4954 0.569 -0.078 -0.819 135 139 124
40.3896 17.6597 74.3405 0.600 -0.519 -0.608 136 143 125
40.5402 17.6667 74.4122 0.513 -0.594 -0.620 135 142 124
43.0282 17.8708 75.9484 0.464 -0.497 -0.733 119 132 113
-22.4593 20.9200 68.6261 0.358 -0.435 -0.826 82 105 105
-13.8292 19.8498 66.8492 0.471 -0.449 -0.759 51 60 57
-13.6122 19.8138 66.7683 0.178 -0.348 -0.920 53 58 55
-11.7725 19.6107 66.4894 0.049 -0.405 -0.913 60 65 59
-11.2912 19.5841 66.5221 -0.098 -0.000 -0.995 75 71 68
-7.1594 19.1995 66.1797 -0.189 -0.540 -0.820 65 64 62
-6.1017 19.0803 66.0098 0.035 -0.280 -0.959 47 47 46
-5.9347 19.0654 65.9985 -0.105 -0.301 -0.948 54 54 52
-5.2607 19.0013 65.9371 -0.167 -0.419 -0.892 52 51 49
-5.0940 18.9860 65.9243 -0.050 -0.455 -0.889 41 40 36
-4.9124 18.9618 65.8804 0.012 -0.556 -0.831 39 38 34
-4.7401 18.9431 65.8554 -0.112 -0.484 -0.868 39 38 36
-4.5566 18.9175 65.8061 -0.298 -0.436 -0.849 41 37 36
-4.3957 18.9053 65.8039 -0.122 -0.381 -0.917 41 35 35
-4.2228 18.8858 65.7760 -0.114 -0.384 -0.916 41 35 37
-4.1201 18.9086 65.8963 -0.336 -0.326 -0.884 43 34 37
-3.9052 18.8634 65.7785 -0.026 -0.415 -0.909 43 33 34
-1.8189 18.6086 65.3644 -0.160 -0.266 -0.951 69 57 57
-1.7182 18.6333 65.4917 -0.084 -0.395 -0.915 71 57 57
-1.5346 18.6048 65.4313 0.290 -0.510 -0.810 71 57 57
-1.3519 18.5767 65.3719 0.310 -0.549 -0.776 73 59 59
2.3849 18.1984 64.9411 -0.146 -0.602 -0.785 90 82 79
4.3324 18.0788 65.0255 -0.280 0.186 -0.942 83 71 71
6.5780 17.9281 65.0716 0.201 -0.271 -0.941 79 69 68
6.7356 17.9108 65.0480 0.155 -0.312 -0.937 72 62 61
6.8972 17.8899 65.0114 0.134 -0.530 -0.837 66 56 55
7.0433 17.8820 65.0221 0.062 -0.673 -0.737 60 50 49
7.1871 17.8761 65.0397 0.062 -0.673 -0.737 61 51 50
7.9881 17.7736 64.8624 0.344 -0.414 -0.842 67 51 46
8.1203 17.7772 64.9147 0.344 -0.414 -0.842 69 58 47
8.3956 17.7749 64.9850 0.203 -0.300 -0.932 117 43 44
8.5435 17.7646 64.9865 0.122 -0.309 -0.943 158 24 41
8.6857 17.7594 65.0065 0.122 -0.309 -0.943 210 13 33
8.9929 17.7279 64.9696 -0.230 -0.137 -0.964 164 43 43
10.7502 17.6100 65.0059 0.463 -0.076 -0.883 89 78 76
10.8817 17.6145 65.0618 0.569 -0.248 -0.784 89 78 76
11.0213 17.6110 65.0878 0.555 -0.237 -0.797 85 75 74
11.1488 17.6197 65.1591 0.470 -0.261 -0.843 85 75 74
11.2873 17.6173 65.1896 0.460 -0.096 -0.883 85 75 74
11.4116 17.6297 65.2744 0.474 -0.116 -0.873 85 75 74
11.5246 17.6538 65.4032 0.493 -0.079 -0.867 90 80 79
12.2679 17.5894 65.3605 -0.039 -0.454 -0.890 82 72 62
12.4124 17.5807 65.3673 0.247 -0.660 -0.710 83 73 63
12.5510 17.5781 65.3971 0.286 -0.625 -0.727 82 72 62
13.5214 17.5610 65.6082 0.047 -0.244 -0.969 105 94 88
13.6661 17.5515 65.6121 0.020 -0.227 -0.974 99 88 82
14.1238 17.4946 65.5170 0.044 -0.579 -0.814 106 95 89
14.2689 17.4840 65.5167 0.107 -0.596 -0.796 107 96 89
14.4240 17.4612 65.4707 0.214 -0.770 -0.601 140 128 117
14.5615 17.4595 65.5033 0.330 -0.779 -0.533 137 125 113
15.3920 17.4429 65.6765 0.471 -0.127 -0.873 130 118 106
15.5063 17.4714 65.8225 0.383 0.100 -0.919 127 113 104
18.2009 17.3265 66.0213 0.500 -0.376 -0.780 111 101 92
18.3353 17.3297 66.0724 0.502 -0.380 -0.777 103 93 84
18.4684 17.3350 66.1321 0.520 -0.356 -0.777 106 96 87
18.5980 17.3462 66.2137 0.520 -0.356 -0.777 109 99 90
18.7279 17.3573 66.2955 0.520 -0.356 -0.777 112 102 93
18.8623 17.3611 66.3493 0.299 -0.415 -0.859 130 116 113
18.9981 17.3630 66.3956 0.299 -0.415 -0.859 128 114 111
21.5796 17.4216 67.3715 0.642 -0.273 -0.716 117 108 99
22.6069 17.2786 67.0980 0.460 -0.221 -0.860 108 94 91
22.7412 17.2864 67.1678 0.460 -0.221 -0.860 106 92 89
22.8623 17.3275 67.3663 0.609 0.115 -0.785 107 93 90
23.1502 17.2962 67.3243 0.201 -0.495 -0.845 105 91 88
23.9622 17.3408 67.7356 0.050 -0.484 -0.874 106 93 87
24.5265 17.3072 67.7643 0.367 -0.542 -0.756 105 91 88
25.3562 17.3101 68.0143 0.131 -0.097 -0.987 110 96 93
25.6416 17.2780 67.9687 0.102 -0.016 -0.995 115 101 98
25.7821 17.2699 67.9769 0.118 -0.041 -0.992 115 101 98
25.9220 17.2640 67.9938 0.118 -0.041 -0.992 115 101 98
26.0596 17.2677 68.0482 0.182 -0.197 -0.963 118 104 101
28.1377 17.3014 68.7802 0.267 -0.588 -0.763 117 102 95
28.2744 17.3242 68.9102 0.264 -0.358 -0.896 117 102 95
28.9685 17.3778 69.3232 0.292 -0.143 -0.946 119 111 100
32.0528 17.2091 69.5390 -0.026 -0.549 -0.835 145 132 126
32.1930 17.2110 69.5870 0.311 -0.427 -0.849 145 132 126
33.3403 17.3915 70.6354 0.456 -0.043 -0.889 164 154 142
33.4835 17.4010 70.7147 0.502 -0.048 -0.863 165 156 141
34.6481 17.5377 71.5938 0.396 -0.228 -0.890 168 156 142
34.7933 17.5471 71.6729 0.385 -0.224 -0.895 165 155 143
34.9387 17.5563 71.7514 0.450 -0.227 -0.864 168 158 146
35.5135 17.5579 71.9229 0.381 -0.466 -0.799 171 163 150
35.6694 17.6053 72.1568 0.254 -0.336 -0.907 165 157 144
35.8197 17.6289 72.2938 0.466 -0.066 -0.883 158 151 137
36.8940 17.3741 71.5889 -0.076 -0.441 -0.894 143 145 124
40.3968 17.7925 74.2618 0.401 -0.535 -0.743 137 141 124
40.5479 17.8006 74.3375 0.401 -0.535 -0.743 136 140 123
43.0417 18.0173 75.9174 0.504 -0.596 -0.626 118 132 108
43.6934 18.0996 76.4324 0.469 -0.322 -0.822 118 133 111
43.8458 18.1028 76.4890 0.456 -0.281 -0.845 128 143 121
44.0068 18.1187 76.5988 0.413 -0.255 -0.874 127 142 120
44.4712 18.1370 76.8050 0.432 -0.259 -0.864 132 146 133
-21.4974 20.9182 68.2391 0.303 -0.254 -0.918 64 80 84
-21.3521 20.9197 68.2867 0.303 -0.254 -0.918 47 60 63
-14.7939 20.3373 67.8687 0.192 -0.103 -0.976 44 56 54
-11.7391 19.7456 66.4082 -0.203 -0.442 -0.874 68 70 65
-11.1722 19.6742 66.2887 -0.086 -0.624 -0.777 75 71 68
-6.0906 19.2239 65.9683 0.035 -0.280 -0.959 48 48 46
-5.9321 19.2138 65.9741 -0.093 -0.364 -0.927 54 54 52
-5.2211 19.1275 65.8371 -0.220 -0.458 -0.862 47 46 42
-5.0443 19.1061 65.8033 -0.220 -0.458 -0.862 38 37 33
-4.8718 19.0871 65.7779 0.070 -0.538 -0.840 44 43 39
-4.7169 19.0786 65.7887 0.008 -0.581 -0.814 44 43 39
-3.7656 19.0131 65.8031 0.169 -0.510 -0.843 44 35 36
-0.4062 18.4668 64.6093 -0.027 -0.411 -0.911 87 77 75
2.5452 18.3284 64.9097 -0.362 -0.284 -0.888 76 68 65
2.6851 18.3267 64.9433 -0.166 -0.241 -0.956 69 61 58
4.9400 18.1798 65.0101 -0.229 0.205 -0.952 82 70 70
6.9787 17.9671 64.7550 0.167 -0.599 -0.783 78 68 67
7.0782 17.9986 64.9080 -0.334 -0.670 -0.663 80 70 69
8.0062 17.9036 64.7991 0.372 -0.333 -0.866 79 66 56
8.1456 17.9009 64.8284 0.337 -0.180 -0.924 81 70 52
8.2838 17.8992 64.8614 0.362 -0.089 -0.928 99 62 45
8.4132 17.9054 64.9231 0.368 -0.078 -0.926 142 42 40
8.5664 17.8902 64.9069 0.135 -0.319 -0.938 186 20 35
8.7022 17.8908 64.9482 0.117 -0.334 -0.935 216 17 36
9.0063 17.8620 64.9215 -0.251 -0.185 -0.950 145 59 53
10.9256 17.7171 64.9001 0.288 -0.674 -0.681 85 74 72
11.2013 17.7131 64.9635 0.426 -0.577 -0.697 78 68 67
11.3253 17.7253 65.0475 0.703 -0.242 -0.668 78 68 67
11.4415 17.7460 65.1623 0.703 -0.242 -0.668 78 68 67
11.7192 17.7405 65.2204 0.263 -0.431 -0.863 89 79 78
12.2855 17.7180 65.2942 -0.039 -0.454 -0.890 90 80 70
12.4386 17.6997 65.2658 0.247 -0.660 -0.710 86 76 66
12.5750 17.6996 65.3043 0.334 -0.552 -0.764 84 74 64
13.6910 17.6710 65.5117 -0.285 -0.142 -0.948 91 80 74
13.8435 17.6521 65.4809 -0.291 -0.137 -0.947 116 105 99
14.1502 17.6114 65.4082 -0.226 -0.136 -0.965 117 106 100
14.3080 17.5853 65.3504 -0.057 -0.122 -0.991 117 106 99
14.8493 17.5891 65.5207 0.415 -0.622 -0.664 131 119 107
15.0995 17.6175 65.7047 0.525 -0.427 -0.736 128 116 104
15.2475 17.6027 65.6889 0.232 -0.472 -0.851 128 116 104
15.3812 17.6063 65.7414 0.276 -0.428 -0.860 128 116 104
15.5901 17.6908 66.1352 0.425 -0.273 -0.863 130 116 107
18.2152 17.4562 65.9618 0.505 -0.363 -0.783 108 98 89
18.3488 17.4605 66.0171 0.502 -0.380 -0.777 114 104 95
18.4813 17.4669 66.0803 0.520 -0.356 -0.777 113 103 94
18.6109 17.4781 66.1619 0.520 -0.356 -0.777 112 102 93
18.7407 17.4893 66.2436 0.520 -0.356 -0.777 110 100 91
18.8762 17.4915 66.2911 0.299 -0.415 -0.859 120 106 103
19.0119 17.4934 66.3374 0.299 -0.415 -0.859 119 105 102
19.6963 17.4942 66.5372 0.405 -0.498 -0.766 94 80 77
19.8235 17.5121 66.6444 0.400 -0.470 -0.787 95 81 77
19.9582 17.5169 66.7020 0.469 0.030 -0.883 105 92 83
21.6570 17.4133 66.7802 0.034 -0.212 -0.977 122 113 104
21.7975 17.4059 66.7913 0.019 -0.207 -0.978 120 111 102
21.9381 17.3982 66.8014 0.219 -0.162 -0.962 120 111 102
22.0745 17.3999 66.8473 0.248 -0.209 -0.946 119 108 102
22.2124 17.3983 66.8805 0.468 -0.291 -0.834 117 103 100
22.3472 17.4041 66.9420 0.416 -0.186 -0.890 117 103 100
22.6168 17.4164 67.0680 0.460 -0.221 -0.860 114 100 97
22.7511 17.4243 67.1377 0.460 -0.221 -0.860 105 91 88
23.2761 17.4927 67.5586 -0.002 -0.626 -0.780 115 102 96
23.4180 17.4828 67.5603 0.126 -0.595 -0.794 110 97 91
23.8449 17.4479 67.5448 0.433 -0.248 -0.867 111 98 92
23.9814 17.4526 67.6025 0.417 -0.225 -0.881 107 94 88
24.1175 17.4589 67.6665 0.088 -0.445 -0.891 102 88 85
24.2553 17.4605 67.7125 0.132 -0.415 -0.900 96 82 79
24.3984 17.4455 67.6944 0.068 -0.094 -0.993 88 74 71
24.5431 17.4251 67.6552 0.480 -0.278 -0.832 90 76 73
25.5114 17.4248 67.9319 0.162 -0.112 -0.980 104 90 87
25.6509 17.4206 67.9554 0.162 -0.112 -0.980 103 89 86
25.7905 17.4164 67.9789 0.162 -0.112 -0.980 103 89 86
25.9284 17.4191 68.0290 0.255 -0.152 -0.955 111 97 94
26.0684 17.4130 68.0454 0.267 -0.193 -0.944 116 102 99
26.2062 17.4165 68.0984 0.260 -0.117 -0.958 119 105 102
26.4766 17.4491 68.3048 0.308 0.149 -0.940 118 105 98
26.6155 17.4493 68.3457 0.320 0.092 -0.943 117 104 96
26.7551 17.4468 68.3759 0.332 -0.139 -0.933 117 104 95
28.2849 17.4658 68.8902 0.162 -0.179 -0.970 117 102 95
28.4241 17.4707 68.9492 0.184 -0.209 -0.960 121 106 99
28.5569 17.5365 69.2473 0.498 0.344 -0.796 118 106 98
28.6957 17.5511 69.3447 0.497 0.351 -0.794 116 108 97
32.7653 17.3510 69.7225 0.422 -0.200 -0.884 152 139 133
32.9048 17.3437 69.7337 0.040 -0.050 -0.998 154 141 133
33.4956 17.5448 70.6977 0.444 0.002 -0.896 169 160 145
34.6644 17.7012 71.6508 0.161 -0.529 -0.833 164 155 140
34.8072 17.6982 71.6802 0.161 -0.529 -0.833 167 157 145
34.9494 17.6923 71.6977 0.303 -0.301 -0.904 169 161 148
35.0933 17.6937 71.7444 0.279 -0.280 -0.918 170 162 149
37.9435 17.6128 72.2428 0.049 -0.252 -0.966 150 151 133
40.4027 17.9223 74.1715 0.401 -0.535 -0.743 137 141 126
40.5536 17.9305 74.2470 0.401 -0.535 -0.743 137 141 125
44.0235 18.2707 76.5869 0.577 0.014 -0.817 127 142 121
53.0918 19.8641 85.4840 0.941 0.103 -0.322 52 78 66
-21.2772 21.0443 68.1496 0.105 -0.390 -0.915 47 59 63
-11.4062 19.8736 66.3862 -0.480 -0.304 -0.823 73 72 68
-11.1811 19.8306 66.2820 -0.338 -0.480 -0.809 76 72 69
-6.6295 19.4404 66.0556 -0.395 -0.263 -0.880 56 56 54
-6.4400 19.4127 66.0010 -0.386 -0.240 -0.891 56 56 54
-6.2330 19.3745 65.9107 -0.097 -0.288 -0.953 56 56 54
-6.0646 19.3586 65.8966 0.032 -0.264 -0.964 61 61 59
-5.9071 19.3491 65.9045 0.032 -0.264 -0.964 69 69 67
-5.0211 19.2417 65.7368 -0.213 -0.455 -0.865 55 54 50
-4.6904 19.2120 65.7153 -0.055 -0.600 -0.798 56 55 50
-3.8609 19.1345 65.6487 -0.017 -0.562 -0.827 58 52 52
-3.7301 19.1404 65.7094 0.199 -0.555 -0.808 55 49 49
1.9981 18.5721 65.1215 -0.524 -0.442 -0.728 86 78 75
2.3478 18.5186 65.0122 -0.471 -0.051 -0.881 87 79 76
2.5185 18.4946 64.9667 -0.405 -0.191 -0.894 82 74 71
2.6927 18.4678 64.9116 -0.410 -0.182 -0.894 74 66 63
6.5437 18.2502 65.1611 -0.572 -0.519 -0.636 78 68 67
6.7383 18.2015 65.0260 -0.572 -0.519 -0.636 79 69 68
6.9235 18.1603 64.9176 -0.459 -0.660 -0.594 81 71 70
7.1013 18.1251 64.8304 -0.462 -0.699 -0.545 88 78 77
8.0297 18.0289 64.7189 0.354 -0.336 -0.873 86 74 59
8.1629 18.0316 64.7677 0.317 -0.079 -0.945 93 78 55
8.2924 18.0377 64.8289 0.413 0.146 -0.899 122 72 50
8.4189 18.0466 64.9000 0.362 -0.089 -0.928 172 46 39
8.5786 18.0254 64.8627 0.135 -0.319 -0.938 218 25 37
8.7134 18.0270 64.9072 0.133 -0.325 -0.936 223 23 39
8.8627 18.0151 64.9033 -0.237 -0.310 -0.921 182 44 50
10.7361 17.9176 65.0577 0.597 0.196 -0.778 84 73 71
10.9132 17.8762 64.9460 0.268 -0.485 -0.833 84 73 71
11.0483 17.8773 64.9889 0.268 -0.485 -0.833 74 64 63
11.1862 17.8754 65.0211 0.199 -0.439 -0.876 72 62 61
11.3241 17.8736 65.0534 0.199 -0.439 -0.876 72 62 61
11.4396 17.8951 65.1710 0.293 -0.581 -0.759 72 62 61
11.5747 17.8964 65.2148 0.286 -0.613 -0.736 87 77 76
11.7296 17.8769 65.1826 0.230 -0.468 -0.853 89 79 78
11.8710 17.8715 65.2018 0.417 -0.302 -0.857 89 79 78
12.0199 17.8581 65.1920 0.265 -0.416 -0.870 89 79 78
12.1441 17.8711 65.2785 -0.039 -0.310 -0.950 101 91 81
12.2887 17.8622 65.2850 -0.061 -0.301 -0.952 108 98 88
12.4350 17.8513 65.2842 -0.047 -0.296 -0.954 116 106 96
12.5792 17.8427 65.2918 0.095 -0.268 -0.959 121 111 101
12.7177 17.8403 65.3219 0.089 -0.282 -0.955 107 97 87
12.8478 17.8474 65.3872 0.367 -0.496 -0.787 106 96 86
12.9781 17.8543 65.4517 0.346 -0.493 -0.798 106 96 86
13.1211 17.8470 65.4638 0.341 -0.461 -0.819 106 96 86
13.2559 17.8491 65.5105 0.174 -0.584 -0.793 104 93 87
13.3962 17.8448 65.5340 -0.035 -0.545 -0.838 104 93 87
13.6899 17.8208 65.5238 0.115 -0.550 -0.827 104 93 87
13.8305 17.8161 65.5456 0.004 -0.644 -0.765 108 97 91
14.2762 17.7724 65.5021 -0.021 -0.602 -0.798 108 97 90
15.4085 17.7204 65.6223 0.177 -0.348 -0.921 124 112 100
18.2330 17.5801 65.8812 0.498 -0.372 -0.783 108 98 89
18.3628 17.5905 65.9589 0.498 -0.372 -0.783 109 99 90
18.4948 17.5976 66.0248 0.488 -0.366 -0.792 111 101 92
19.7086 17.6272 66.4883 0.337 -0.543 -0.769 101 87 84
19.8401 17.6374 66.5658 0.363 -0.541 -0.759 101 88 83
19.9730 17.6454 66.6355 0.362 -0.525 -0.770 110 97 88
20.1159 17.6349 66.6352 0.025 -0.386 -0.922 110 97 88
20.2566 17.6283 66.6497 0.003 -0.356 -0.934 109 96 87
21.9491 17.5331 66.7610 0.177 -0.097 -0.979 120 110 101
22.6290 17.5486 67.0165 0.438 -0.215 -0.873 119 105 102
23.2905 17.6194 67.4834 0.097 -0.695 -0.712 105 92 86
23.5682 17.6161 67.5499 0.241 -0.608 -0.757 97 84 78
23.7048 17.6207 67.6072 0.299 -0.605 -0.738 90 77 71
23.8472 17.6089 67.6017 0.202 -0.594 -0.779 82 69 63
24.1297 17.5912 67.6133 0.043 -0.492 -0.870 100 86 83
24.2714 17.5806 67.6120 0.054 -0.372 -0.927 101 87 84
24.5567 17.5524 67.5831 0.382 -0.271 -0.884 86 72 69
24.6911 17.5645 67.6692 0.382 -0.342 -0.858 77 63 60
24.8279 17.5695 67.7281 0.382 -0.342 -0.858 69 55 52
24.9706 17.5544 67.7098 0.077 -0.036 -0.996 63 49 46
25.1037 17.5730 67.8205 0.377 -0.277 -0.884 64 50 47
25.6603 17.5630 67.9407 0.162 -0.112 -0.980 81 67 64
25.7999 17.5588 67.9642 0.162 -0.112 -0.980 82 68 65
25.9382 17.5601 68.0091 0.255 -0.152 -0.955 101 87 84
26.0785 17.5526 68.0197 0.267 -0.193 -0.944 112 98 95
26.2128 17.5718 68.1336 0.363 -0.125 -0.923 111 97 94
26.3459 17.5982 68.2750 0.352 0.055 -0.934 111 98 92
26.7648 17.5896 68.3613 0.328 -0.135 -0.935 113 100 91
28.2979 17.5868 68.7893 0.163 -0.475 -0.865 115 98 91
28.4377 17.5845 68.8203 0.226 -0.581 -0.782 121 106 99
28.9930 17.6260 69.1421 0.022 -0.405 -0.914 131 123 112
29.1336 17.6192 69.1558 0.261 -0.451 -0.854 133 125 114
29.2733 17.6255 69.2205 0.132 -0.612 -0.780 130 122 111
29.4134 17.6264 69.2641 0.113 -0.631 -0.767 124 116 105
29.5539 17.6223 69.2882 0.113 -0.631 -0.767 119 109 99
29.8315 17.6945 69.6508 0.178 -0.459 -0.870 113 100 91
29.9776 17.5371 69.0756 0.138 -0.584 -0.800 112 99 90
31.9347 17.4776 69.4028 -0.034 -0.165 -0.986 149 136 130
32.0758 17.4929 69.5031 0.188 -0.362 -0.913 148 134 131
32.4958 17.4870 69.6001 0.493 -0.123 -0.861 142 129 123
34.6766 17.8444 71.6257 0.178 -0.514 -0.839 159 152 136
