ply
format ascii 1.0
element vertex 856
property float x
property float y
property float z
property float nx
property float ny
property float nz
property uchar diffuse_red
property uchar diffuse_green
property uchar diffuse_blue
end_header
31.7922 -2.2061 87.6957 0.121 -0.663 -0.739 200 242 254
32.7497 -2.0715 88.7405 0.568 -0.717 -0.404 200 240 245
32.8669 -2.0530 88.8822 0.446 -0.732 -0.515 208 237 244
34.3102 -2.0601 88.9948 0.458 -0.662 -0.593 176 188 194
34.9770 -2.0027 89.4694 0.333 -0.764 -0.552 142 170 182
35.1141 -1.9928 89.5535 0.338 -0.763 -0.551 146 176 192
36.9777 -1.4827 93.3151 0.513 -0.712 -0.479 214 234 236
37.1213 -1.4732 93.3973 0.515 -0.349 -0.783 217 237 236
37.2652 -1.4638 93.4785 0.492 -0.334 -0.804 199 222 217
37.4085 -1.4541 93.5623 0.492 -0.334 -0.804 191 214 205
37.5519 -1.4444 93.6462 0.492 -0.334 -0.804 195 221 209
37.7487 -1.3745 94.1548 0.466 -0.755 -0.461 192 218 205
38.1032 -1.3924 94.0698 0.465 -0.621 -0.631 199 225 212
54.9418 -1.1638 97.5484 -0.468 0.340 -0.815 131 142 135
56.1097 -1.5162 95.2251 0.905 -0.420 -0.064 105 115 107
58.2594 -1.0191 98.9280 0.283 -0.684 -0.672 97 105 94
58.4523 -1.2398 97.4127 0.455 -0.551 -0.700 101 109 98
58.5949 -1.2372 97.4468 -0.016 -0.199 -0.980 104 110 98
58.7147 -1.1171 98.2969 0.767 -0.435 -0.471 112 118 105
59.2749 -1.0138 99.0791 0.760 -0.463 -0.457 95 105 94
59.7000 -0.9409 99.6344 0.850 -0.398 -0.344 103 114 106
59.8388 -0.8824 100.0570 0.812 -0.465 -0.353 109 119 111
60.2715 -0.8347 100.4377 0.471 -0.804 -0.363 112 128 118
60.4167 -0.8271 100.5072 0.618 -0.709 -0.339 109 122 115
60.5616 -0.8142 100.6134 0.677 -0.693 -0.247 93 104 98
60.7044 -0.7488 101.0849 0.266 -0.848 -0.458 74 80 76
60.8497 -0.7209 101.2952 0.306 -0.861 -0.406 58 68 62
60.9955 -0.6990 101.4644 0.683 -0.666 -0.300 74 86 77
61.1416 -0.6701 101.6816 0.650 -0.698 -0.301 74 89 79
61.2882 -0.6441 101.8795 0.691 -0.658 -0.299 76 93 83
61.7356 -0.3967 103.6525 0.876 -0.077 -0.477 91 108 100
62.0366 -0.3340 104.1231 0.899 -0.012 -0.438 112 131 125
62.1897 -0.2730 104.5648 0.907 -0.009 -0.422 98 117 111
62.3432 -0.2229 104.9312 0.896 -0.098 -0.432 93 112 106
62.4972 -0.1776 105.2639 0.924 -0.123 -0.362 96 113 107
63.4202 -0.0290 106.4024 0.326 -0.835 -0.443 112 131 125
63.8794 0.0032 106.6782 0.191 -0.892 -0.410 89 108 102
-22.0616 -2.0951 81.1968 -0.236 -0.598 -0.766 164 201 200
-21.6854 -2.1189 81.0761 -0.253 -0.537 -0.805 162 198 199
-21.2644 -2.1496 80.9133 -0.250 -0.453 -0.856 148 186 186
-20.9359 -2.1666 80.8341 -0.239 -0.413 -0.879 128 167 166
-21.3216 -2.0760 81.4136 -0.244 -0.670 -0.701 98 137 139
-20.0446 -2.1390 81.1271 -0.154 -0.611 -0.776 121 159 195
-15.5696 -2.2773 80.6912 -0.492 -0.104 -0.864 166 218 232
-15.0531 -2.3267 80.4106 -0.473 -0.147 -0.869 135 184 199
-14.6636 -2.3560 80.2536 -0.312 0.066 -0.948 151 198 214
-14.4575 -2.3560 80.2771 -0.092 0.347 -0.933 165 214 229
-14.0671 -2.3858 80.1170 0.524 -0.338 -0.782 165 214 228
-13.7986 -2.3961 80.0772 0.729 -0.286 -0.622 163 211 225
-13.6572 -2.3859 80.1639 0.732 -0.293 -0.616 147 195 209
-13.5495 -2.3702 80.2845 0.732 -0.293 -0.616 128 174 189
-13.2744 -2.3483 80.4666 0.198 -0.315 -0.928 124 169 188
-13.1254 -2.3393 80.5463 0.186 -0.319 -0.929 122 167 188
-12.5999 -2.3586 80.4739 0.164 -0.262 -0.951 122 168 191
-12.4305 -2.3529 80.5322 0.014 -0.404 -0.914 150 196 220
-11.7296 -2.3682 80.5078 0.100 -0.315 -0.944 112 158 182
-11.0687 -2.3774 80.5211 0.125 -0.303 -0.945 117 160 192
-10.8699 -2.3769 80.5472 0.125 -0.303 -0.945 139 182 214
-10.6632 -2.3778 80.5647 0.065 -0.275 -0.959 142 186 215
-10.4885 -2.3734 80.6157 -0.057 -0.204 -0.977 153 197 226
-9.9771 -2.3921 80.5458 0.363 0.115 -0.925 105 149 176
-9.8181 -2.3850 80.6125 0.378 0.080 -0.923 124 168 195
-9.6584 -2.3781 80.6785 0.378 0.080 -0.923 136 177 205
-5.3970 -2.7450 78.6436 -0.207 -0.912 -0.355 156 202 226
-3.8556 -2.7821 78.5658 -0.027 -0.981 -0.190 175 220 241
-3.2566 -2.7879 78.5952 0.003 -0.991 -0.137 193 237 253
-3.0936 -2.7832 78.6462 0.018 -0.997 -0.070 184 227 243
-2.3493 -2.8507 78.2673 -0.088 -0.893 -0.442 162 202 218
-1.3626 -2.9639 77.6015 0.170 -0.979 -0.116 145 183 200
8.0834 -2.8729 79.3182 0.133 0.154 -0.979 135 164 172
8.2741 -2.8763 79.3167 0.349 0.233 -0.908 132 162 170
8.5996 -2.9095 79.1255 0.266 0.133 -0.955 134 164 174
9.2748 -3.0204 78.4397 -0.177 -0.277 -0.944 139 169 179
9.4650 -3.0243 78.4344 -0.160 -0.274 -0.948 141 171 182
9.7678 -3.0151 78.5329 0.341 0.018 -0.940 140 170 181
9.9160 -3.0098 78.5867 0.341 0.018 -0.940 142 172 183
12.4778 -2.9304 79.4287 0.009 -0.844 -0.536 144 173 183
12.6525 -2.9316 79.4410 -0.032 -0.854 -0.519 144 173 183
13.3839 -2.9037 79.7175 0.261 -0.808 -0.529 143 174 180
13.5432 -2.9013 79.7524 0.267 -0.813 -0.518 145 175 180
13.7087 -2.9005 79.7773 0.179 -0.837 -0.517 148 178 186
15.9120 -2.9063 79.9915 0.357 -0.881 -0.309 152 183 188
16.0103 -2.8888 80.1235 0.386 -0.869 -0.309 149 179 187
16.1249 -2.8754 80.2290 0.386 -0.869 -0.309 148 178 186
18.3846 -2.8603 80.5931 0.144 -0.974 -0.176 138 170 181
18.5208 -2.8527 80.6616 0.470 -0.879 -0.086 134 166 177
21.1031 -2.7032 81.9890 0.183 -0.980 -0.082 209 244 252
21.3169 -2.7183 81.9102 0.441 -0.872 -0.212 205 241 249
21.4254 -2.7022 82.0334 0.429 -0.879 -0.208 202 238 246
26.6159 -2.0508 87.1193 -0.140 -0.330 -0.934 167 199 214
27.5491 -2.2120 86.1162 0.452 -0.851 -0.268 174 206 221
29.6041 -2.0749 87.2976 0.610 -0.698 -0.375 114 148 173
30.5094 -2.0520 87.5600 0.558 -0.298 -0.775 140 176 198
31.8351 -2.0731 87.5676 0.162 -0.731 -0.663 197 239 253
31.9821 -2.0682 87.6181 0.169 -0.723 -0.670 194 237 253
32.8902 -1.9811 88.3234 0.773 -0.598 -0.212 193 233 240
33.0831 -1.9257 88.7266 0.532 -0.715 -0.453 220 237 246
33.1959 -1.9051 88.8819 0.690 -0.653 -0.313 232 239 251
35.0270 -1.8738 89.3084 0.333 -0.746 -0.576 154 181 195
35.3933 -1.8222 89.7066 0.133 -0.773 -0.621 203 235 254
36.2012 -1.8332 89.7241 0.357 -0.933 0.046 195 237 253
36.2653 -1.7861 90.0559 0.340 -0.940 0.037 192 232 249
39.7170 -1.3367 93.5490 -0.458 -0.810 -0.366 191 220 214
39.9134 -1.3602 93.4100 -0.459 -0.811 -0.363 194 217 215
41.6612 -1.0521 95.7337 0.976 -0.148 -0.161 111 131 138
56.1304 -1.3849 95.1110 0.925 -0.371 -0.085 100 110 102
56.9511 -1.2917 95.8478 -0.087 -0.802 -0.591 112 119 112
57.9961 -0.9179 98.5433 0.009 -0.534 -0.845 103 111 100
58.1404 -0.9131 98.5927 0.516 -0.159 -0.842 95 103 92
58.2812 -0.8929 98.7483 0.242 -0.625 -0.742 100 108 97
58.4713 -1.1044 97.3136 0.469 -0.562 -0.681 105 113 100
58.6119 -1.0929 97.4091 0.154 -0.426 -0.892 113 119 107
58.7341 -0.9831 98.1789 0.670 -0.712 -0.210 105 111 97
58.8714 -0.9455 98.4538 0.691 -0.693 -0.206 99 103 89
59.2908 -0.8565 99.1154 0.501 -0.857 -0.122 80 90 79
60.1417 -0.6650 100.5324 0.395 -0.901 -0.176 114 129 119
60.4333 -0.6580 100.6143 0.341 -0.891 -0.299 114 127 120
60.5782 -0.6396 100.7579 0.348 -0.888 -0.300 117 128 122
60.7229 -0.6118 100.9662 0.303 -0.864 -0.402 94 101 94
60.8687 -0.6012 101.0557 0.306 -0.861 -0.406 79 89 81
61.0111 -0.4261 102.2782 0.749 -0.619 -0.238 81 92 83
61.3065 -0.4205 102.3512 0.820 -0.445 -0.360 83 98 88
62.3612 -0.0828 104.7989 0.856 -0.011 -0.517 95 112 106
63.8913 0.1153 106.3397 -0.147 -0.696 -0.703 91 108 102
64.0374 0.0898 106.1808 -0.269 -0.518 -0.812 107 124 118
-21.7835 -1.9663 80.8943 -0.115 -0.492 -0.863 153 192 195
-20.8059 -1.9512 81.1130 -0.192 -0.689 -0.699 92 130 154
-20.5096 -1.9638 81.0627 -0.146 -0.649 -0.747 97 133 172
-20.2180 -1.9757 81.0161 -0.146 -0.649 -0.747 119 156 198
-19.9448 -1.9849 80.9860 -0.154 -0.611 -0.776 124 164 202
-16.4421 -2.0711 80.8142 -0.300 -0.706 -0.642 171 226 246
-16.6153 -2.0097 81.2117 -0.490 -0.215 -0.845 168 224 242
-15.5366 -2.1165 80.6127 -0.490 -0.215 -0.845 159 211 225
-15.0323 -2.1647 80.3443 -0.423 -0.133 -0.896 127 176 191
-14.7223 -2.1815 80.2660 -0.215 0.165 -0.962 152 200 214
-14.5011 -2.1841 80.2748 -0.246 0.159 -0.956 162 211 226
-14.1978 -2.2001 80.2017 0.085 0.322 -0.943 157 206 220
-13.7356 -2.2423 79.9691 0.698 -0.244 -0.674 160 208 222
-13.5395 -2.2411 80.0010 0.696 -0.272 -0.665 139 187 201
-13.3871 -2.2326 80.0766 0.411 -0.240 -0.880 127 174 190
-13.3121 -2.2114 80.2300 0.501 -0.065 -0.863 123 169 185
-13.1672 -2.2017 80.3134 0.501 -0.065 -0.863 121 166 185
-12.9642 -2.2016 80.3381 0.168 -0.346 -0.923 127 174 194
-12.3284 -2.2061 80.3832 0.122 -0.377 -0.918 147 193 217
-10.9567 -2.1990 80.5939 0.297 -0.491 -0.819 141 186 217
-6.4603 -2.5696 78.6027 -0.090 -0.938 -0.335 161 207 223
-6.0240 -2.5788 78.5918 -0.217 -0.909 -0.355 158 204 220
-4.9133 -2.6066 78.5349 -0.116 -0.857 -0.503 175 218 242
-4.6740 -2.6154 78.5030 -0.110 -0.856 -0.505 181 224 245
-4.3708 -2.6359 78.3991 -0.172 -0.833 -0.525 183 226 246
-4.1048 -2.6498 78.3359 -0.203 -0.832 -0.516 176 218 236
-2.3758 -2.7260 78.0222 -0.049 -0.899 -0.435 129 167 180
4.2811 -2.9608 77.2126 -0.266 0.224 -0.938 139 172 179
5.0721 -2.9784 77.1866 0.041 0.212 -0.976 137 167 175
5.1876 -2.9660 77.2848 0.014 0.130 -0.991 136 166 175
5.2806 -2.9490 77.4122 0.052 -0.088 -0.995 136 166 174
5.4342 -2.8711 77.9607 0.207 -0.555 -0.806 136 169 176
5.4310 -2.8335 78.2164 0.313 -0.611 -0.727 136 169 176
5.5556 -2.8226 78.3056 0.321 -0.620 -0.715 136 169 176
5.7023 -2.8163 78.3660 0.321 -0.620 -0.715 134 169 175
5.9730 -2.8362 78.2626 0.289 -0.493 -0.821 135 170 176
6.6235 -2.9368 77.6541 0.044 0.095 -0.995 135 168 175
6.8075 -2.9389 77.6619 0.044 0.095 -0.995 136 169 176
6.9859 -2.9398 77.6769 0.035 0.103 -0.994 138 169 174
7.1333 -2.9341 77.7329 0.272 0.118 -0.955 137 168 173
7.3001 -2.9326 77.7630 0.691 0.325 -0.646 137 168 173
7.3273 -2.7876 78.7541 0.604 -0.160 -0.781 142 172 180
7.4768 -2.7820 78.8099 0.515 -0.214 -0.830 142 172 180
7.6206 -2.7752 78.8734 0.435 -0.134 -0.890 141 170 178
8.8763 -2.8220 78.7036 0.295 -0.080 -0.952 137 167 177
9.0309 -2.8179 78.7501 0.305 -0.070 -0.950 139 169 180
9.4408 -2.8712 78.4357 0.137 -0.288 -0.948 141 171 182
9.5635 -2.8601 78.5259 0.117 -0.326 -0.938 143 173 184
9.7602 -2.8657 78.5111 0.062 -0.259 -0.964 145 175 186
10.3574 -2.8454 78.7200 -0.064 -0.480 -0.875 144 172 186
10.5224 -2.8440 78.7492 0.371 -0.478 -0.796 144 172 188
10.6537 -2.8348 78.8275 0.386 -0.484 -0.786 147 174 191
10.7949 -2.8279 78.8912 0.066 -0.577 -0.814 147 175 191
10.9451 -2.8231 78.9418 0.050 -0.572 -0.819 147 174 191
11.3178 -2.8702 78.6651 0.191 -0.872 -0.451 147 175 191
11.9232 -2.8529 78.8550 0.259 -0.872 -0.415 142 174 188
11.8506 -2.7954 79.2379 0.081 -0.699 -0.710 141 173 188
12.0211 -2.7955 79.2576 0.081 -0.699 -0.710 141 173 188
12.2020 -2.7981 79.2611 0.134 -0.687 -0.714 141 173 186
12.5017 -2.8293 79.0842 0.550 -0.295 -0.781 141 173 186
12.5913 -2.8102 79.2252 0.622 -0.389 -0.680 143 172 184
12.6978 -2.7950 79.3410 0.659 -0.385 -0.646 144 172 185
12.8091 -2.7810 79.4498 0.654 -0.377 -0.655 143 173 186
12.9419 -2.7721 79.5260 0.622 -0.407 -0.669 143 173 186
13.0610 -2.7599 79.6234 0.598 -0.394 -0.698 143 173 184
13.1762 -2.7467 79.7271 0.611 -0.366 -0.702 143 173 183
13.2956 -2.7345 79.8246 0.611 -0.366 -0.702 144 174 182
13.7794 -2.8121 79.3533 0.044 -0.879 -0.475 146 175 181
14.8293 -2.6962 80.2672 0.694 -0.054 -0.718 146 175 179
14.9675 -2.6886 80.3355 0.719 -0.044 -0.693 148 177 181
15.8698 -2.8771 79.1587 0.322 -0.887 -0.331 147 176 180
15.9921 -2.8661 79.2482 0.322 -0.887 -0.331 147 176 180
20.3189 -2.7542 80.5237 0.175 -0.985 -0.009 137 170 175
27.6691 -2.1058 85.8132 0.481 -0.861 -0.166 172 204 219
28.5184 -2.0630 86.2052 -0.022 -0.506 -0.862 187 223 242
28.4191 -1.9638 86.8697 -0.210 -0.419 -0.883 189 226 244
29.6641 -1.9472 87.1302 0.573 -0.736 -0.361 117 151 176
30.5393 -1.9126 87.4696 0.560 -0.406 -0.722 135 171 193
32.9502 -1.8559 88.1422 0.729 -0.645 -0.230 193 231 240
33.1479 -1.8025 88.5295 0.548 -0.718 -0.430 187 207 220
34.3632 -1.7803 88.8252 0.276 -0.684 -0.676 166 184 193
35.4466 -1.6952 89.5330 0.055 -0.831 -0.553 204 236 255
35.6065 -1.6966 89.5425 0.044 -0.852 -0.522 200 236 255
35.4598 -1.5440 90.5651 0.635 -0.756 -0.160 198 236 255
36.7270 -1.5449 90.7091 0.424 -0.905 -0.007 173 203 224
39.3951 -1.0774 94.2102 -0.768 -0.474 -0.432 192 223 211
39.6765 -1.1528 93.7304 -0.768 -0.472 -0.432 194 221 214
41.6967 -1.1321 94.1108 0.988 -0.149 -0.051 102 120 127
41.7963 -1.0926 94.3915 0.988 0.025 -0.154 99 119 126
41.8131 -0.9951 95.0581 0.989 0.019 -0.144 106 126 133
56.9917 -1.2226 95.3097 -0.617 -0.679 -0.396 115 122 114
58.6332 -0.9694 97.2291 0.373 -0.683 -0.627 108 116 104
60.5931 -0.4313 101.1277 0.639 -0.679 -0.360 125 136 130
60.7383 -0.3974 101.3757 0.644 -0.674 -0.361 128 134 130
60.8841 -0.3629 101.6281 0.663 -0.663 -0.349 127 134 128
61.0305 -0.3329 101.8496 0.663 -0.663 -0.349 98 109 101
61.1775 -0.3124 102.0071 0.803 -0.430 -0.412 92 104 94
61.3248 -0.2912 102.1690 0.832 -0.396 -0.387 95 107 97
61.6188 -0.3221 101.9931 0.695 -0.660 -0.287 120 133 124
61.7668 -0.2830 102.2774 0.698 -0.659 -0.280 115 128 120
61.9155 -0.2444 102.5574 0.673 -0.703 -0.230 94 111 106
62.2214 -0.0642 103.8215 0.593 -0.759 -0.269 100 116 113
63.2906 0.1558 105.4469 0.546 -0.795 -0.264 108 125 119
63.4453 0.1865 105.6745 0.546 -0.795 -0.264 86 103 97
63.6001 0.2150 105.8869 0.585 -0.762 -0.278 71 88 82
64.0521 0.2188 105.9667 -0.234 -0.517 -0.823 97 114 106
-22.0074 -1.7946 80.8271 -0.121 -0.496 -0.860 141 180 188
-21.7262 -1.8047 80.7933 -0.121 -0.496 -0.860 127 167 179
-21.3955 -1.7563 81.1600 -0.244 -0.579 -0.778 155 195 214
-21.0510 -1.7763 81.0668 -0.244 -0.579 -0.778 100 141 158
-20.7077 -1.7964 80.9738 -0.235 -0.585 -0.776 102 142 172
-16.2418 -1.9366 80.5729 -0.300 -0.706 -0.642 171 228 247
-15.6900 -1.9927 80.2621 0.770 -0.250 -0.586 169 225 242
-16.0459 -1.9009 80.8376 -0.501 -0.224 -0.836 170 226 241
-15.0188 -2.0014 80.2853 -0.428 -0.142 -0.893 125 177 191
-14.7810 -2.0068 80.2784 -0.212 0.168 -0.963 150 199 214
-14.5439 -2.0120 80.2717 -0.266 0.162 -0.950 157 206 221
-14.2070 -2.0339 80.1654 0.062 0.320 -0.945 152 201 216
-13.8518 -2.0590 80.0398 0.382 0.137 -0.914 151 198 214
-13.3947 -2.1012 79.8111 0.319 -0.391 -0.863 134 181 197
-13.3726 -2.0710 80.0170 0.260 -0.413 -0.873 127 174 190
-13.3075 -2.0480 80.1804 0.242 -0.378 -0.894 122 169 187
-5.8188 -2.4928 78.0957 -0.141 -0.929 -0.342 173 216 231
-4.7316 -2.4833 78.2927 -0.128 -0.837 -0.532 149 190 209
-4.4877 -2.4932 78.2551 -0.110 -0.856 -0.505 142 182 198
-4.1766 -2.5157 78.1420 -0.178 -0.829 -0.530 134 174 189
-3.8989 -2.5321 78.0651 -0.203 -0.832 -0.516 129 168 181
-3.5567 -2.5606 77.9149 -0.184 -0.896 -0.403 129 169 178
-3.0804 -2.6141 77.6124 -0.020 -0.981 -0.193 129 170 179
-2.6385 -2.6271 77.5789 -0.023 -0.985 -0.173 129 169 177
-1.5609 -2.6208 77.7527 0.147 -0.958 -0.246 140 173 187
2.5781 -2.7187 77.5975 0.082 0.146 -0.986 136 170 180
2.7625 -2.7197 77.6127 0.082 0.146 -0.986 138 170 180
3.4598 -2.7163 77.7211 -0.055 0.098 -0.994 139 170 175
3.9036 -2.7707 77.4082 -0.213 0.287 -0.934 142 173 178
4.1387 -2.7826 77.3566 -0.220 0.281 -0.934 141 172 177
4.3607 -2.7920 77.3207 -0.177 0.284 -0.942 140 171 176
4.5545 -2.7956 77.3201 -0.126 0.174 -0.977 137 168 173
4.8073 -2.8115 77.2437 0.008 0.312 -0.950 137 168 173
4.9754 -2.8099 77.2750 0.014 0.163 -0.987 137 168 173
5.1444 -2.8085 77.3048 0.014 0.130 -0.991 134 165 170
5.2862 -2.8015 77.3695 0.097 -0.084 -0.992 132 163 168
5.4559 -2.8003 77.3982 0.194 -0.151 -0.969 131 162 167
5.5909 -2.7918 77.4717 0.221 -0.199 -0.955 133 163 171
5.7666 -2.7920 77.4922 0.372 -0.228 -0.900 136 166 174
5.9002 -2.7832 77.5675 0.367 -0.223 -0.903 135 165 173
6.0377 -2.7753 77.6378 0.363 -0.229 -0.903 135 165 173
6.1715 -2.7665 77.7131 0.359 -0.243 -0.901 134 167 174
6.3441 -2.7660 77.7373 0.246 -0.220 -0.944 135 168 175
6.6209 -2.7880 77.6229 0.029 0.149 -0.988 136 169 176
6.7639 -2.7814 77.6853 0.035 0.103 -0.994 140 173 178
6.9490 -2.7838 77.6917 0.035 0.103 -0.994 143 174 179
7.0887 -2.7764 77.7584 0.287 0.138 -0.948 146 177 182
6.9224 -2.7024 78.2366 0.460 0.532 -0.711 146 177 182
8.3242 -2.6660 78.6526 -0.025 0.048 -0.999 129 157 168
8.5164 -2.6703 78.6475 -0.025 0.048 -0.999 130 159 170
9.3917 -2.7512 78.2091 0.176 0.514 -0.840 131 163 176
10.1375 -2.7259 78.4702 0.021 0.044 -0.999 141 173 188
9.9843 -2.6508 78.9573 0.001 -0.542 -0.840 141 173 188
10.1841 -2.6573 78.9379 0.014 -0.551 -0.835 141 173 188
10.3334 -2.6522 78.9910 0.071 -0.765 -0.640 141 173 188
10.5057 -2.6524 79.0105 0.071 -0.765 -0.640 143 175 192
11.2640 -2.6700 78.9839 0.061 -0.675 -0.735 143 175 192
11.5257 -2.6918 78.8692 0.333 -0.827 -0.452 143 176 193
11.6684 -2.6853 78.9301 0.343 -0.825 -0.450 143 176 193
11.7913 -2.6741 79.0206 0.205 -0.751 -0.628 141 174 192
12.1452 -2.7184 78.7652 -0.076 -0.314 -0.946 141 174 192
12.1004 -2.6669 79.1070 0.104 -0.505 -0.857 139 172 190
12.2680 -2.6665 79.1304 0.196 -0.542 -0.817 139 172 189
12.4725 -2.6750 79.0975 0.529 -0.253 -0.810 140 173 189
13.2217 -2.5681 79.9094 0.087 -0.534 -0.841 143 176 185
17.3225 -2.5473 80.5498 0.623 0.149 -0.768 145 175 186
17.7183 -2.5199 80.7821 0.522 0.241 -0.818 145 173 185
17.8463 -2.5097 80.8667 0.522 0.241 -0.818 145 173 185
17.9744 -2.4995 80.9514 0.522 0.241 -0.818 146 173 186
18.4927 -2.5980 80.3506 0.746 -0.236 -0.623 147 173 186
18.3937 -2.5245 80.8335 0.601 -0.274 -0.751 146 172 185
18.5275 -2.5160 80.9075 0.595 -0.285 -0.752 146 173 184
18.7158 -2.5228 80.8847 0.461 -0.631 -0.624 148 173 186
19.8494 -2.6135 80.4112 0.088 -0.791 -0.605 144 176 179
19.9135 -2.5853 80.6093 0.135 -0.732 -0.667 143 175 178
20.0104 -2.5664 80.7484 0.175 -0.757 -0.629 143 174 177
21.8247 -2.5784 80.8890 0.192 -0.973 -0.131 136 167 170
27.6350 -2.0027 85.4762 0.422 -0.889 -0.177 167 199 214
28.0626 -1.9223 86.0702 0.570 -0.761 -0.310 162 194 209
28.3785 -1.9204 86.1217 -0.003 -0.465 -0.885 171 205 222
28.5288 -1.9165 86.1658 0.419 -0.175 -0.891 191 227 246
29.7612 -1.8989 86.4352 0.227 -0.787 -0.574 113 147 172
29.7362 -1.8247 86.9315 0.632 -0.700 -0.332 114 148 173
29.8583 -1.8095 87.0494 0.499 -0.725 -0.475 108 142 167
29.9835 -1.7953 87.1598 0.494 -0.717 -0.491 171 205 230
30.1490 -1.7976 87.1645 -0.204 -0.687 -0.697 159 193 218
30.4775 -1.8014 87.1789 -0.206 -0.596 -0.776 105 141 165
30.5443 -1.7630 87.4460 0.627 -0.388 -0.675 125 161 183
31.4118 -1.7252 87.8066 0.471 -0.795 -0.381 147 183 204
33.0030 -1.7280 87.9818 0.750 -0.621 -0.228 199 237 246
33.1977 -1.6729 88.3767 0.548 -0.718 -0.430 177 199 212
33.3070 -1.6505 88.5410 0.568 -0.720 -0.398 162 176 189
33.6823 -1.6044 88.8977 0.232 -0.711 -0.664 173 187 196
33.8365 -1.6024 88.9293 0.236 -0.707 -0.666 221 240 245
33.9906 -1.6006 88.9607 0.153 -0.747 -0.647 198 218 225
34.3937 -1.6424 88.7279 0.419 -0.738 -0.529 166 184 196
35.5021 -1.5698 89.3522 0.046 -0.852 -0.522 205 237 254
35.6601 -1.5705 89.3671 0.046 -0.852 -0.522 200 236 254
36.9119 -1.5720 89.5093 0.752 -0.217 -0.622 201 237 251
37.0122 -1.5425 89.7201 0.731 -0.537 -0.421 170 200 220
36.9740 -1.4382 90.4183 0.437 -0.899 -0.031 134 157 183
39.4324 -0.9402 94.0736 -0.769 -0.468 -0.436 192 222 209
41.7661 -0.9111 94.5546 0.997 -0.057 -0.053 93 112 119
41.8203 -0.8385 95.0505 0.990 0.021 -0.143 100 119 126
41.9095 -0.7896 95.3909 0.498 -0.810 -0.310 104 124 133
42.0436 -0.7721 95.5249 0.939 0.008 -0.344 102 125 133
42.0387 -0.6542 96.3185 0.932 0.238 -0.272 102 125 133
54.6390 -0.9064 96.1554 0.762 0.602 -0.238 108 107 119
55.9495 -1.2766 93.8205 0.656 -0.754 0.019 101 112 104
56.0496 -1.1735 94.5274 0.657 -0.753 0.018 101 112 104
57.7699 -0.7436 97.6338 0.671 -0.742 -0.003 92 102 93
57.9192 -0.7635 97.5184 0.534 -0.841 -0.089 87 97 88
58.0541 -0.7245 97.7972 0.478 -0.863 -0.162 115 125 116
58.1811 -0.6476 98.3313 -0.112 -0.954 -0.279 116 126 117
58.3292 -0.6617 98.2539 -0.117 -0.951 -0.286 114 124 115
58.5124 -0.8501 97.0070 0.400 -0.679 -0.615 122 132 123
58.6532 -0.8405 97.0885 0.372 -0.692 -0.619 108 115 106
58.7917 -0.8180 97.2570 0.345 -0.711 -0.613 98 104 94
59.7441 -0.4194 100.0592 0.255 -0.914 -0.314 114 125 117
60.4671 -0.3274 100.7670 0.657 -0.622 -0.425 120 133 126
60.7571 -0.2648 101.2245 0.660 -0.591 -0.464 103 109 107
60.9030 -0.2378 101.4241 0.660 -0.650 -0.376 83 89 85
61.0494 -0.2191 101.5679 0.619 -0.661 -0.423 85 92 87
61.1960 -0.1788 101.8572 0.806 -0.410 -0.426 90 100 92
61.3432 -0.1485 102.0797 0.822 -0.424 -0.381 92 102 94
61.4894 -0.2342 101.5196 0.764 -0.588 -0.266 98 108 100
61.6365 -0.1987 101.7773 0.600 -0.754 -0.268 101 111 105
61.7843 -0.1626 102.0380 0.698 -0.659 -0.280 103 112 107
63.3044 0.2693 105.1336 0.546 -0.795 -0.264 112 129 123
63.4587 0.3001 105.3601 0.546 -0.795 -0.264 96 113 107
-21.9641 -1.6307 80.7389 -0.113 -0.496 -0.861 129 171 186
-15.6795 -1.8286 80.2058 0.770 -0.250 -0.586 167 223 240
-15.5730 -1.8122 80.3287 0.768 -0.254 -0.588 161 214 230
-15.4450 -1.7993 80.4308 -0.372 -0.209 -0.905 133 185 199
-14.8002 -1.8382 80.2516 -0.223 -0.197 -0.955 151 200 215
-14.7111 -1.8189 80.3917 -0.253 0.151 -0.956 159 208 223
-13.4133 -1.9343 79.7848 0.183 -0.509 -0.841 133 180 198
-13.4012 -1.9021 80.0007 0.284 -0.333 -0.899 129 176 195
-13.2980 -1.8853 80.1259 0.298 -0.365 -0.882 124 171 191
-13.1205 -1.8810 80.1765 0.231 -0.387 -0.893 128 174 197
-11.6552 -1.9250 80.0668 -0.114 -0.818 -0.564 97 141 166
-6.1387 -2.3473 77.9412 -0.113 -0.943 -0.313 180 221 236
-4.5550 -2.3598 78.0564 -0.144 -0.823 -0.550 133 171 184
-4.2981 -2.3725 78.0039 -0.144 -0.818 -0.557 133 171 184
-4.2448 -2.3474 78.1776 -0.150 -0.391 -0.908 133 171 182
-3.9950 -2.3589 78.1323 -0.156 -0.396 -0.905 132 170 181
-2.8300 -2.4020 77.9905 0.323 -0.536 -0.779 136 174 185
-2.2878 -2.4344 77.8425 0.232 -0.606 -0.761 138 171 185
-2.1255 -2.4300 77.8920 0.235 -0.536 -0.810 138 170 184
-2.0251 -2.4138 78.0126 -0.146 -0.468 -0.871 139 171 184
-1.8000 -2.4215 77.9897 -0.142 -0.477 -0.867 141 174 185
0.0660 -2.4987 77.7083 -0.328 -0.601 -0.729 136 169 177
0.2674 -2.5025 77.7082 -0.284 -0.675 -0.681 136 169 178
0.7516 -2.5623 77.3701 -0.128 -0.464 -0.877 136 169 177
0.8624 -2.5484 77.4764 -0.096 -0.681 -0.726 138 168 176
1.0575 -2.5513 77.4818 -0.002 -0.755 -0.656 138 169 176
1.0653 -2.5168 77.7124 -0.055 -0.869 -0.491 140 170 177
1.4174 -2.5511 77.5280 0.133 -0.832 -0.538 138 169 176
1.5418 -2.5399 77.6181 0.148 -0.880 -0.451 137 170 177
1.7037 -2.5362 77.6628 0.170 -0.879 -0.446 137 172 179
1.8606 -2.5316 77.7135 0.170 -0.879 -0.446 137 171 179
2.0247 -2.5284 77.7552 0.162 -0.876 -0.454 136 170 179
2.2006 -2.5276 77.7824 0.110 -0.861 -0.497 135 169 178
2.3836 -2.5283 77.8006 0.064 -0.866 -0.496 135 168 176
2.5325 -2.5221 77.8606 -0.159 0.024 -0.987 136 169 176
2.7006 -2.5198 77.8968 -0.067 -0.003 -0.998 139 169 177
2.9409 -2.5324 77.8428 0.019 0.087 -0.996 141 170 176
3.1901 -2.5470 77.7770 -0.039 0.159 -0.986 143 172 178
3.4162 -2.5569 77.7393 -0.055 0.098 -0.994 141 170 176
3.6102 -2.5602 77.7413 -0.103 0.093 -0.990 139 168 174
4.0615 -2.6172 77.4180 -0.232 0.268 -0.935 140 169 175
4.2996 -2.6300 77.3622 -0.192 0.302 -0.934 144 173 179
4.5163 -2.6385 77.3329 -0.130 0.238 -0.962 146 175 181
4.7378 -2.6481 77.2967 0.008 0.312 -0.950 145 174 180
4.9276 -2.6511 77.3005 0.014 0.163 -0.987 149 178 184
5.1045 -2.6514 77.3206 0.005 0.127 -0.992 149 178 184
5.2700 -2.6493 77.3550 0.097 -0.084 -0.992 146 175 181
5.4479 -2.6499 77.3732 0.194 -0.151 -0.969 145 174 180
5.5882 -2.6425 77.4400 0.221 -0.199 -0.955 145 174 180
5.7317 -2.6359 77.5025 0.359 -0.243 -0.901 146 176 184
5.8793 -2.6300 77.5598 0.359 -0.243 -0.901 146 176 184
6.0269 -2.6242 77.6171 0.359 -0.243 -0.901 140 170 178
6.1744 -2.6184 77.6743 0.359 -0.243 -0.901 133 163 171
6.3418 -2.6169 77.7054 0.192 -0.091 -0.977 125 155 163
6.5517 -2.6246 77.6800 0.020 0.145 -0.989 118 148 156
6.7395 -2.6276 77.6833 0.020 0.145 -0.989 106 137 142
6.9031 -2.6254 77.7184 0.058 0.197 -0.979 101 132 137
7.1204 -2.5969 77.9360 0.566 0.661 -0.493 90 121 126
8.7949 -2.5455 78.4880 -0.180 -0.826 -0.534 128 161 174
9.0961 -2.5355 78.5921 0.100 -0.978 -0.181 131 165 180
10.4197 -2.5241 78.8335 0.072 -0.771 -0.633 133 170 185
10.7687 -2.5259 78.8653 -0.076 -0.812 -0.579 133 169 185
10.9514 -2.5288 78.8687 -0.093 -0.816 -0.571 128 164 183
11.0902 -2.5213 78.9362 -0.035 -0.869 -0.494 134 169 187
11.3293 -2.5378 78.8559 0.086 -0.673 -0.735 137 172 191
11.8782 -2.5476 78.8596 0.215 -0.765 -0.607 134 169 189
12.1570 -2.5743 78.7164 -0.076 -0.314 -0.946 135 170 190
12.1610 -2.5341 78.9847 0.147 -0.500 -0.854 138 173 192
12.3190 -2.5314 79.0224 0.230 -0.509 -0.830 136 171 190
12.4793 -2.5293 79.0564 0.529 -0.253 -0.810 132 168 186
13.0111 -2.4094 79.9221 0.871 -0.111 -0.478 137 171 183
14.0798 -2.4667 79.6738 0.459 -0.724 -0.515 150 183 192
14.8091 -2.3513 80.5343 0.106 -0.941 -0.320 141 170 174
15.2697 -2.2054 81.5645 0.281 -0.894 -0.349 141 172 177
15.4217 -2.2009 81.6139 0.294 -0.896 -0.333 142 173 177
18.1079 -2.5269 79.7763 0.567 -0.093 -0.818 148 176 188
18.2144 -2.5112 79.8945 0.568 -0.091 -0.818 148 176 188
18.3352 -2.4994 79.9882 0.804 -0.252 -0.538 147 173 186
18.4320 -2.4808 80.1242 0.804 -0.252 -0.538 146 172 185
18.5285 -2.4158 80.5694 0.719 -0.380 -0.582 146 172 186
18.7413 -2.3832 80.8132 0.733 -0.331 -0.594 147 173 188
18.8460 -2.3664 80.9389 0.755 -0.330 -0.567 147 173 187
18.9498 -2.3491 81.0669 0.755 -0.330 -0.567 147 174 185
19.1273 -2.3531 81.0626 0.742 -0.176 -0.647 145 174 183
19.2358 -2.3371 81.1826 0.742 -0.176 -0.647 145 174 181
19.6152 -2.3046 81.4471 0.433 -0.360 -0.826 145 174 181
19.7564 -2.2980 81.5086 0.537 -0.358 -0.764 145 175 183
20.4908 -2.3709 81.1145 0.841 -0.287 -0.459 144 173 181
20.4786 -2.3187 81.4605 0.787 -0.500 -0.362 144 173 181
21.1598 -2.4746 80.5068 0.065 -0.977 -0.202 143 172 180
21.3016 -2.4690 80.5617 0.081 -0.978 -0.190 145 174 182
24.0654 -2.2299 82.5014 0.166 -0.778 -0.606 140 170 181
24.2167 -2.2271 82.5391 0.166 -0.778 -0.606 142 172 182
24.3885 -2.2311 82.5337 0.305 -0.812 -0.497 143 173 183
28.4995 -1.7546 86.2242 0.808 -0.482 -0.339 192 228 246
30.0235 -1.6602 87.0437 0.498 -0.717 -0.488 173 207 234
30.1693 -1.6545 87.1001 -0.153 -0.691 -0.707 139 173 200
30.3363 -1.6577 87.1000 -0.204 -0.581 -0.788 110 144 169
31.4728 -1.5996 87.6291 0.463 -0.798 -0.386 150 186 208
32.0962 -1.6646 87.2740 0.319 -0.851 -0.418 194 236 252
32.9196 -1.5380 88.2203 0.014 -0.763 -0.647 204 240 250
33.1214 -1.5582 88.1109 0.572 -0.718 -0.397 210 240 252
33.2397 -1.5400 88.2472 0.578 -0.699 -0.422 160 184 196
33.3600 -1.5226 88.3783 0.576 -0.694 -0.431 153 171 185
33.5232 -1.5252 88.3816 0.662 -0.558 -0.501 156 171 183
33.7473 -1.4821 88.6968 0.253 -0.654 -0.713 167 185 195
33.8926 -1.4761 88.7547 0.257 -0.661 -0.705 229 249 255
34.0415 -1.4719 88.8013 0.265 -0.667 -0.696 197 216 226
34.4884 -1.5358 88.4312 0.593 -0.547 -0.591 163 181 193
35.7225 -1.4492 89.1630 -0.001 -0.858 -0.513 198 235 253
35.6009 -1.3062 90.1008 0.354 -0.915 -0.192 198 236 255
36.9359 -1.4319 89.4298 0.821 -0.434 -0.371 205 240 251
39.5441 -0.8501 93.6346 -0.766 -0.439 -0.471 191 221 212
41.7743 -0.7559 94.5416 0.997 -0.057 -0.053 70 89 96
41.6854 -0.5807 95.6983 0.991 -0.020 -0.130 84 103 110
56.0613 -1.0200 94.5674 0.989 -0.072 -0.126 119 130 122
57.9520 -0.6833 97.0485 0.534 -0.842 -0.083 93 103 94
58.5310 -0.7137 96.9179 0.086 -0.673 -0.735 112 122 113
58.6734 -0.7132 96.9395 0.387 -0.682 -0.620 100 110 101
59.5065 -0.5591 98.0705 0.499 -0.862 -0.086 95 105 97
59.6207 -0.3130 99.7252 0.240 -0.919 -0.312 97 108 100
59.7656 -0.3061 99.7897 0.258 -0.912 -0.320 107 117 108
60.1989 -0.2647 100.1194 0.559 -0.689 -0.461 102 115 106
60.3419 -0.2251 100.4015 0.755 -0.466 -0.462 103 119 109
60.4866 -0.2045 100.5570 0.797 -0.325 -0.509 103 116 109
60.9217 -0.1084 101.2521 0.797 -0.482 -0.363 91 97 93
61.0678 -0.0750 101.4932 0.793 -0.489 -0.362 76 82 77
61.2143 -0.0322 101.7965 0.815 -0.464 -0.348 95 102 95
61.3616 0.0023 102.0446 0.840 -0.413 -0.351 101 108 101
61.5073 -0.1091 101.3207 0.778 -0.473 -0.414 109 116 109
61.8018 -0.0391 101.8242 0.705 -0.650 -0.281 105 112 107
62.8490 0.1924 103.4982 0.432 -0.886 -0.169 103 118 113
63.9423 0.5372 105.9333 -0.114 -0.702 -0.703 109 126 118
-21.8869 -1.4723 80.6200 -0.110 -0.480 -0.871 161 206 227
-21.6500 -1.4759 80.6265 -0.054 -0.521 -0.852 167 212 236
-19.8873 -1.5196 80.5643 -0.113 -0.549 -0.828 139 186 210
-16.1624 -1.6850 79.9510 -0.122 -0.324 -0.938 171 226 247
-15.8839 -1.6629 80.1324 -0.291 -0.719 -0.631 167 221 239
-15.8692 -1.6310 80.3447 -0.082 -0.766 -0.638 164 217 234
-15.3657 -1.6465 80.3069 -0.077 -0.757 -0.648 131 180 197
-13.9867 -1.7071 80.0837 -0.155 -0.646 -0.747 138 185 203
-13.5244 -1.7514 79.8507 -0.148 -0.623 -0.768 136 183 203
-13.5232 -1.7170 80.0778 0.161 -0.423 -0.892 130 176 199
-13.3317 -1.7152 80.1146 0.176 -0.399 -0.900 125 171 194
-4.4140 -2.2304 77.8597 -0.136 -0.825 -0.549 132 170 178
-4.1815 -2.2388 77.8339 -0.122 -0.820 -0.559 133 170 180
-4.2380 -2.1929 78.1294 -0.144 -0.387 -0.911 132 168 180
-0.9034 -2.3348 77.6206 0.115 0.089 -0.989 140 173 179
0.0733 -2.3476 77.6613 -0.243 -0.614 -0.751 136 169 174
0.4029 -2.3772 77.5089 -0.179 -0.490 -0.853 133 166 171
0.7501 -2.4104 77.3340 -0.164 -0.368 -0.915 136 167 170
1.1037 -2.4452 77.1498 -0.014 0.014 -1.000 137 168 171
1.2930 -2.4472 77.1613 0.039 0.014 -0.999 138 169 173
1.3568 -2.4238 77.3236 0.124 -0.846 -0.518 138 169 172
1.5356 -2.4236 77.3477 0.115 -0.845 -0.523 137 168 171
1.6751 -2.4155 77.4190 0.148 -0.880 -0.451 136 169 174
1.8341 -2.4114 77.4668 0.170 -0.879 -0.446 139 172 177
2.1536 -2.4034 77.5602 0.162 -0.876 -0.454 142 177 181
2.3250 -2.4019 77.5923 0.110 -0.861 -0.497 145 180 184
2.5153 -2.4042 77.6011 0.064 -0.866 -0.496 144 177 183
2.4945 -2.3630 77.8706 -0.159 0.024 -0.987 144 175 180
2.6612 -2.3604 77.9088 -0.067 -0.008 -0.998 135 166 171
2.8960 -2.3721 77.8620 0.011 0.102 -0.995 131 159 166
3.1383 -2.3854 77.8052 -0.039 0.159 -0.986 126 153 160
3.3708 -2.3968 77.7597 -0.063 0.089 -0.994 124 151 158
3.5656 -2.4004 77.7610 -0.103 0.093 -0.990 112 139 146
3.9786 -2.4500 77.4865 -0.232 0.268 -0.935 99 126 133
4.2147 -2.4626 77.4338 -0.192 0.302 -0.934 88 115 122
4.4490 -2.4749 77.3825 -0.130 0.238 -0.962 90 117 124
4.6613 -2.4827 77.3585 -0.005 0.382 -0.924 82 109 116
4.8725 -2.4903 77.3354 0.013 0.141 -0.990 78 106 110
5.0581 -2.4925 77.3447 0.003 0.130 -0.992 70 97 104
5.4193 -2.4950 77.3749 0.140 -0.153 -0.978 58 87 93
5.5855 -2.4931 77.4082 0.221 -0.199 -0.955 51 80 86
6.4848 -2.4612 77.7338 0.020 0.323 -0.946 45 74 82
6.8385 -2.4626 77.7701 0.070 0.307 -0.949 59 89 97
8.3017 -2.3627 78.6165 -0.020 0.046 -0.999 130 163 178
10.1433 -2.3913 78.6636 -0.080 -0.728 -0.681 157 196 211
10.4998 -2.3950 78.6852 0.072 -0.771 -0.633 160 202 218
11.0704 -2.4095 78.6625 -0.076 -0.812 -0.579 158 198 215
11.2156 -2.4036 78.7200 -0.035 -0.869 -0.494 162 201 218
11.3864 -2.4039 78.7399 0.086 -0.673 -0.735 162 200 215
11.9511 -2.4180 78.7195 0.204 -0.759 -0.619 156 193 211
12.1843 -2.4339 78.6444 -0.069 -0.302 -0.951 151 188 206
12.1815 -2.3916 78.9228 0.137 -0.426 -0.894 147 184 202
12.3560 -2.3931 78.9356 0.220 -0.530 -0.819 149 186 204
12.4874 -2.3839 79.0132 0.518 -0.286 -0.806 152 189 205
12.9477 -2.4568 78.5911 0.236 -0.795 -0.559 150 187 203
14.2107 -2.3097 79.7234 0.316 -0.898 -0.305 156 186 196
16.4590 -2.1972 80.7530 -0.738 -0.218 -0.639 141 171 181
17.0014 -2.2096 80.7409 -0.175 -0.919 -0.352 145 174 191
18.0264 -2.3585 79.8904 0.528 -0.108 -0.842 146 177 193
18.1469 -2.3465 79.9850 0.543 -0.105 -0.833 147 176 192
18.2747 -2.3365 80.0671 0.543 -0.105 -0.833 146 174 190
18.4026 -2.3265 80.1493 0.543 -0.105 -0.833 145 173 189
18.5046 -2.3092 80.2771 0.515 -0.055 -0.855 145 173 189
19.3525 -2.1762 81.2627 0.029 -0.981 -0.193 145 175 185
19.4812 -2.1659 81.3471 0.058 -0.974 -0.220 144 174 184
20.1639 -2.1749 81.3751 0.807 -0.329 -0.490 146 174 185
20.6744 -2.2798 80.7484 0.641 0.084 -0.763 146 175 183
20.7926 -2.2669 80.8491 0.641 0.084 -0.763 146 175 183
21.1071 -2.2153 81.2297 0.485 -0.282 -0.828 147 176 184
21.2276 -2.2027 81.3280 0.467 -0.287 -0.836 145 174 182
21.3619 -2.1944 81.4002 0.467 -0.287 -0.836 145 174 181
21.4766 -2.1799 81.5101 0.473 -0.283 -0.835 142 169 176
21.5824 -2.1626 81.6377 0.444 -0.164 -0.881 142 167 173
21.9624 -2.0275 82.5777 0.255 -0.738 -0.625 133 162 160
22.1194 -2.0258 82.6090 0.273 -0.751 -0.602 133 162 160
22.2540 -2.0170 82.6844 0.255 -0.738 -0.625 134 162 163
22.4444 -2.0261 82.6488 -0.206 -0.567 -0.797 130 160 162
22.5391 -2.0044 82.8040 -0.304 -0.503 -0.809 144 174 177
24.1212 -2.1017 82.3650 0.231 -0.761 -0.606 145 175 185
24.2571 -2.0938 82.4345 0.204 -0.750 -0.629 146 176 186
24.4517 -2.1057 82.3810 0.133 -0.762 -0.634 144 174 184
28.5853 -1.5743 86.4154 0.756 -0.611 -0.235 189 226 244
30.1075 -1.5437 86.8123 0.293 -0.896 -0.334 170 204 231
30.3629 -1.5173 87.0190 0.314 -0.884 -0.346 117 151 178
31.1147 -1.4990 87.2356 0.075 -0.784 -0.617 110 147 166
31.3878 -1.4799 87.3968 0.121 -0.761 -0.638 142 178 200
31.5233 -1.4698 87.4806 0.466 -0.793 -0.393 159 195 217
32.0128 -1.5464 87.0384 0.455 -0.765 -0.455 200 242 255
32.1203 -1.5242 87.1985 0.422 -0.781 -0.460 195 237 253
33.1458 -1.4175 88.0336 0.209 -0.811 -0.546 208 238 249
33.2929 -1.4127 88.0845 0.505 -0.718 -0.479 142 168 179
33.5711 -1.3954 88.2336 0.663 -0.553 -0.504 132 150 162
33.7019 -1.3828 88.3337 0.517 -0.715 -0.471 130 148 160
33.8007 -1.3548 88.5310 0.226 -0.686 -0.691 137 157 168
33.9469 -1.3494 88.5855 0.213 -0.689 -0.693 197 217 226
34.0922 -1.3436 88.6426 0.230 -0.707 -0.668 183 202 214
34.2408 -1.3394 88.6894 0.230 -0.707 -0.668 156 170 186
34.5275 -1.4029 88.3071 0.602 -0.537 -0.591 159 177 189
35.7156 -1.2113 89.7227 0.299 -0.935 -0.190 196 236 254
37.0998 -1.2836 89.4236 0.613 -0.423 -0.668 168 196 209
38.9658 -0.5268 94.6533 -0.200 -0.978 -0.056 183 213 214
41.7991 -0.6124 94.4523 0.962 -0.272 0.023 108 127 134
57.9805 -0.5873 96.6910 0.829 -0.525 -0.193 107 119 109
58.5418 -0.5386 97.0845 0.024 -0.716 -0.698 103 115 105
59.3977 -0.5404 97.1824 0.500 -0.862 -0.083 102 109 101
59.5335 -0.4897 97.5338 0.499 -0.862 -0.086 95 105 96
59.6659 -0.4030 98.1227 0.408 -0.905 -0.120 90 102 92
59.9443 -0.3189 98.7128 0.406 -0.882 -0.240 98 108 99
60.0861 -0.2942 98.8938 0.401 -0.882 -0.249 89 100 90
60.2287 -0.2757 99.0341 0.381 -0.881 -0.280 81 94 84
60.3714 -0.2546 99.1916 0.438 -0.853 -0.284 98 111 102
60.5049 -0.0611 100.4848 0.776 -0.374 -0.508 99 110 102
60.7943 0.0064 100.9672 0.742 -0.340 -0.578 111 117 112
60.9400 0.0369 101.1871 0.768 -0.338 -0.544 96 101 96
61.0862 0.0624 101.3742 0.762 -0.342 -0.549 78 83 77
61.3798 0.1296 101.8549 0.828 -0.412 -0.381 88 93 86
61.5254 0.0262 101.1914 0.751 -0.426 -0.505 88 93 86
61.6720 0.0523 101.3826 0.748 -0.447 -0.491 102 107 100
61.9735 0.2608 102.7960 0.739 -0.556 -0.380 96 103 98
62.5741 0.3743 103.6214 0.318 -0.837 -0.445 84 95 91
63.0251 0.4246 104.0111 0.358 -0.873 -0.330 123 139 136
63.1787 0.4637 104.2883 0.529 -0.806 -0.265 113 130 124
63.3291 0.4749 104.3820 0.490 -0.831 -0.264 59 76 70
63.4845 0.5198 104.6977 0.550 -0.793 -0.261 72 89 83
63.9548 0.6518 105.6285 -0.130 -0.737 -0.663 112 129 121
64.1038 0.6459 105.6091 -0.128 -0.744 -0.656 115 132 124
-18.4122 -1.4201 80.2549 -0.100 -0.683 -0.724 170 222 249
-15.7039 -1.5272 79.9113 -0.275 -0.726 -0.631 168 219 238
-15.7226 -1.4894 80.1557 -0.082 -0.766 -0.638 164 213 230
-15.4671 -1.4980 80.1331 -0.082 -0.766 -0.638 145 194 211
-15.2257 -1.5043 80.1237 -0.090 -0.764 -0.639 136 183 201
-13.2451 -1.6007 79.7542 0.059 -0.980 -0.189 128 174 197
-7.1245 -2.0276 77.7713 -0.141 -0.966 -0.217 128 166 177
-6.8522 -2.0426 77.7093 -0.186 -0.948 -0.259 123 161 172
-5.3596 -2.1437 77.2453 -0.051 -0.933 -0.356 131 168 177
-4.6029 -2.1451 77.3354 -0.245 -0.288 -0.926 131 167 176
-3.2839 -2.1836 77.2572 -0.283 -0.280 -0.917 135 170 181
-0.9320 -2.1761 77.6151 0.113 0.094 -0.989 136 170 172
-0.6100 -2.1675 77.7135 -0.151 -0.535 -0.832 137 171 173
-0.4209 -2.1688 77.7293 -0.259 -0.625 -0.736 141 174 177
0.4938 -2.2434 77.3628 -0.275 -0.646 -0.712 141 172 174
0.7490 -2.2586 77.2973 -0.223 -0.662 -0.715 142 174 174
1.0700 -2.2872 77.1524 -0.014 0.014 -1.000 143 174 174
1.2714 -2.2917 77.1496 -0.014 0.014 -1.000 138 168 169
1.4746 -2.2966 77.1442 0.124 -0.846 -0.518 132 163 163
1.6531 -2.2965 77.1682 0.115 -0.845 -0.523 124 156 156
1.7962 -2.2892 77.2348 0.132 -0.851 -0.509 113 147 148
1.9619 -2.2865 77.2739 0.186 -0.871 -0.455 103 137 139
2.2764 -2.2777 77.3726 0.170 -0.879 -0.446 85 119 121
2.4490 -2.2766 77.4029 0.110 -0.861 -0.497 76 110 112
2.6465 -2.2806 77.4024 0.064 -0.866 -0.496 70 103 106
2.4564 -2.2035 77.8806 -0.159 0.024 -0.987 63 94 97
2.6305 -2.2025 77.9099 -0.064 -0.016 -0.998 56 85 90
2.8536 -2.2119 77.8780 0.011 0.102 -0.995 54 80 88
3.0863 -2.2234 77.8334 -0.039 0.159 -0.986 57 81 91
3.3280 -2.2369 77.7768 -0.063 0.089 -0.994 56 81 88
3.5210 -2.2402 77.7807 -0.103 0.093 -0.990 60 85 92
3.8902 -2.2812 77.5619 -0.225 0.275 -0.935 66 91 98
5.4111 -2.3442 77.3501 0.140 -0.153 -0.978 78 105 112
8.2960 -2.2121 78.5906 0.011 0.103 -0.995 178 214 230
10.2060 -2.2581 78.5410 -0.075 -0.700 -0.711 189 232 248
10.4082 -2.2658 78.5173 0.072 -0.771 -0.633 189 232 248
10.5797 -2.2662 78.5373 0.072 -0.771 -0.633 190 236 250
11.4680 -2.2763 78.5878 0.057 -0.698 -0.714 196 236 252
12.0214 -2.2881 78.5834 0.204 -0.759 -0.619 205 244 253
12.1947 -2.2894 78.5977 -0.069 -0.302 -0.951 204 242 254
12.2315 -2.2566 78.8166 0.141 -0.569 -0.810 201 238 253
12.4203 -2.2618 78.8075 0.208 -0.777 -0.594 201 239 252
12.4969 -2.2387 78.9678 0.518 -0.286 -0.806 201 239 253
13.1243 -2.1413 79.6858 0.130 0.396 -0.909 206 241 251
14.0960 -2.2194 79.3040 0.319 -0.667 -0.673 100 129 138
14.2020 -2.2035 79.4216 0.309 -0.897 -0.317 99 129 139
14.3391 -2.1957 79.4903 0.320 -0.897 -0.305 109 139 150
20.3797 -2.0440 81.2724 -0.330 -0.416 -0.847 149 177 188
21.4418 -2.0728 81.2240 0.038 -0.504 -0.863 143 170 179
21.8090 -2.1376 80.8494 0.091 -0.384 -0.919 138 165 173
21.8049 -1.9841 81.8502 0.824 -0.135 -0.551 140 165 169
21.9038 -1.9642 81.9931 0.824 -0.135 -0.551 134 159 163
22.8462 -1.9565 82.1668 -0.305 -0.407 -0.861 145 174 179
22.9687 -1.9441 82.2643 -0.236 -0.594 -0.769 143 174 178
24.9826 -1.9230 82.6657 0.442 -0.753 -0.487 147 174 186
25.1071 -1.9111 82.7601 0.442 -0.753 -0.487 145 171 185
25.3563 -1.9428 82.5860 -0.035 -0.765 -0.643 143 169 184
30.4370 -1.3973 86.8119 0.319 -0.884 -0.342 111 145 172
30.7984 -1.4163 86.7354 0.578 -0.803 -0.144 109 145 171
31.0341 -1.3813 86.9943 0.290 -0.772 -0.566 131 167 189
31.3038 -1.3609 87.1633 0.081 -0.766 -0.638 166 201 223
31.4375 -1.3501 87.2512 0.121 -0.761 -0.638 144 180 202
31.5868 -1.3461 87.2964 0.474 -0.793 -0.383 158 195 216
31.7090 -1.3301 87.4169 0.533 -0.781 -0.326 186 225 243
32.1730 -1.3968 87.0425 0.510 -0.629 -0.587 195 237 253
33.9947 -1.2199 88.4360 -0.026 -0.883 -0.468 179 198 212
34.1477 -1.2179 88.4690 0.239 -0.876 -0.419 158 176 190
37.1210 -1.1421 89.3536 0.613 -0.423 -0.668 166 194 208
57.7482 -0.5880 95.6750 0.901 -0.429 -0.066 118 128 117
58.0017 -0.4615 96.5343 0.844 -0.487 -0.222 117 129 117
59.4180 -0.4193 96.9952 0.257 -0.712 -0.654 102 112 101
59.5484 -0.3262 97.6199 0.722 -0.657 -0.219 102 112 101
59.6823 -0.2483 98.1455 0.448 -0.852 -0.270 92 102 93
59.9650 -0.2062 98.4573 0.487 -0.820 -0.299 102 109 101
60.2490 -0.1646 98.7663 0.476 -0.827 -0.298 94 107 97
60.5236 0.0737 100.3572 0.766 -0.458 -0.451 99 110 102
60.6674 0.1209 100.6841 0.806 -0.338 -0.486 109 119 111
60.8124 0.1565 100.9354 0.762 -0.342 -0.549 108 115 108
60.9581 0.1861 101.1476 0.776 -0.339 -0.532 113 118 111
61.1045 0.2041 101.2841 0.544 -0.201 -0.815 93 99 90
61.2510 0.2381 101.5257 0.754 -0.373 -0.541 97 103 93
61.3981 0.2679 101.7392 0.739 -0.350 -0.576 90 93 83
61.5433 0.1552 101.0226 0.756 -0.137 -0.640 94 97 88
61.9905 0.3770 102.5285 0.843 -0.320 -0.432 82 87 81
62.1407 0.4242 102.8566 0.802 -0.368 -0.471 88 95 87
62.5921 0.5164 103.5173 0.750 -0.441 -0.494 95 105 101
62.7433 0.5447 103.7216 0.750 -0.441 -0.494 81 92 88
62.8933 0.5584 103.8309 0.299 -0.767 -0.568 83 97 94
63.0435 0.5716 103.9369 0.693 -0.533 -0.486 100 116 113
63.2002 0.6363 104.3794 0.852 -0.373 -0.366 97 114 108
63.4915 0.5889 104.1086 0.852 -0.288 -0.438 79 96 90
63.8079 0.7087 104.9318 0.758 -0.095 -0.645 77 94 86
64.1247 0.8083 105.6228 -0.149 -0.767 -0.624 112 129 121
64.2697 0.7818 105.4689 0.884 -0.251 -0.395 76 93 85
-18.4718 -1.2422 80.2637 0.093 -0.776 -0.623 168 223 246
-15.7013 -1.3967 79.6377 -0.108 -0.598 -0.794 168 221 237
-15.4399 -1.4066 79.6090 -0.103 -0.603 -0.791 167 217 234
-15.1913 -1.4144 79.5922 -0.108 -0.610 -0.785 153 200 218
-15.3721 -1.3483 79.9942 -0.068 -0.644 -0.762 140 185 204
-13.4929 -1.4637 79.5018 -0.351 -0.620 -0.702 137 182 201
-12.8606 -1.4691 79.5517 -0.029 -0.963 -0.268 113 159 180
-9.4358 -1.7288 78.3343 -0.251 -0.910 -0.330 182 218 243
-6.5607 -1.7982 78.2718 0.489 0.388 -0.781 135 168 179
-5.9804 -1.8716 77.8756 0.408 0.437 -0.802 133 167 176
-4.2673 -1.9831 77.3855 -0.382 -0.261 -0.887 135 168 173
-4.0426 -1.9905 77.3678 -0.273 -0.413 -0.869 136 168 173
-3.8030 -2.0008 77.3331 -0.202 -0.412 -0.888 135 169 174
-3.4941 -2.0247 77.2206 -0.165 -0.390 -0.906 136 169 177
-3.3819 -2.0106 77.3266 -0.200 -0.589 -0.783 138 171 179
-3.1582 -2.0181 77.3080 -0.167 -0.663 -0.730 139 172 183
-2.9450 -2.0237 77.3006 -0.147 -0.684 -0.714 140 172 184
-0.9744 -2.0143 77.6256 0.113 0.094 -0.989 141 172 174
-0.5591 -2.0246 77.6151 -0.156 -0.523 -0.838 130 161 163
-0.3413 -2.0319 77.5972 -0.244 -0.595 -0.766 121 154 155
-0.0587 -2.0524 77.5024 -0.256 -0.620 -0.742 104 134 136
0.1689 -2.0619 77.4715 -0.218 -0.812 -0.541 84 115 116
0.6133 -2.1159 77.1828 -0.262 -0.662 -0.703 65 97 96
0.8559 -2.1288 77.1320 -0.227 -0.721 -0.655 57 88 90
1.0884 -2.1397 77.0926 -0.145 -0.666 -0.732 51 82 85
1.2378 -2.1336 77.1522 -0.014 0.014 -1.000 46 77 79
1.9144 -2.1628 77.0543 0.132 -0.851 -0.509 51 85 86
2.0769 -2.1596 77.0969 0.193 -0.866 -0.460 54 87 88
2.2298 -2.1543 77.1512 0.193 -0.866 -0.460 56 87 90
2.5061 -2.1377 77.2958 0.156 -0.769 -0.620 64 94 99
3.3584 -2.0925 77.7021 -0.044 -0.059 -0.997 78 105 114
3.5357 -2.0925 77.7257 -0.038 -0.044 -0.998 78 105 114
7.2802 -2.0276 78.6468 0.504 0.495 -0.708 133 167 183
7.6287 -2.0682 78.4314 -0.141 -0.171 -0.975 150 187 204
8.2190 -2.0851 78.4019 -0.144 -0.330 -0.933 164 201 219
8.2998 -2.0636 78.5517 0.047 0.083 -0.995 166 203 221
10.6531 -2.1361 78.3988 0.085 -0.765 -0.638 182 229 248
10.8492 -2.1427 78.3827 0.062 -0.768 -0.638 182 229 248
11.5187 -2.1413 78.4814 0.026 -0.629 -0.777 189 230 249
12.0915 -2.1585 78.4476 0.204 -0.759 -0.619 189 230 249
12.2207 -2.1488 78.5275 -0.022 -0.446 -0.895 188 229 248
12.2706 -2.1189 78.7267 0.141 -0.569 -0.810 187 227 247
12.4936 -2.1330 78.6660 0.202 -0.780 -0.592 187 229 246
12.5065 -2.0935 78.9223 0.518 -0.286 -0.806 190 232 249
13.0894 -2.1998 78.3148 0.266 -0.657 -0.705 189 231 249
14.1464 -2.0854 79.1950 0.319 -0.667 -0.673 87 118 132
14.2829 -2.0775 79.2643 0.455 -0.704 -0.545 81 113 127
14.4432 -2.0759 79.2960 0.309 -0.897 -0.317 81 113 127
21.5894 -1.9222 81.2470 0.217 -0.551 -0.806 136 162 174
22.1127 -1.7799 82.2365 0.387 0.115 -0.915 132 160 162
23.7340 -1.7848 82.4219 0.539 -0.700 -0.469 147 174 184
23.8778 -1.7794 82.4763 0.522 -0.679 -0.516 147 174 186
24.1792 -1.8279 82.2033 0.219 -0.595 -0.773 147 174 184
24.2877 -1.7557 82.6843 0.449 -0.846 -0.287 152 179 189
24.3999 -1.7393 82.8051 0.487 -0.834 -0.259 149 177 189
25.6272 -1.7800 82.7073 0.356 -0.866 -0.351 143 167 179
29.8364 -1.3937 85.7659 0.285 -0.751 -0.596 173 208 225
30.0469 -1.4159 85.6510 0.296 -0.860 -0.415 187 222 237
30.4360 -1.3808 85.9297 0.040 -0.842 -0.538 167 198 225
30.6125 -1.3890 85.9004 0.083 -0.888 -0.453 149 181 206
31.3378 -1.2244 87.0610 0.258 -0.637 -0.726 163 199 221
31.4494 -1.2037 87.2096 0.220 -0.525 -0.822 142 178 200
31.7746 -1.2079 87.2262 0.528 -0.775 -0.349 185 223 241
32.2164 -1.2656 86.9125 0.475 -0.606 -0.638 196 235 252
33.0606 -1.1472 87.7901 0.005 -0.592 -0.806 204 235 246
33.3822 -1.1509 87.8097 0.243 -0.725 -0.644 129 157 169
33.5238 -1.1436 87.8758 0.174 -0.818 -0.549 135 159 173
33.9072 -1.1013 88.2003 -0.018 -0.889 -0.458 161 180 194
34.0708 -1.1047 88.2004 -0.018 -0.889 -0.458 171 193 206
36.6267 -0.9729 89.3943 0.434 -0.686 -0.584 195 237 253
57.7781 -0.4977 95.3001 0.909 -0.410 -0.072 119 129 118
57.8989 -0.4135 95.8599 0.900 -0.428 -0.089 110 120 109
58.0269 -0.3531 96.2669 0.835 -0.510 -0.208 107 119 109
60.2673 -0.0290 98.6606 0.730 -0.534 -0.427 93 104 94
60.5443 0.1691 99.9769 0.629 -0.760 -0.160 106 119 110
60.6873 0.2238 100.3493 0.637 -0.723 -0.267 118 130 121
60.8319 0.2614 100.6115 0.648 -0.714 -0.267 121 129 123
60.9772 0.2932 100.8362 0.661 -0.703 -0.261 117 122 116
61.1230 0.3280 101.0801 0.680 -0.685 -0.263 107 112 105
61.4165 0.4274 101.7615 0.510 -0.506 -0.696 86 92 80
61.5614 0.2941 100.9205 0.746 -0.443 -0.498 89 95 83
62.0089 0.5245 102.4683 0.856 -0.282 -0.434 78 82 71
62.1587 0.5633 102.7387 0.856 -0.282 -0.434 77 83 72
62.3080 0.5844 102.8949 0.787 -0.392 -0.476 81 87 76
62.7588 0.6621 103.4568 0.705 -0.502 -0.502 88 100 96
62.9076 0.6665 103.5052 0.322 -0.769 -0.553 81 95 90
63.0578 0.6838 103.6376 0.336 -0.761 -0.555 87 103 96
63.2131 0.7394 104.0174 0.804 -0.394 -0.446 86 103 97
63.3681 0.7868 104.3439 0.873 -0.369 -0.320 87 104 98
63.5088 0.7288 103.9881 0.841 -0.398 -0.365 79 96 88
63.6638 0.7722 104.2897 0.841 -0.398 -0.367 76 93 85
63.8269 0.8608 104.8832 0.711 -0.022 -0.703 85 102 94
64.1400 0.9398 105.4352 0.052 -0.681 -0.731 102 119 113
64.2859 0.9192 105.3223 0.717 -0.492 -0.493 83 102 96
-21.3851 -1.0079 80.2396 -0.032 -0.628 -0.778 167 218 235
-21.0664 -1.0255 80.1708 -0.056 -0.643 -0.764 161 212 228
-20.8457 -0.9924 80.4126 -0.135 -0.624 -0.769 108 155 180
-16.5222 -1.1601 79.9335 -0.149 -0.485 -0.862 164 221 238
-15.5706 -1.2538 79.4652 -0.004 -0.560 -0.829 165 218 234
-15.3370 -1.2591 79.4632 -0.049 -0.571 -0.820 165 216 233
-15.2851 -1.1976 79.8633 -0.069 -0.634 -0.770 139 184 203
-14.8050 -1.2106 79.8462 -0.007 -0.713 -0.702 149 196 214
-14.4732 -1.2333 79.7466 -0.217 -0.584 -0.782 150 197 215
-13.4118 -1.3141 79.3761 -0.311 -0.785 -0.536 134 181 199
-9.9951 -1.5732 78.1883 -0.198 -0.941 -0.274 162 206 226
-8.7635 -1.6924 77.5958 -0.273 -0.909 -0.315 126 164 182
-4.2646 -1.8286 77.3420 -0.018 -0.742 -0.670 136 167 170
-4.0560 -1.8330 77.3422 -0.029 -0.726 -0.687 138 169 172
-3.8168 -1.8435 77.3081 -0.137 -0.635 -0.760 134 165 168
-3.5693 -1.8557 77.2641 -0.158 -0.618 -0.770 131 164 169
-3.3064 -1.8710 77.2023 -0.200 -0.589 -0.783 135 168 173
-3.0748 -1.8803 77.1746 -0.161 -0.672 -0.723 135 169 173
-2.8768 -1.8830 77.1842 -0.148 -0.684 -0.715 139 173 177
1.5389 -2.0079 76.9916 0.290 -0.546 -0.786 68 98 98
1.6930 -2.0028 77.0451 0.290 -0.546 -0.786 69 99 98
1.8470 -1.9978 77.0985 0.290 -0.546 -0.786 72 102 104
1.9866 -1.9897 77.1694 0.275 -0.535 -0.799 71 100 104
2.1377 -1.9840 77.2262 0.366 -0.208 -0.907 71 100 104
2.2871 -1.9780 77.2851 0.366 -0.208 -0.907 71 99 103
2.4501 -1.9749 77.3275 0.356 -0.137 -0.924 72 100 103
3.8168 -1.9258 77.8287 0.066 0.672 -0.738 74 102 106
4.0217 -1.9320 77.8169 0.058 0.665 -0.744 74 102 106
4.2228 -1.9375 77.8095 0.098 0.679 -0.728 79 107 111
4.6206 -1.9477 77.7987 0.059 0.679 -0.732 73 100 107
7.1014 -1.8355 78.8556 0.537 0.502 -0.677 144 180 198
7.4661 -1.8803 78.6193 -0.181 -0.147 -0.972 154 192 211
10.4131 -2.0540 77.9134 -0.131 -0.213 -0.968 181 226 247
10.3616 -1.9998 78.2525 -0.078 -0.687 -0.722 181 228 248
10.7305 -2.0074 78.2547 0.085 -0.765 -0.638 184 231 251
10.9254 -2.0139 78.2399 0.059 -0.769 -0.636 183 230 250
14.2005 -1.9526 79.0802 0.308 -0.647 -0.697 134 167 183
14.3411 -1.9458 79.1428 0.455 -0.704 -0.545 134 167 183
14.5772 -1.9648 79.0543 0.314 -0.897 -0.312 131 164 179
20.2918 -1.9222 80.1092 0.204 -0.979 0.015 178 215 227
21.7525 -1.6724 81.9058 0.749 -0.333 -0.572 132 160 169
21.8617 -1.6555 82.0293 0.439 -0.257 -0.861 130 159 165
22.0539 -1.6126 82.3294 -0.401 -0.620 -0.675 134 164 165
22.8552 -1.6649 82.1048 -0.267 -0.608 -0.748 157 186 182
23.0532 -1.6777 82.0506 -0.202 -0.634 -0.746 158 186 182
23.2239 -1.6813 82.0508 -0.096 -0.649 -0.754 153 180 179
23.4180 -1.6930 82.0028 -0.052 -0.739 -0.671 150 176 175
23.5796 -1.6937 82.0201 -0.029 -0.718 -0.696 150 178 176
