ply
format ascii 1.0
element vertex 854
property float x
property float y
property float z
property float nx
property float ny
property float nz
property uchar diffuse_red
property uchar diffuse_green
property uchar diffuse_blue
end_header
-23.2243 26.4555 68.8070 -0.530 0.307 -0.791 98 106 79
-22.8922 26.3809 68.5358 -0.535 -0.443 -0.720 104 112 84
-22.5513 26.3305 68.4985 -0.047 -0.449 -0.892 107 115 91
-21.5746 26.1077 67.6671 -0.079 -0.699 -0.711 112 119 102
-16.4959 25.3099 66.6771 -0.843 0.533 -0.074 84 66 55
-10.7413 24.3783 65.2999 -0.116 0.866 -0.486 88 71 61
4.5128 22.0750 63.1846 -0.814 -0.066 -0.577 72 64 53
-65.4200 36.9986 111.5214 -0.931 -0.130 -0.341 79 101 123
-65.2702 36.9650 111.3994 -0.955 -0.060 -0.291 95 118 134
-65.1511 36.9014 110.9674 -0.775 -0.290 -0.562 107 134 144
-65.0307 36.8402 110.5583 -0.907 -0.230 -0.352 94 121 130
-64.2473 36.5471 108.8544 0.147 -0.769 -0.622 183 206 214
-64.0719 36.5389 108.9950 0.148 -0.764 -0.628 187 210 218
-63.7724 36.4777 108.8067 -0.867 0.157 -0.473 200 226 225
-63.6451 36.4288 108.5182 -0.877 0.044 -0.478 198 225 221
-63.3810 36.3404 108.0381 -0.924 0.012 -0.381 145 172 167
-61.3286 35.6488 104.2675 -0.914 0.033 -0.403 190 212 210
-61.2217 35.5953 103.9128 -0.835 -0.188 -0.517 200 220 219
-61.1003 35.5515 103.6632 -0.886 -0.083 -0.456 181 203 201
-60.9839 35.5051 103.3835 -0.870 -0.188 -0.455 155 177 175
-60.8679 35.4588 103.1055 -0.872 -0.271 -0.407 149 174 171
-60.7435 35.4180 102.8869 -0.808 -0.392 -0.439 197 223 222
-60.6039 35.3863 102.7700 -0.785 -0.337 -0.520 205 233 232
-58.2671 34.6524 98.9644 -0.928 -0.165 -0.335 188 211 205
-58.1577 34.6100 98.7125 -0.777 -0.430 -0.461 194 216 210
-56.8457 34.2071 96.6595 -0.318 -0.086 -0.944 61 71 73
-55.4561 33.8540 95.1549 -0.787 -0.134 -0.602 65 71 71
-55.3460 33.8168 94.9513 -0.795 -0.100 -0.598 55 64 61
-54.8693 33.6090 93.6467 -0.409 0.051 -0.911 56 57 61
-54.4639 33.5266 93.3952 -0.464 -0.506 -0.727 68 69 71
-50.0634 34.3003 105.8439 -0.123 0.527 -0.841 49 53 54
-50.1839 34.1111 103.9739 -0.245 0.428 -0.870 64 65 67
-52.3681 33.4023 94.8399 -0.088 -0.573 -0.815 70 71 73
-48.7854 31.9535 86.0604 -0.183 -0.157 -0.971 67 73 69
-48.1815 31.8655 86.0020 -0.856 0.251 -0.452 67 69 66
-48.2884 31.7949 85.2283 -0.908 0.341 -0.243 65 67 64
-45.2714 31.1192 82.7882 -0.319 -0.373 -0.871 58 61 54
-44.2056 30.7929 81.1291 -0.075 -0.110 -0.991 52 66 41
-41.4655 30.0815 78.0238 -0.702 -0.296 -0.648 137 140 123
-38.8429 29.4930 75.8921 -0.172 -0.599 -0.782 99 99 91
-38.1382 29.4781 76.6226 -0.650 0.444 -0.617 76 75 70
-31.7633 28.0664 71.6134 -0.486 0.180 -0.855 157 175 179
-31.6937 28.0403 71.4611 -0.481 0.135 -0.866 153 168 173
-31.1851 27.9431 71.2017 -0.519 -0.074 -0.851 175 190 193
-23.4835 26.6497 68.8988 -0.640 0.287 -0.713 95 105 82
-23.2366 26.5999 68.7488 -0.130 0.565 -0.815 91 103 67
-23.0519 26.5748 68.7481 -0.111 0.556 -0.824 91 103 63
-22.9618 26.5500 68.6325 -0.229 0.529 -0.817 91 103 63
-22.6290 26.4998 68.5854 -0.617 -0.224 -0.755 84 95 64
-22.5157 26.4749 68.4979 -0.610 -0.203 -0.766 103 113 86
-22.4065 26.4500 68.4057 -0.630 -0.184 -0.754 134 144 119
-22.3170 26.4252 68.2901 -0.679 -0.211 -0.704 138 146 122
-22.1555 26.4001 68.2601 -0.550 -0.301 -0.779 96 104 81
-21.6530 26.2524 67.5339 -0.153 -0.612 -0.776 145 149 134
-21.4571 26.2270 67.5434 -0.130 -0.605 -0.786 166 170 155
-19.7204 25.9257 66.9363 0.205 -0.497 -0.843 94 90 81
-18.3525 25.7201 66.7472 -0.401 -0.219 -0.890 66 56 47
-16.1447 25.3818 66.3818 -0.711 -0.664 -0.234 80 71 56
-10.3179 24.4929 65.4553 -0.162 0.808 -0.567 90 73 63
-65.6886 37.2569 111.8998 -0.763 0.266 -0.589 69 87 103
-65.5453 37.2159 111.7038 -0.909 -0.105 -0.402 95 114 137
-65.4056 37.1715 111.4743 -0.933 -0.139 -0.332 90 112 133
-65.2631 37.1305 111.2780 -0.958 -0.057 -0.282 94 117 132
-64.3998 36.7321 108.7443 0.019 -0.594 -0.805 182 205 211
-64.2642 36.6895 108.5252 -0.071 -0.804 -0.590 183 206 213
-64.0563 36.7105 108.9632 0.085 -0.659 -0.747 188 211 218
-63.8509 36.7276 109.3642 -0.321 -0.477 -0.818 196 221 225
-63.6211 36.6071 108.5601 -0.875 0.124 -0.467 199 225 222
-63.5035 36.5504 108.1932 -0.853 0.208 -0.480 200 227 222
-61.5059 35.9391 105.1151 -0.927 0.064 -0.370 184 205 198
-61.3810 35.8954 104.8733 -0.932 0.078 -0.353 184 206 203
-61.3053 35.8206 104.2935 -0.818 -0.392 -0.421 190 212 210
-61.1985 35.7666 103.9379 -0.878 -0.207 -0.432 198 220 218
-60.9812 35.6629 103.2696 -0.897 -0.213 -0.388 149 171 169
-60.8701 35.6135 102.9601 -0.878 -0.248 -0.409 152 177 174
-60.7446 35.5733 102.7502 -0.808 -0.392 -0.439 163 189 186
-60.6046 35.5419 102.6372 -0.750 -0.246 -0.614 87 113 111
-58.4787 34.8964 99.4067 -0.821 -0.544 -0.175 187 207 205
-58.4358 34.8213 98.7849 -0.507 -0.211 -0.836 192 211 209
-58.2777 34.8015 98.7978 -0.917 -0.164 -0.365 201 221 217
-57.5770 34.4818 96.7735 -0.845 -0.278 -0.456 90 103 103
-57.1391 34.4085 96.6426 -0.342 0.045 -0.939 96 107 107
-57.0034 34.3796 96.5474 -0.315 0.006 -0.949 97 107 107
-56.8485 34.3587 96.5462 -0.309 -0.068 -0.948 36 44 46
-56.7465 34.3161 96.2871 -0.312 -0.317 -0.896 43 48 51
-55.1576 33.8835 94.3193 -0.920 -0.284 -0.269 53 57 58
-55.0807 33.8353 93.9792 -0.962 -0.127 -0.241 53 57 58
-54.8591 33.7633 93.6006 -0.397 0.042 -0.917 63 64 66
-54.6389 33.6916 93.2222 -0.534 -0.464 -0.707 68 72 73
-54.4753 33.6738 93.2596 -0.490 -0.456 -0.743 66 67 69
-49.8427 34.4625 105.9077 -0.087 0.340 -0.937 60 62 61
-52.6025 33.5570 94.4662 0.008 -0.559 -0.829 67 69 68
-52.3167 33.5729 94.9527 -0.240 -0.859 -0.453 72 74 73
-52.0996 33.5677 95.1674 -0.271 -0.769 -0.579 73 75 74
-49.2077 31.9123 83.8013 -0.829 0.314 -0.463 67 69 66
-44.0516 30.9149 81.0615 -0.568 -0.181 -0.803 60 76 49
-44.0404 30.7497 79.5932 -0.284 0.117 -0.952 71 86 57
-31.9553 28.2582 71.7923 -0.374 0.083 -0.924 175 193 197
-31.8531 28.2330 71.6890 -0.524 0.077 -0.848 167 185 189
-31.7355 28.2083 71.6093 -0.518 0.083 -0.851 174 192 196
-31.6215 28.1835 71.5241 -0.506 0.084 -0.858 155 170 175
-31.1394 28.0854 71.2238 -0.328 0.097 -0.940 180 195 198
-30.9881 28.0618 71.1945 -0.687 0.503 -0.525 169 184 187
-25.6823 27.1649 69.5360 -0.182 -0.663 -0.726 177 189 189
-23.3372 26.7943 69.0346 -0.773 -0.154 -0.615 96 105 84
-23.3204 26.7691 68.8288 -0.603 0.236 -0.762 89 100 72
-23.0734 26.7444 68.9039 -0.715 -0.478 -0.510 78 89 53
-22.8895 26.6943 68.6766 -0.742 -0.453 -0.493 78 91 49
-22.8419 26.6694 68.5100 -0.768 -0.456 -0.450 74 85 49
-22.7131 26.6445 68.4415 -0.403 -0.421 -0.813 73 84 56
-22.5738 26.6195 68.3854 -0.403 -0.421 -0.813 96 105 83
-22.4225 26.5945 68.3436 -0.419 -0.398 -0.816 135 145 120
-22.1634 26.5446 68.2079 -0.555 -0.307 -0.773 89 99 74
-22.1359 26.4712 67.5819 -0.357 -0.217 -0.909 80 84 67
-21.9713 26.4462 67.5563 -0.363 -0.395 -0.844 88 92 77
-21.6825 26.3964 67.4573 -0.231 -0.434 -0.871 169 171 158
-21.4752 26.3712 67.4802 -0.148 -0.429 -0.891 166 168 155
-18.5171 25.7759 65.7019 -0.757 -0.502 -0.418 71 57 48
0.9134 22.7240 61.7139 -0.618 0.189 -0.763 76 69 61
-68.7257 36.5516 100.4894 -0.727 -0.685 -0.048 89 86 70
-66.2721 38.0061 116.2394 -0.773 -0.616 -0.149 87 90 81
-65.8265 37.4618 111.9526 -0.652 0.099 -0.752 85 105 112
-65.5341 37.3855 111.6231 -0.908 -0.116 -0.402 97 117 137
-65.3957 37.3396 111.3799 -0.846 -0.394 -0.358 101 124 142
-64.4260 36.8648 108.3256 -0.195 -0.512 -0.837 182 206 210
-63.8950 36.8479 108.8017 -0.118 -0.489 -0.864 196 221 225
-63.6003 36.7828 108.5732 -0.938 -0.043 -0.345 199 226 222
-60.8731 35.7673 102.8094 -0.887 -0.180 -0.426 140 165 162
-60.7572 35.7212 102.5379 -0.818 -0.465 -0.340 78 103 99
-60.5906 35.7060 102.5999 -0.746 -0.232 -0.624 37 64 60
-57.1056 34.5750 96.7077 -0.205 -0.094 -0.974 83 92 88
-56.9678 34.5469 96.6219 -0.410 -0.426 -0.807 83 92 89
-55.9538 34.3702 96.2548 -0.297 0.573 -0.764 84 89 92
-54.6134 33.8507 93.2412 -0.604 -0.416 -0.680 63 64 66
-54.4637 33.8283 93.2197 -0.317 -0.480 -0.818 60 61 63
-49.5817 34.6374 106.1250 -0.792 -0.547 -0.272 67 69 68
-44.4990 31.0816 80.6788 -0.517 0.181 -0.837 62 76 51
-44.1904 31.0392 80.6680 -0.490 -0.175 -0.854 71 87 61
-31.7842 28.3474 71.4891 -0.482 -0.067 -0.874 174 192 196
-31.6587 28.3231 71.4218 -0.482 -0.067 -0.874 159 174 179
-31.0255 28.2302 71.3473 0.071 -0.172 -0.983 180 194 195
-30.9261 28.2049 71.2406 -0.719 0.486 -0.497 169 184 187
-25.6847 27.3346 69.7227 0.337 -0.042 -0.941 175 189 190
-25.8075 27.2542 68.8676 -0.727 -0.198 -0.658 166 180 181
-25.6764 27.2297 68.8053 -0.712 -0.213 -0.669 151 167 167
-23.3505 26.9389 68.9747 -0.766 -0.157 -0.623 96 105 87
-23.2998 26.9136 68.8105 -0.074 0.434 -0.898 87 98 71
-23.0890 26.8890 68.8416 -0.732 -0.454 -0.508 67 79 43
-22.7133 26.7887 68.3982 -0.419 -0.398 -0.816 80 91 64
-22.5760 26.7638 68.3399 -0.419 -0.398 -0.816 88 97 78
-22.4386 26.7389 68.2815 -0.419 -0.398 -0.816 111 123 98
-22.1127 26.6891 68.2249 -0.512 -0.061 -0.857 82 92 67
-21.6943 26.6390 68.2756 -0.452 0.106 -0.886 112 120 99
-21.5316 26.5152 67.3728 -0.146 -0.201 -0.969 167 167 155
-17.6147 26.0267 67.6695 -0.486 -0.839 -0.245 75 62 54
-66.3130 38.1163 115.5224 -0.344 -0.925 -0.162 93 96 85
-65.8994 37.7410 112.7290 -0.965 0.019 -0.262 94 117 116
-65.8081 37.6394 111.9480 -0.824 -0.482 -0.300 84 103 110
-65.5370 37.5397 111.3925 -0.855 -0.463 -0.232 100 120 135
-65.4049 37.4872 111.0870 -0.844 -0.481 -0.237 108 131 145
-64.4130 37.0328 108.2711 -0.227 -0.569 -0.790 182 207 205
-64.2545 37.0116 108.2685 0.126 -0.572 -0.811 182 206 206
-61.3363 36.2401 104.9114 -0.827 -0.558 -0.072 182 207 203
-60.8928 35.9103 102.5488 -0.791 -0.306 -0.530 63 88 84
-60.7434 35.8849 102.4997 -0.856 -0.189 -0.481 44 69 63
-60.5882 35.8630 102.4878 -0.751 -0.228 -0.620 46 71 66
-57.7057 34.9086 97.4945 -0.460 -0.414 -0.785 104 114 111
-57.3594 34.7931 96.8875 -0.558 -0.105 -0.823 58 65 59
-55.9223 34.5359 96.3039 -0.543 0.348 -0.764 77 82 85
-55.1798 34.1778 94.0399 -0.922 -0.283 -0.264 53 57 58
-55.0388 34.1522 93.9793 -0.943 -0.085 -0.322 55 56 58
-55.0626 34.0672 93.2105 -0.522 0.060 -0.851 55 56 58
-54.6110 34.0019 93.1628 -0.592 -0.364 -0.719 56 57 59
-54.4674 33.9775 93.1161 -0.117 -0.289 -0.950 55 56 58
-45.0311 31.4548 82.0155 -0.440 0.432 -0.787 50 56 44
-38.9781 29.9745 76.0978 0.423 -0.195 -0.885 104 104 96
-31.2987 28.4194 71.4044 -0.792 0.144 -0.593 159 174 177
-31.2285 28.3928 71.2538 -0.447 -0.022 -0.894 155 170 173
-30.7464 28.3236 71.2067 0.136 -0.085 -0.987 168 183 186
-30.5517 28.3016 71.2401 0.122 -0.117 -0.986 168 183 186
-22.3523 26.8581 68.1197 -0.659 -0.330 -0.676 101 111 86
-21.8095 26.6837 67.2258 -0.634 0.093 -0.768 165 165 153
-21.5205 26.6589 67.3433 -0.074 -0.158 -0.985 161 161 149
-21.1061 26.6091 67.3872 -0.280 -0.327 -0.903 169 169 157
-17.7654 26.0794 66.6247 -0.901 -0.399 -0.172 69 59 50
-65.6417 37.7804 111.7959 -0.951 0.007 -0.311 74 91 101
-65.4102 37.6383 110.8358 -0.867 -0.448 -0.220 94 117 125
-64.5037 37.2743 108.7316 -0.719 -0.634 -0.285 181 208 203
-64.4317 37.1710 107.9249 -0.013 0.500 -0.866 182 207 202
-63.8749 37.1810 108.6403 -0.768 -0.537 -0.350 191 217 213
-63.7101 37.1639 108.6794 -0.923 -0.075 -0.377 197 223 219
-63.3442 37.0019 107.7003 -0.659 0.023 -0.751 196 225 220
-62.3690 36.5987 105.3369 -0.942 0.023 -0.335 190 217 222
-62.2977 36.5134 104.6845 -0.495 0.326 -0.805 184 208 202
-61.8791 36.4123 104.2887 -0.890 0.054 -0.452 180 203 195
-61.4870 36.4240 104.8318 -0.944 -0.319 -0.086 177 203 194
-61.2796 36.3073 104.0635 -0.858 -0.512 -0.043 171 197 195
-60.7104 36.0607 102.5874 -0.454 -0.026 -0.891 52 77 70
-60.5026 35.9535 101.9004 -0.053 -0.144 -0.988 48 69 72
-57.8481 35.0874 97.4555 -0.827 -0.242 -0.508 95 105 104
-57.6705 35.0775 97.5717 -0.446 -0.366 -0.817 83 92 89
-57.5426 35.0443 97.4307 -0.386 -0.244 -0.890 85 91 89
-57.2839 34.9794 97.1653 -0.645 0.334 -0.688 73 79 75
-57.1735 34.9386 96.9394 -0.321 0.380 -0.868 75 82 75
-57.0291 34.9132 96.8843 -0.359 0.419 -0.834 58 65 58
-56.9174 34.8735 96.6688 -0.555 0.084 -0.827 65 71 67
-55.2600 34.3771 94.2754 -0.801 -0.566 -0.196 59 64 67
-54.4578 34.1312 93.0681 -0.117 -0.289 -0.950 59 60 62
-51.1985 32.8681 85.8948 0.355 -0.027 -0.934 86 92 90
-44.1884 31.3251 80.5548 -0.246 0.166 -0.955 60 74 49
-43.7717 31.2988 80.7992 -0.206 -0.279 -0.938 70 84 59
-43.6245 31.2764 80.7735 -0.206 -0.279 -0.938 70 84 59
-40.5309 30.2554 75.4935 -0.633 -0.220 -0.742 87 90 83
-40.4655 30.2254 75.3095 -0.556 -0.197 -0.808 97 100 93
-38.9986 30.1136 76.0062 -0.582 -0.681 -0.444 104 104 96
-30.8478 28.4902 71.2648 0.065 -0.125 -0.990 168 183 186
-30.9809 28.4262 70.5641 -0.829 0.397 -0.394 166 184 188
-28.2372 28.1749 71.5050 0.203 -0.514 -0.834 174 195 200
-28.2250 28.1464 71.2737 -0.131 -0.796 -0.591 175 196 201
-25.3421 27.9383 72.7436 0.346 -0.715 -0.607 179 198 204
-25.5260 27.5974 69.6056 -0.634 0.135 -0.761 187 201 202
-25.6558 27.5143 68.7446 -0.506 0.408 -0.760 136 151 153
-25.1738 27.4157 68.4419 -0.374 0.132 -0.918 164 169 162
-24.4068 27.2425 67.8197 -0.293 -0.131 -0.947 92 100 84
-23.7595 27.2235 68.3882 -0.300 0.161 -0.940 92 101 80
-23.5671 27.1994 68.3985 -0.550 -0.099 -0.829 91 102 74
-22.0399 26.9527 68.0045 -0.468 -0.008 -0.884 100 110 85
-21.4582 26.8533 67.8071 -0.671 -0.303 -0.677 163 163 153
-21.7925 26.8270 67.2033 -0.640 0.075 -0.764 162 164 151
-21.1312 26.7532 67.3161 -0.138 -0.522 -0.842 173 175 162
-20.2118 26.7038 67.9308 -0.853 -0.346 -0.392 155 155 143
-20.1396 26.6786 67.7960 -0.853 -0.346 -0.392 111 111 99
-20.0056 26.6034 67.3014 -0.951 -0.306 0.053 99 99 87
-19.2382 26.4778 67.0887 -0.403 -0.092 -0.911 103 99 90
-17.7701 26.2253 66.5779 -0.905 -0.388 -0.176 75 65 56
-65.6356 37.9441 111.6590 -0.942 -0.022 -0.336 98 117 124
-64.7186 37.3956 108.0238 -0.933 0.158 -0.324 179 206 201
-63.8521 37.5283 110.1084 -0.989 -0.044 -0.143 184 209 205
-63.3262 37.1744 107.6898 -0.659 0.023 -0.751 192 221 216
-62.2510 36.7037 104.8899 -0.530 0.258 -0.808 183 208 202
-60.6776 36.2369 102.6736 -0.215 -0.007 -0.977 43 69 61
-60.6534 36.1318 101.8100 0.006 -0.254 -0.967 50 73 66
-57.6760 35.2275 97.4388 -0.363 -0.384 -0.849 75 86 82
-57.0021 35.0779 96.9171 -0.360 0.413 -0.837 53 58 54
-56.0462 34.8758 96.2620 -0.064 -0.669 -0.741 47 53 53
-55.3850 34.5599 94.3158 -0.769 -0.599 -0.222 68 76 79
-55.0451 34.3729 93.1067 -0.634 0.535 -0.558 49 51 50
-54.7403 34.3314 93.0920 -0.127 -0.145 -0.981 70 71 73
-54.5772 34.3143 93.1280 -0.547 -0.315 -0.776 71 72 74
-50.6848 33.1452 87.5247 -0.371 0.077 -0.925 87 91 90
-50.5120 33.1298 87.5863 -0.449 0.150 -0.881 93 97 96
-30.8784 28.6300 71.1736 -0.254 -0.600 -0.759 169 183 186
-30.6883 28.5490 70.6968 -0.962 -0.001 -0.273 169 186 190
-29.0841 28.4651 71.7621 0.063 0.179 -0.982 173 192 199
-31.1426 28.1903 67.1526 -0.419 0.259 -0.870 175 195 200
-25.5258 28.0815 72.4500 0.353 -0.728 -0.588 187 206 211
-25.7306 28.0467 71.9278 0.248 -0.627 -0.739 184 204 209
-25.4643 28.0249 72.0383 0.248 -0.628 -0.738 196 216 219
-25.5541 27.7403 69.5253 -0.730 0.139 -0.670 202 213 213
-24.3547 27.3850 67.8408 -0.331 -0.142 -0.933 92 100 85
-22.0601 27.0968 67.9380 -0.551 -0.233 -0.801 93 103 78
-21.1174 26.9739 67.9403 0.146 -0.236 -0.961 167 170 157
-20.5349 26.8996 67.9550 -0.069 -0.290 -0.954 179 181 168
-20.1095 26.7988 67.5716 -0.709 -0.645 -0.284 90 90 78
-18.9792 26.5729 66.9078 -0.420 0.573 -0.704 90 87 80
-18.9337 26.5480 66.7470 -0.489 0.559 -0.670 82 78 69
-1.1056 23.7426 62.7020 0.306 -0.571 -0.762 72 63 54
-0.2090 23.6430 62.8502 -0.187 0.712 -0.676 72 61 55
4.3118 23.0039 62.4377 -0.636 0.146 -0.757 64 58 44
-69.4643 36.1702 91.1575 0.145 -0.032 -0.989 66 65 53
-62.3235 36.9454 105.3887 -0.934 -0.030 -0.355 181 210 216
-61.1685 36.6965 104.5601 -0.853 -0.512 0.100 175 204 201
-60.6717 36.3958 102.5836 -0.394 0.019 -0.919 44 69 62
-60.8197 36.1785 100.6059 -0.253 -0.631 -0.733 40 65 60
-60.5113 36.2565 101.5930 -0.325 -0.141 -0.935 41 62 65
-59.5823 36.0144 100.5750 -0.895 -0.196 -0.400 176 197 198
-57.2310 35.3090 97.2262 -0.834 0.017 -0.552 88 94 90
-56.9898 35.2359 96.8763 -0.944 -0.039 -0.328 51 57 53
-56.5630 35.0675 95.9303 -0.728 -0.552 -0.405 52 58 57
-53.5755 34.5974 95.2394 0.464 -0.596 -0.655 68 72 71
-50.6695 33.2955 87.5023 -0.370 0.021 -0.929 87 91 90
-50.4944 33.2810 87.5711 -0.109 0.053 -0.993 93 97 96
-50.2083 33.2348 87.4950 -0.197 0.072 -0.978 92 96 95
-50.0698 33.2105 87.4416 -0.929 0.277 -0.245 90 94 93
-45.4901 31.9969 82.2588 -0.646 -0.109 -0.756 54 60 50
-45.3302 31.9771 82.2669 -0.726 -0.239 -0.645 52 58 46
-43.7369 32.0584 84.6755 0.308 -0.845 -0.437 58 69 58
-42.6950 31.3062 79.5137 -0.123 -0.173 -0.977 110 124 92
-42.5434 31.2847 79.4984 -0.123 -0.173 -0.977 152 160 138
-30.7370 28.7474 71.0832 -0.403 -0.543 -0.737 168 180 182
-31.0971 28.2714 66.7111 -0.713 0.035 -0.701 185 202 203
-25.2237 27.7258 68.5199 -0.368 0.123 -0.922 156 162 160
-19.0032 26.7434 67.0508 -0.072 0.600 -0.796 90 86 75
-18.5148 26.6680 66.9498 -0.003 0.592 -0.806 80 72 63
-0.0884 23.7726 62.7216 -0.757 -0.139 -0.638 75 64 58
-66.0652 38.3827 111.8426 -0.833 -0.546 -0.090 109 122 125
-65.9403 38.3180 111.4410 -0.801 -0.587 -0.121 91 109 116
-65.8511 38.2121 110.6618 0.129 -0.814 -0.566 105 126 131
-65.6812 38.2030 110.7680 0.141 -0.808 -0.572 95 114 119
-63.1760 37.4590 107.2905 -0.841 -0.161 -0.517 159 189 182
-62.2052 37.0497 104.9441 -0.782 0.262 -0.565 194 220 215
-62.1144 36.9778 104.4470 -0.936 -0.214 -0.279 182 205 197
-61.9726 36.9456 104.3320 -0.951 -0.192 -0.242 169 190 182
-60.6528 36.5632 102.5789 -0.394 0.019 -0.919 41 66 59
-59.8567 36.7086 104.6254 -0.945 0.323 -0.059 41 60 71
-59.5772 36.1712 100.4870 -0.895 -0.196 -0.400 195 216 217
-57.3416 35.5032 97.3508 -0.813 -0.002 -0.582 90 99 94
-56.7480 35.2252 95.6870 -0.187 -0.638 -0.747 52 58 56
-55.5726 35.1220 96.0849 -0.035 0.612 -0.790 49 59 58
-54.5351 34.6301 93.1277 -0.672 0.402 -0.622 83 87 88
-54.1977 34.6002 93.2400 0.039 -0.773 -0.634 75 79 78
-53.5815 34.7493 95.1257 0.483 -0.546 -0.684 74 78 77
-50.1742 33.3905 87.5329 -0.190 -0.137 -0.972 88 90 87
-49.9975 33.3762 87.6025 -0.285 -0.063 -0.957 87 89 86
-45.9201 32.1107 81.4921 -0.615 -0.344 -0.710 58 64 54
-45.2784 32.1305 82.3376 -0.637 -0.294 -0.713 45 51 41
-42.9459 31.5428 79.9673 -0.766 -0.130 -0.630 89 108 61
-42.8682 31.5105 79.7827 -0.782 -0.088 -0.617 91 111 61
-42.6862 31.4499 79.4766 -0.187 -0.439 -0.879 95 109 78
-41.0602 30.9599 77.1604 -0.289 -0.300 -0.909 83 84 78
-40.9364 30.9352 77.0881 -0.284 -0.294 -0.913 78 79 73
-40.7804 30.9144 77.0825 -0.275 -0.307 -0.911 76 77 71
-30.6226 28.8027 70.4520 -0.385 0.018 -0.923 181 195 196
-26.9826 28.3567 70.6408 0.685 0.111 -0.720 211 220 222
-25.4092 27.9187 68.6986 -0.302 -0.190 -0.934 155 161 154
-25.2592 27.8947 68.6598 -0.297 -0.189 -0.936 159 164 160
-21.5533 27.3117 67.7871 -0.936 -0.352 0.017 175 178 167
-21.4640 27.2863 67.6726 -0.683 -0.318 -0.657 160 163 154
-19.9184 27.0646 67.4865 -0.501 -0.573 -0.649 106 108 95
-18.5745 26.8391 67.0537 -0.579 0.099 -0.809 69 65 54
-18.2246 26.7634 66.8012 -0.162 -0.170 -0.972 69 62 51
-18.0271 26.7383 66.8039 -0.146 -0.158 -0.977 69 60 50
4.0171 23.3776 62.5008 -0.352 0.236 -0.906 91 85 69
-65.9160 38.0801 108.0627 0.306 -0.009 -0.952 123 142 148
-64.4645 37.9348 108.3918 -0.939 0.110 -0.326 181 206 199
-64.1846 37.8562 108.0427 0.392 -0.107 -0.914 182 207 201
-63.1669 37.6234 107.2073 -0.822 0.050 -0.567 172 201 195
-62.2027 37.2068 104.8180 -0.922 -0.026 -0.387 193 220 214
-60.8675 36.5732 101.0486 -0.616 -0.610 -0.498 39 64 56
-59.8075 36.8993 104.8085 -0.937 0.344 -0.059 48 68 76
-57.2052 35.6263 97.1508 -0.817 -0.005 -0.576 60 69 66
-57.0838 35.5897 96.9791 -0.817 -0.005 -0.576 50 59 56
-56.7543 35.3731 95.5586 -0.057 -0.728 -0.683 54 60 60
-55.0644 34.8940 93.4170 -0.386 -0.139 -0.912 68 72 73
-54.8925 34.8812 93.4915 -0.388 -0.015 -0.921 69 73 74
-54.7651 34.8506 93.3747 -0.399 -0.030 -0.917 77 81 82
-54.6562 34.8128 93.1809 -0.712 0.244 -0.658 80 84 85
-53.5563 34.9126 95.1395 0.510 -0.566 -0.647 79 85 83
-50.9947 33.9454 89.9303 -0.475 0.842 -0.257 85 87 82
-50.9194 33.9014 89.6503 -0.466 0.843 -0.268 90 92 87
-50.1219 33.5514 87.6301 -0.300 -0.068 -0.951 84 86 81
-49.9309 33.5410 87.7446 -0.381 0.036 -0.924 84 86 81
-45.7068 32.2930 81.9801 -0.708 0.054 -0.705 57 63 51
-42.8896 31.6944 80.0390 -0.737 -0.295 -0.608 60 82 34
-42.7997 31.6636 79.8817 -0.717 -0.143 -0.682 77 100 49
-42.7086 31.6330 79.7280 -0.671 -0.199 -0.714 65 86 37
-37.4354 30.2794 74.1960 -0.896 0.414 -0.160 165 182 189
-32.4524 29.2457 70.9673 -0.516 0.067 -0.854 177 195 199
-31.1670 29.0995 71.1160 -0.505 -0.254 -0.825 144 156 156
-31.0415 29.0751 71.0483 -0.412 -0.248 -0.877 134 146 146
-30.7209 29.0301 71.0153 -0.535 -0.298 -0.790 201 213 213
-30.5913 29.0059 70.9532 -0.530 -0.298 -0.794 169 181 181
-27.4666 28.6010 70.9105 -0.959 0.224 -0.173 184 193 192
-27.2275 28.5208 70.5068 0.623 0.212 -0.753 186 192 192
-26.1395 28.5020 71.4872 0.686 0.111 -0.719 173 182 180
-25.3610 28.0623 68.7163 -0.573 -0.571 -0.588 158 161 154
-25.1754 28.0393 68.7222 -0.738 -0.465 -0.488 163 164 160
-19.4904 27.1350 67.2792 -0.664 0.109 -0.739 98 98 86
-18.7974 26.9837 66.7695 -0.269 0.004 -0.963 60 58 46
-18.6424 26.9588 66.7277 -0.690 -0.229 -0.687 60 58 45
-18.0965 26.9097 66.8970 -0.094 -0.785 -0.612 71 68 53
-17.9775 26.8845 66.8151 -0.647 -0.078 -0.759 71 67 52
-69.6473 36.6773 91.5704 -0.581 0.514 -0.631 67 63 54
-69.5366 36.6326 91.3245 -0.580 0.502 -0.642 66 62 51
-69.4360 36.5728 90.9462 0.264 0.160 -0.951 69 65 53
-65.7259 38.2508 108.2252 0.412 0.122 -0.903 203 223 228
-65.3909 38.4368 110.0623 0.085 -0.720 -0.688 189 214 214
-64.4453 38.1093 108.3952 -0.939 0.110 -0.326 181 207 199
-63.1489 37.7956 107.1964 -0.822 0.050 -0.567 190 219 214
-62.2182 37.3492 104.5585 -0.966 -0.003 -0.257 193 220 215
-57.3499 35.9020 97.8939 -0.604 0.682 -0.413 72 81 78
-57.2394 35.8590 97.6610 -0.604 0.682 -0.413 65 74 71
-54.8665 35.0416 93.5129 -0.358 -0.278 -0.891 73 77 78
-54.7175 35.0195 93.4874 -0.347 -0.329 -0.878 74 78 79
-54.4864 34.9488 93.1550 -0.809 0.105 -0.578 86 92 92
-49.9959 33.7330 87.9657 -0.455 0.179 -0.872 83 85 80
-49.8507 33.7102 87.9304 -0.674 0.391 -0.627 84 86 81
-49.6493 33.7026 88.0747 -0.902 0.426 0.069 88 90 85
-46.0613 32.1265 79.0674 -0.885 -0.167 -0.435 93 111 89
-35.0342 29.3439 67.9559 -0.339 -0.220 -0.914 176 195 199
-31.7579 29.3321 71.2060 -0.357 0.064 -0.932 177 192 195
-31.5980 29.3099 71.1908 -0.332 0.056 -0.942 170 186 186
-31.4551 29.2866 71.1496 -0.429 0.187 -0.884 186 200 200
-31.1703 29.2399 71.0651 -0.400 -0.251 -0.881 135 147 147
-31.0359 29.2161 71.0109 -0.400 -0.251 -0.881 154 166 166
-30.9013 29.1923 70.9566 -0.400 -0.251 -0.881 109 121 121
-30.7288 29.1705 70.9580 -0.482 -0.254 -0.839 174 186 186
-26.5203 28.6628 71.1737 0.672 0.137 -0.728 86 92 92
-20.4911 27.4012 67.1871 -0.440 -0.459 -0.772 88 90 79
-20.0857 27.3531 67.2144 -0.413 -0.511 -0.754 111 113 102
-19.7706 27.2773 66.9265 -0.708 0.159 -0.688 99 99 87
-19.0914 27.1788 66.8282 -0.221 -0.007 -0.975 80 78 63
-18.9161 27.1541 66.8088 -0.250 -0.028 -0.968 60 58 45
-18.7807 27.1291 66.7457 -0.300 0.027 -0.954 60 58 45
-17.0507 26.8797 66.5068 -0.403 -0.437 -0.804 86 77 60
-69.6556 36.7814 91.2391 -0.099 0.568 -0.817 74 71 62
-69.5217 36.7761 91.3309 -0.111 0.619 -0.777 74 71 59
-69.4188 36.7195 90.9850 0.255 0.175 -0.951 76 72 60
-64.4343 38.2753 108.3217 -0.947 0.119 -0.300 180 206 198
-63.1316 37.9672 107.1805 -0.815 -0.015 -0.580 194 220 217
-62.3035 37.5825 104.9558 -0.749 -0.273 -0.604 196 222 233
-62.1760 37.5378 104.7290 -0.888 -0.045 -0.457 189 216 214
-59.6624 37.1855 104.4487 -0.960 0.278 -0.028 50 63 65
-57.7650 36.0402 97.2580 -0.050 -0.496 -0.867 48 57 56
-57.1753 36.0444 97.8812 -0.608 0.685 -0.402 63 74 70
-56.8916 35.8920 96.9559 -0.838 -0.160 -0.522 60 70 69
-56.7739 35.8535 96.7684 -0.832 -0.153 -0.533 62 71 70
-55.5127 35.3425 93.9744 -1.000 -0.001 0.001 61 72 68
-55.5763 35.1454 92.3467 -0.774 0.112 -0.624 64 73 72
-55.4599 35.1111 92.1912 -0.781 0.111 -0.614 70 79 78
-55.3327 35.0816 92.0837 -0.775 0.100 -0.624 72 78 78
-54.4752 35.1032 93.1137 -0.800 0.089 -0.594 84 93 92
-50.6369 34.2854 90.4647 -0.498 0.830 -0.253 89 91 86
-49.8126 33.8684 87.9803 -0.575 0.561 -0.596 84 87 80
-49.1334 33.5582 86.1979 -0.679 0.693 -0.241 85 84 79
-46.8606 32.6497 81.2622 -0.674 -0.010 -0.739 59 67 56
-45.7931 32.5621 81.6355 -0.214 0.032 -0.976 58 64 52
-42.9527 31.9700 79.7792 -0.308 -0.514 -0.801 68 87 52
-42.8197 31.9459 79.7213 -0.272 -0.466 -0.842 90 109 74
-40.1884 31.2907 77.1544 -0.181 0.193 -0.964 106 107 101
-35.8977 29.8273 69.8347 -0.254 -0.255 -0.933 171 192 197
-35.5869 29.7863 69.8197 -0.156 -0.170 -0.973 178 199 204
-34.8183 29.4911 68.2466 -0.820 0.007 -0.572 178 197 201
-34.6947 29.4684 68.1901 -0.752 -0.088 -0.654 178 196 198
-31.5608 29.4525 71.2007 -0.314 0.029 -0.949 175 191 191
-31.4174 29.4293 71.1601 -0.355 0.051 -0.933 175 189 189
-31.1534 29.3815 71.0444 -0.466 -0.046 -0.884 119 131 131
-31.0160 29.3579 70.9945 -0.411 -0.017 -0.911 156 168 168
-30.8877 29.3337 70.9310 -0.389 -0.025 -0.921 109 121 121
-30.7132 29.3122 70.9353 -0.478 -0.265 -0.837 141 153 153
-25.9028 28.5613 69.7902 0.138 -0.489 -0.862 129 140 135
-25.7005 28.5393 69.8179 0.087 -0.443 -0.893 135 143 138
-25.5271 28.3700 68.6477 -0.317 -0.510 -0.800 150 155 148
-20.5691 27.5443 67.0570 -0.388 -0.363 -0.847 89 91 80
-20.1629 27.4967 67.0858 -0.404 -0.430 -0.808 110 113 104
-19.2333 27.3488 66.8419 -0.278 -0.323 -0.905 101 99 84
-19.0766 27.3240 66.8025 -0.278 -0.323 -0.905 80 78 63
-18.8924 27.2996 66.7927 -0.282 -0.320 -0.905 60 58 45
-18.7872 27.2742 66.6968 -0.363 -0.296 -0.884 61 57 45
-18.0599 27.1757 66.6431 0.024 -0.883 -0.469 91 88 71
-17.5604 27.1010 66.5499 -0.309 -0.280 -0.909 96 93 78
-17.4851 27.0754 66.4221 -0.461 -0.218 -0.860 85 79 63
-11.9000 26.1599 64.7458 -0.759 -0.610 -0.230 89 72 64
-68.8584 37.0663 93.1232 0.128 0.403 -0.906 79 76 59
-65.1911 38.7716 110.0848 -0.840 -0.115 -0.530 35 63 67
-64.2742 38.4108 108.1576 -0.737 -0.641 -0.215 180 203 197
-63.1135 38.1396 107.1707 -0.767 -0.288 -0.573 194 220 217
-62.2986 37.7411 104.8476 -0.876 -0.014 -0.483 193 220 233
-62.1624 37.7035 104.6864 -0.888 -0.045 -0.457 201 226 228
-57.1651 36.2027 97.8288 -0.715 0.623 -0.318 62 72 71
-56.7007 35.8501 95.5215 0.150 -0.147 -0.978 57 66 65
-56.4213 35.8908 96.1149 0.121 0.345 -0.931 60 66 66
-56.4159 35.7996 95.4050 -0.018 0.295 -0.955 62 68 68
-55.6764 35.4202 93.1575 -0.890 0.367 -0.271 68 79 75
-54.6507 35.2638 92.9384 -0.597 -0.592 -0.542 78 84 84
-54.3461 35.2230 92.9180 -0.728 -0.044 -0.684 86 95 92
-54.3336 35.1467 92.3320 -0.753 -0.354 -0.555 87 96 93
-51.1452 34.4837 90.2653 0.264 0.164 -0.950 84 86 81
-50.6089 34.5139 91.0282 -0.495 0.831 -0.254 90 92 87
-49.8623 34.0662 88.2520 -0.343 0.290 -0.893 86 88 83
-46.1482 33.1581 84.7799 0.172 -0.738 -0.653 73 81 70
-45.6458 33.1581 85.2734 0.160 -0.782 -0.602 56 64 53
-46.8292 32.7972 81.2838 -0.574 -0.031 -0.818 55 63 52
-46.3368 32.7463 81.3677 -0.246 -0.963 -0.114 59 65 53
-39.8146 31.3574 76.8836 -0.094 -0.053 -0.994 86 85 81
-39.6605 31.3364 76.8701 -0.094 -0.053 -0.994 88 87 83
-37.2439 30.6803 74.0999 -0.953 0.007 -0.303 161 178 185
-33.0130 30.0599 73.3891 -0.160 0.830 -0.535 174 195 200
-29.3598 29.4058 71.8478 0.526 -0.540 -0.657 133 147 147
-27.5343 29.0596 70.9265 -0.954 -0.216 -0.205 120 132 130
-27.4887 29.0307 70.7447 -0.954 -0.216 -0.205 128 138 137
-27.3539 29.0062 70.6850 -0.950 -0.208 -0.233 128 138 139
-26.1513 28.6056 68.7254 -0.495 -0.344 -0.798 155 160 153
-25.5632 28.5106 68.5585 -0.307 -0.498 -0.811 147 154 146
-24.9660 28.5031 69.0855 -0.772 -0.636 0.003 166 171 165
-22.6112 28.0025 67.4725 -0.202 -0.557 -0.805 50 52 31
-19.9535 27.5905 66.8518 -0.577 -0.010 -0.817 92 94 83
-18.8759 27.4449 66.7687 -0.328 -0.255 -0.910 64 62 49
-17.8526 27.2971 66.6140 -0.360 -0.271 -0.893 89 83 69
-17.7151 27.2720 66.5521 -0.003 -0.209 -0.978 93 90 75
-17.5628 27.2470 66.5057 -0.309 -0.280 -0.909 87 84 69
-17.4701 27.2214 66.3962 -0.646 -0.554 -0.526 80 74 58
5.5406 23.8477 62.5366 -0.515 0.150 -0.844 65 63 50
-68.8091 37.4937 95.3322 0.038 -0.781 -0.623 86 85 67
-67.3858 39.2328 110.1590 -0.386 -0.922 -0.024 96 95 77
-65.5198 38.9543 109.7991 0.153 0.065 -0.986 77 105 101
-65.1814 38.9373 109.9931 -0.726 -0.024 -0.687 86 114 123
-65.0436 38.8913 109.7691 -0.724 -0.097 -0.683 95 123 133
-64.2847 38.5539 107.8887 -0.820 -0.492 -0.292 180 203 197
-63.1012 38.3067 107.1136 -0.756 -0.277 -0.593 201 227 224
-62.1496 37.8684 104.6378 -0.892 0.013 -0.452 193 219 218
-59.6905 37.6137 105.0321 -0.650 -0.753 0.104 51 62 59
-59.8753 37.3570 102.8679 -0.985 0.159 -0.062 53 62 58
-59.9632 37.1709 101.3434 -0.874 -0.242 -0.422 52 63 60
-55.2269 35.9508 96.4575 0.153 0.245 -0.957 61 72 68
-55.2461 35.4131 92.2787 -0.661 0.417 -0.624 75 81 81
-54.2909 35.3952 93.0585 -0.341 -0.884 -0.320 95 104 101
-53.6274 35.3335 93.2193 0.390 -0.792 -0.470 92 101 98
-49.7627 34.1779 87.9949 -0.536 0.458 -0.709 86 88 83
-49.3359 34.0432 87.3624 -0.654 0.588 -0.476 78 80 75
-46.9503 33.0169 81.7154 -0.558 -0.593 -0.580 45 53 42
-46.8483 32.9865 81.5781 -0.519 -0.600 -0.609 49 57 44
-46.7943 32.9457 81.3145 -0.549 -0.046 -0.834 53 61 50
-45.6955 32.8671 81.7633 -0.111 0.066 -0.992 93 99 87
-42.8224 32.0924 78.5321 -0.182 -0.390 -0.903 52 58 48
-42.5819 32.0412 78.3677 -0.308 -0.180 -0.934 115 117 107
-39.6518 31.4375 76.5143 -0.590 0.193 -0.784 87 86 82
-37.2146 30.8229 74.1030 -0.954 0.011 -0.300 161 178 185
-35.0129 30.6001 74.4964 0.609 0.156 -0.778 169 188 194
-30.8081 29.6200 70.9568 -0.390 0.244 -0.888 141 153 153
-30.6770 29.5959 70.8970 -0.542 0.104 -0.834 103 115 115
-29.4314 29.5447 71.6982 0.520 -0.554 -0.650 82 96 96
-27.4179 29.1778 70.7961 -0.991 0.062 -0.120 133 142 141
-27.3860 29.1480 70.5964 -0.989 0.054 -0.140 132 141 140
-24.5093 28.4867 68.2463 -0.690 0.291 -0.663 90 94 68
-24.3183 28.4643 68.2569 0.069 0.094 -0.993 90 95 64
-24.3101 28.4356 68.0423 -0.150 0.233 -0.961 90 96 62
-21.0226 27.9612 67.5335 -0.422 -0.169 -0.891 178 181 172
-19.9079 27.7356 66.8604 -0.504 0.231 -0.832 91 93 82
-18.8924 27.5898 66.7089 -0.361 -0.228 -0.904 68 66 53
1.6114 24.5673 63.0430 -0.976 0.034 -0.216 77 69 56
5.5929 24.0064 62.5329 -0.515 0.150 -0.844 57 55 43
-67.6009 39.3060 109.1628 -0.368 -0.930 -0.021 89 88 70
-67.4420 39.2924 109.2085 -0.388 -0.921 -0.025 96 95 77
-65.6661 39.1427 109.7395 0.183 0.115 -0.976 153 177 170
-65.5047 39.1257 109.7618 0.175 0.109 -0.979 45 75 69
-65.1734 39.1008 109.8835 -0.314 0.059 -0.948 128 156 167
-65.0279 39.0637 109.7375 -0.725 -0.105 -0.681 115 145 157
-64.2645 38.7292 107.9008 -0.875 -0.171 -0.453 181 203 198
-64.1084 38.7066 107.8755 -0.809 -0.363 -0.462 165 188 182
-63.9773 38.6579 107.6267 -0.635 -0.353 -0.687 174 197 191
-63.8215 38.6350 107.5986 -0.661 -0.289 -0.693 178 203 199
-63.0922 38.4705 107.0294 -0.830 -0.146 -0.538 209 235 232
-62.9648 38.4207 106.7693 -0.909 -0.018 -0.416 175 202 194
-62.0183 37.9810 104.3010 -0.866 0.149 -0.477 105 131 128
-59.9269 37.6073 103.4174 -0.659 -0.745 0.106 48 59 55
-59.9265 37.3494 101.4473 -0.911 0.081 -0.404 58 68 69
-59.8128 37.3006 101.1811 -0.911 0.081 -0.404 51 64 65
-58.7949 36.8781 98.9118 -0.635 -0.138 -0.760 85 97 95
-55.1303 36.0563 96.0873 -0.181 -0.981 -0.066 64 75 71
-55.5262 35.7848 93.6394 -0.352 -0.589 -0.727 66 77 73
-55.4387 35.7358 93.3470 -0.383 -0.533 -0.755 67 76 73
-55.2819 35.7180 93.3594 -0.376 -0.621 -0.687 69 78 75
-55.1516 35.6885 93.2563 -0.557 -0.479 -0.679 75 81 79
-54.9915 35.6720 93.2814 -0.633 -0.496 -0.594 75 81 81
-54.9231 35.6156 92.9146 -0.553 -0.738 -0.387 75 81 81
-54.8198 35.5747 92.6993 -0.609 -0.699 -0.376 80 86 86
-54.2157 35.5763 93.2815 -0.220 -0.902 -0.372 97 103 101
-51.8213 34.7699 89.3769 0.052 -0.916 -0.397 88 93 89
-49.7468 34.3302 87.9733 -0.431 0.266 -0.863 85 90 84
-49.6339 34.2980 87.8335 -0.766 0.309 -0.564 84 88 82
-49.2518 34.2144 87.5547 -0.603 0.610 -0.514 73 74 69
-48.9853 34.0987 86.9218 0.092 0.742 -0.664 71 72 65
-46.6669 33.1685 81.9987 -0.271 -0.764 -0.586 60 69 58
-46.6292 33.0703 81.2841 -0.120 -0.381 -0.917 80 90 77
-45.8142 33.0368 81.7971 0.193 -0.541 -0.818 82 89 76
-45.6759 33.0139 81.7523 -0.369 -0.071 -0.927 77 84 71
-45.1790 32.6096 79.1310 -0.373 0.131 -0.919 67 90 44
-42.5681 32.1842 78.3425 -0.378 0.082 -0.922 129 130 122
-42.1224 32.1214 78.2823 -0.594 0.098 -0.798 73 76 68
-38.4829 31.3216 75.6021 -0.490 -0.320 -0.811 98 98 90
-37.2295 30.9607 74.0266 -0.875 0.386 -0.291 162 178 184
-36.8871 30.9606 74.3488 -0.008 0.080 -0.997 156 173 179
-35.1135 30.7321 74.2749 0.598 0.175 -0.782 170 188 193
-30.6529 29.7383 70.8866 -0.559 0.089 -0.824 107 118 117
-27.4246 29.3209 70.7418 -0.986 0.078 -0.147 141 150 147
-27.0335 29.2152 70.3028 0.059 0.173 -0.983 150 156 156
-23.0039 28.4196 68.0222 -0.987 0.152 -0.056 69 70 41
-22.3875 28.4107 68.5361 -0.885 -0.405 -0.229 62 64 39
-22.0693 28.2472 67.5860 -0.432 -0.502 -0.749 131 134 114
-20.0020 27.9057 66.9261 -0.370 0.278 -0.887 94 96 85
-19.4459 27.8067 66.6939 0.115 0.026 -0.993 86 84 72
-17.1836 27.4093 65.7907 -0.489 -0.547 -0.679 85 73 57
-17.0092 27.3848 65.7676 -0.190 -0.770 -0.609 88 76 60
-16.4052 27.2852 65.5764 0.094 0.045 -0.995 106 90 75
-7.1483 26.0741 65.0508 -0.765 -0.631 0.126 79 65 54
1.6653 24.7474 63.2244 -0.675 -0.711 -0.198 81 74 58
2.3202 24.5419 62.2715 -0.377 0.106 -0.920 89 82 64
2.2957 24.5193 62.0756 -0.448 0.196 -0.872 92 85 66
-67.6184 39.4225 108.7025 -0.443 -0.896 -0.015 88 87 69
-67.4499 39.4253 108.8796 -0.375 -0.924 -0.068 96 95 77
-65.6429 39.3242 109.7874 0.146 -0.023 -0.989 165 188 182
-65.4839 39.3043 109.7840 0.140 0.026 -0.990 73 101 98
-65.1544 39.2774 109.8857 -0.099 -0.219 -0.971 137 165 178
-65.0133 39.2349 109.6955 -0.725 -0.105 -0.681 106 134 146
-64.7624 39.1152 109.0239 -0.822 -0.153 -0.548 49 76 92
-64.2601 38.8875 107.7691 -0.860 -0.158 -0.485 173 196 190
-64.1208 38.8473 107.5944 -0.866 -0.159 -0.474 169 192 186
-63.8086 38.8024 107.5445 -0.654 -0.290 -0.699 171 196 192
-62.9489 38.5908 106.7420 -0.873 -0.026 -0.487 190 217 210
-61.3149 37.8259 102.4790 -0.863 0.019 -0.506 40 54 52
-58.9342 37.0590 98.8909 -0.529 -0.388 -0.755 87 102 99
-58.7958 37.0294 98.7950 -0.528 -0.052 -0.848 77 92 87
-57.6578 36.5989 96.5980 -0.399 -0.060 -0.915 66 75 74
-57.3007 36.5870 96.8379 -0.648 -0.513 -0.563 66 75 73
-57.0951 36.4927 96.3160 -0.067 -0.481 -0.874 65 77 75
-55.4310 35.8880 93.2900 -0.382 -0.614 -0.691 67 76 75
-55.2900 35.8633 93.2339 -0.382 -0.614 -0.691 69 78 77
-46.8133 33.1697 80.7382 -0.353 -0.565 -0.746 66 80 61
-46.2019 33.1472 81.1340 0.240 -0.459 -0.855 61 78 51
-45.8150 33.1792 81.7334 0.336 -0.238 -0.911 59 75 50
-45.6819 33.1553 81.6756 -0.447 -0.107 -0.888 57 73 48
-45.3907 33.1126 81.6228 -0.518 -0.289 -0.805 51 71 39
-45.2655 32.9832 80.7618 -0.624 0.160 -0.765 69 92 49
-44.4028 32.6557 79.0874 -0.355 0.072 -0.932 65 84 48
-42.5104 32.3348 78.4146 -0.303 -0.083 -0.949 95 97 86
-40.1484 31.8609 77.0219 -0.674 0.088 -0.733 97 94 85
-38.7033 31.5150 75.7468 -0.701 0.034 -0.713 121 122 114
-38.4870 31.5023 75.8512 -0.480 -0.305 -0.822 106 107 99
-38.4163 31.4706 75.6774 -0.630 -0.181 -0.756 104 105 97
-31.0846 29.9817 71.2175 -0.431 0.152 -0.889 117 124 121
-31.1001 29.9469 70.9402 -0.632 -0.479 -0.609 106 113 110
-29.9466 29.6968 70.1192 -0.477 0.025 -0.879 138 143 142
-27.5422 29.5222 71.0247 0.355 -0.704 -0.615 168 174 170
-27.3102 29.4388 70.6091 -0.933 0.340 -0.119 128 134 130
-27.0830 29.2297 69.2410 -0.549 0.365 -0.752 69 75 73
-25.9827 29.0380 68.8115 -0.292 0.359 -0.886 155 158 148
-22.4326 28.5538 68.4392 -0.908 -0.331 -0.257 63 65 42
-22.5449 28.5204 68.0831 -0.858 0.438 -0.268 56 59 37
-22.4110 28.4665 67.8001 -0.881 -0.059 -0.469 69 72 53
-22.3533 28.4393 67.6484 -0.830 -0.081 -0.552 82 85 66
-22.2819 28.4127 67.5133 -0.835 -0.068 -0.545 75 78 59
-22.2210 28.3858 67.3665 -0.848 -0.072 -0.524 166 169 152
-22.1659 28.3587 67.2134 -0.868 -0.060 -0.493 178 180 166
-19.8016 27.9988 66.6824 -0.127 0.194 -0.973 116 116 104
-19.4734 27.9505 66.6218 -0.176 0.136 -0.975 90 86 74
-16.8878 27.4780 65.4454 -0.657 -0.583 -0.477 93 80 64
-16.5224 27.4560 65.6179 0.077 0.156 -0.985 91 78 62
-16.3763 27.4311 65.5647 0.150 0.082 -0.985 88 73 58
-7.3683 26.2031 64.6252 -0.725 -0.680 0.109 91 77 68
-65.6834 39.6508 110.8580 -0.782 0.346 -0.518 167 181 177
-64.7384 39.2965 109.0724 -0.801 -0.137 -0.582 45 73 88
-63.7525 39.0150 107.8668 -0.805 -0.315 -0.502 170 195 191
-63.5815 39.0070 107.9628 -0.920 0.133 -0.368 187 212 208
-63.0607 38.8108 106.9715 -0.829 -0.111 -0.548 198 223 220
-62.9309 38.7628 106.7309 -0.808 -0.057 -0.586 193 220 212
-60.2792 38.0708 103.9752 -0.995 -0.083 0.059 50 60 59
-60.3651 37.8700 102.3997 -0.911 -0.122 -0.394 50 60 59
-59.8928 37.5516 100.4528 -0.307 -0.481 -0.822 83 95 95
-59.7414 37.5294 100.4246 -0.335 -0.502 -0.798 77 90 90
-58.9677 37.1893 98.5899 -0.623 -0.508 -0.595 83 94 93
-58.2720 37.0453 98.1468 -0.107 0.264 -0.959 61 71 70
-57.3024 36.7371 96.7271 -0.636 -0.529 -0.562 65 74 71
-55.1529 35.8971 92.4118 -0.550 0.099 -0.829 76 82 82
-55.0537 35.8543 92.1822 -0.560 0.167 -0.812 75 81 81
-54.7574 35.8126 92.1400 -0.501 0.169 -0.848 88 94 94
-54.6457 35.7757 91.9664 -0.508 0.139 -0.850 94 100 99
-53.5610 35.7289 92.6013 0.524 -0.659 -0.539 91 97 95
-52.5172 35.1101 88.9323 0.099 -0.284 -0.954 86 92 88
-47.1023 34.0357 85.8301 -0.728 -0.446 -0.521 62 74 51
-47.0261 33.3141 80.5171 -0.581 0.305 -0.754 52 68 50
-45.0807 32.9082 79.2540 -0.306 0.141 -0.942 67 90 48
-44.6120 32.8531 79.2686 -0.546 0.063 -0.835 78 94 56
-44.4912 32.8276 79.1877 -0.546 0.063 -0.835 74 92 54
-44.3592 32.8042 79.1332 -0.444 -0.124 -0.888 76 93 60
-42.3498 32.4569 78.3653 -0.253 -0.077 -0.964 81 83 72
-42.0022 32.4239 78.4342 0.048 0.273 -0.961 66 68 57
-41.9936 32.2875 77.4250 -0.365 -0.253 -0.896 71 72 66
-38.5306 31.6373 75.7163 -0.630 -0.347 -0.695 102 103 95
-38.4163 31.6113 75.6258 -0.630 -0.347 -0.695 101 102 94
-36.8986 31.2394 74.2287 -0.358 -0.137 -0.924 163 177 178
-33.5966 30.7940 73.9011 0.431 -0.266 -0.862 205 215 214
-32.8433 30.7551 74.2950 0.422 -0.271 -0.865 165 175 174
-32.5794 30.7430 74.4436 0.389 -0.482 -0.785 150 160 159
-32.5349 30.7100 74.2380 -0.087 0.479 -0.873 137 147 146
-32.3530 30.6899 74.2533 0.013 0.416 -0.909 118 128 127
-31.2938 30.5283 74.0088 -0.196 0.943 -0.267 84 93 92
-30.5684 30.1972 72.1965 -0.716 0.652 -0.251 131 137 133
-30.7243 30.0143 70.6909 -0.442 0.041 -0.896 125 130 126
-30.4161 29.9698 70.6388 -0.369 0.030 -0.929 125 130 126
-27.5911 29.6629 70.9123 0.522 -0.017 -0.853 68 74 70
-27.3052 29.6150 70.8140 -0.847 0.389 -0.361 44 50 46
-27.2749 29.5842 70.6120 -0.925 0.359 -0.123 57 63 59
-26.1914 29.2624 69.1943 0.329 -0.078 -0.941 154 159 155
-26.1591 29.2018 68.7718 -0.542 0.011 -0.840 148 154 145
-25.7273 29.1617 68.8644 -0.277 -0.361 -0.891 162 165 154
-23.8085 28.7932 67.8559 -0.997 0.049 -0.061 86 85 64
-22.8608 28.7116 68.1076 -0.977 0.204 -0.055 80 79 58
-22.4541 28.6676 68.1480 -0.876 0.406 -0.261 78 81 62
-22.4194 28.6097 67.7474 -0.841 -0.075 -0.535 79 82 63
-22.2730 28.5562 67.4813 -0.841 -0.075 -0.536 108 111 94
-19.9094 28.1684 66.7328 -0.130 0.222 -0.966 105 105 93
-19.7305 28.1448 66.7190 -0.286 0.327 -0.901 113 111 99
-19.6055 28.1198 66.6456 -0.412 0.318 -0.854 118 114 102
-16.5898 27.5734 65.3057 -0.178 -0.379 -0.908 92 80 64
-16.3653 27.5497 65.3329 -0.032 0.178 -0.984 88 76 60
-10.6683 26.7737 64.7124 -0.016 0.251 -0.968 91 74 66
-10.5766 26.6705 64.0258 -0.976 0.186 -0.116 86 73 60
1.3625 25.1184 63.2784 -0.430 -0.808 -0.402 87 79 66
3.3854 24.7592 62.4335 -0.756 0.449 -0.477 98 91 73
-65.6428 39.8576 111.0919 -0.765 0.225 -0.603 156 171 167
-65.4915 39.8251 110.9872 -0.632 0.316 -0.707 186 210 202
-65.1059 39.6437 109.9936 -0.024 -0.070 -0.997 60 88 99
-64.7298 39.4600 108.9741 -0.791 -0.088 -0.606 43 71 85
-62.9435 38.9052 106.4744 -0.658 -0.168 -0.734 199 224 216
-61.4404 38.3216 103.5101 -0.746 -0.455 -0.486 43 59 59
-60.7183 38.1727 103.0551 -0.986 0.159 -0.052 42 52 51
-60.2990 38.2120 103.7177 -0.973 -0.228 0.027 50 60 59
-60.3786 38.0138 102.1868 -0.977 -0.044 -0.209 51 61 60
-59.9488 37.9250 101.9142 -0.561 -0.791 -0.243 70 79 78
-59.7337 37.6870 100.3517 -0.351 -0.573 -0.740 78 89 89
-58.1204 37.2890 98.8535 -0.309 0.450 -0.838 60 69 68
-57.6162 36.9229 96.6041 -0.495 -0.041 -0.868 73 82 81
-57.3059 36.8859 96.6074 -0.629 -0.521 -0.577 61 70 67
-57.1687 36.8571 96.5176 -0.666 -0.540 -0.515 56 67 63
-55.3252 36.1438 92.9005 -0.478 -0.635 -0.606 83 92 89
-55.1816 36.1206 92.8575 -0.469 -0.623 -0.626 78 87 84
-54.7653 36.1328 93.3176 0.154 -0.881 -0.446 78 87 84
-54.3904 35.9494 92.2990 -0.543 0.194 -0.817 90 99 94
-54.1323 35.8901 92.0919 -0.640 0.042 -0.768 93 102 97
-53.3613 35.8779 92.6877 -0.804 0.595 -0.029 97 103 99
-53.2236 35.6866 91.4003 -0.574 0.646 -0.503 82 88 84
-52.5240 35.2533 88.8291 0.109 -0.282 -0.953 91 100 95
-49.2682 34.6512 87.2886 -0.938 -0.242 -0.248 78 80 69
-49.1945 34.6073 87.0305 -0.793 -0.531 -0.298 76 81 66
-49.0014 34.5339 86.6611 -0.820 -0.500 -0.278 75 84 62
-46.1921 33.4317 81.0373 -0.139 -0.610 -0.780 58 83 44
-45.8085 33.4654 81.6273 -0.034 -0.521 -0.853 60 84 47
-45.6647 33.4440 81.5971 -0.648 -0.498 -0.576 57 81 44
-44.6108 32.9934 79.2136 -0.385 -0.051 -0.922 66 81 48
-41.9042 32.5354 78.2467 -0.391 0.176 -0.903 73 75 64
-41.9472 32.4353 77.4704 -0.543 -0.333 -0.771 88 89 83
-38.7720 31.7446 75.2049 -0.046 -0.291 -0.956 95 96 88
-36.8594 31.3841 74.2489 -0.330 -0.127 -0.935 161 173 173
-36.6098 31.3352 74.1111 -0.377 -0.507 -0.775 161 175 175
-33.0094 30.9201 74.2547 0.033 -0.918 -0.395 97 106 103
-30.4318 30.3510 72.3534 -0.796 -0.007 -0.605 146 151 146
-27.7544 29.8623 71.1336 0.312 0.779 -0.544 65 70 64
-27.5424 29.8429 71.1795 0.341 0.719 -0.606 70 75 69
-27.5670 29.8080 70.9000 0.518 0.000 -0.855 75 80 74
-27.2536 29.7619 70.8391 -0.846 0.387 -0.366 81 86 80
-27.2215 29.7309 70.6392 -0.925 0.359 -0.123 82 87 81
-26.9503 29.6169 70.0403 -0.584 0.797 -0.153 95 100 94
-26.8252 29.5920 69.9682 -0.567 0.806 -0.171 101 106 102
-26.0997 29.3780 69.0365 -0.994 0.079 0.077 158 163 157
-26.1081 29.3461 68.7939 -0.510 0.261 -0.819 156 159 151
-25.7851 29.3008 68.7469 -0.217 -0.445 -0.869 168 171 160
-25.6299 29.2777 68.7149 -0.243 -0.426 -0.871 172 175 166
-22.9867 28.9104 68.3594 0.366 -0.440 -0.820 85 84 64
-22.3283 28.8167 68.2543 -0.881 0.416 -0.228 83 85 71
-21.3333 28.5862 67.4408 -0.463 0.087 -0.882 182 185 174
-19.7829 28.3163 66.8308 -0.612 -0.119 -0.782 106 104 92
-19.6386 28.2917 66.7785 -0.631 -0.143 -0.763 113 109 98
-19.5351 28.2660 66.6811 -0.701 -0.196 -0.685 77 73 61
-19.1397 28.1914 66.4825 -0.096 -0.409 -0.907 73 65 54
-19.0448 28.1655 66.3763 -0.870 0.185 -0.456 62 54 43
-18.4453 27.9838 65.5703 -0.677 -0.002 -0.736 76 61 53
-16.2796 27.6691 65.1778 -0.179 0.340 -0.923 78 69 54
3.4667 24.9157 62.4520 -0.756 0.449 -0.477 98 91 75
3.4556 24.8918 62.2657 -0.497 0.413 -0.763 93 87 73
-65.6162 40.0462 111.1747 -0.766 0.215 -0.606 146 159 155
-65.3091 39.9867 111.0094 -0.656 0.414 -0.631 137 165 159
-63.6499 39.2440 107.0484 -0.800 -0.389 -0.456 178 200 197
-60.2657 38.1150 101.7782 -0.921 -0.346 -0.178 67 76 75
-60.0177 37.8961 100.4008 -0.416 -0.552 -0.723 87 96 95
-55.1921 36.2638 92.7230 -0.469 -0.623 -0.626 78 87 84
-54.6508 36.2449 93.0575 -0.902 0.087 -0.423 82 91 88
-54.3677 36.1077 92.3057 0.034 0.235 -0.971 89 95 91
-54.2656 36.0661 92.0915 -0.019 0.275 -0.961 94 100 96
-54.1327 36.0382 92.0045 -0.003 0.289 -0.957 95 101 97
-49.4385 34.7455 86.6857 -0.924 -0.380 -0.031 78 80 69
-49.1144 34.6461 86.2441 -0.882 -0.450 -0.138 80 92 67
-47.1848 33.6645 80.7792 -0.698 0.271 -0.663 60 83 56
-45.5744 33.5526 81.3691 -0.836 -0.332 -0.437 50 75 35
-45.4859 33.5186 81.1991 -0.823 -0.357 -0.443 45 70 31
-45.3709 33.4908 81.0965 -0.772 -0.303 -0.559 61 86 46
-44.4665 33.1125 79.1310 -0.635 0.067 -0.769 108 122 97
-44.3586 33.0843 79.0194 -0.632 0.062 -0.773 115 129 108
-42.5667 32.6989 77.7763 -0.389 0.496 -0.776 45 47 36
-41.8327 32.6893 78.3465 -0.481 0.159 -0.862 96 98 87
-38.1882 31.7570 74.7365 -0.505 0.660 -0.556 88 87 83
-36.8451 31.5258 74.2247 -0.330 -0.127 -0.935 158 170 170
-30.4773 30.4902 72.2388 -0.536 0.312 -0.784 136 141 136
-30.3646 30.2548 70.6227 -0.400 0.124 -0.908 114 116 113
-30.2130 30.1643 70.0961 -0.674 -0.122 -0.729 24 26 23
-30.0142 30.1457 70.1339 -0.278 0.053 -0.959 25 27 24
-27.3712 30.0327 71.6170 0.316 0.774 -0.548 84 89 83
-27.0204 29.7552 69.9020 -0.800 0.321 -0.507 113 118 112
-26.9196 29.7289 69.7981 -0.792 0.323 -0.517 118 123 117
-26.5705 29.5884 69.0797 -0.060 0.196 -0.979 149 154 150
-26.4482 29.5636 69.0059 -0.077 0.133 -0.988 137 142 138
-26.0596 29.4905 68.8127 -0.566 0.311 -0.764 163 166 158
-25.6463 29.4187 68.6505 -0.243 -0.426 -0.871 181 184 173
-21.1425 28.7075 67.4005 -0.505 -0.191 -0.842 187 190 179
-21.0428 28.6816 67.2983 -0.469 -0.170 -0.867 158 161 150
-20.8793 28.6284 67.0538 -0.582 -0.215 -0.784 97 99 88
-20.5842 28.5800 66.9588 -0.416 -0.561 -0.715 104 104 92
-19.7669 28.4612 66.8064 -0.605 -0.205 -0.769 109 105 94
-19.5994 28.4374 66.7796 -0.622 -0.342 -0.704 112 108 97
-19.5037 28.4114 66.6737 -0.635 -0.289 -0.716 59 53 41
-19.1184 28.3364 66.4639 -0.093 -0.466 -0.880 74 66 55
-10.5306 27.0732 64.7571 -0.372 -0.830 -0.416 96 79 69
-2.4551 25.9374 63.5308 -0.741 0.345 -0.576 80 66 53
1.1753 25.3875 62.6938 -0.643 -0.611 -0.462 75 65 53
3.5273 25.0730 62.4555 -0.569 0.283 -0.772 97 91 75
5.8784 24.8262 62.7096 -0.807 0.319 -0.497 73 71 58
-65.4417 40.1977 111.1142 -0.666 0.309 -0.679 187 210 200
-64.0611 39.5245 107.4503 -0.607 -0.074 -0.792 170 190 188
-63.8987 39.5096 107.4819 -0.823 -0.292 -0.487 161 181 179
-61.3487 38.4061 101.7215 -0.877 -0.108 -0.468 43 46 45
-61.0168 38.5315 102.9078 -0.154 0.053 -0.987 41 46 47
-59.6146 37.9462 99.8948 -0.281 -0.716 -0.639 42 48 46
-59.4831 37.9107 99.7517 -0.288 -0.689 -0.664 40 46 44
-47.4019 33.8620 80.9491 -0.843 -0.061 -0.535 59 83 47
-47.3373 33.8219 80.7156 -0.598 -0.461 -0.656 55 80 43
-42.5576 32.9857 78.7873 -0.240 -0.071 -0.968 55 58 49
-42.3236 32.9325 78.6046 -0.645 0.305 -0.700 58 60 49
-42.2159 32.9042 78.4930 -0.645 0.305 -0.700 58 60 49
-41.9295 32.8608 78.4258 -0.068 0.131 -0.989 86 88 77
-41.5385 32.7884 78.2395 -0.547 -0.255 -0.797 103 104 98
-41.3320 32.7778 78.3402 -0.699 0.039 -0.714 99 100 94
-38.4532 31.9428 74.7930 -0.523 0.498 -0.691 80 81 73
-38.1509 31.9016 74.7554 -0.414 0.681 -0.604 81 80 76
-36.8936 31.6594 74.0884 -0.793 -0.104 -0.600 162 174 174
-33.9920 31.3328 74.2204 -0.263 -0.960 -0.101 95 106 102
-33.8968 31.3044 74.0976 -0.270 -0.958 -0.097 96 107 103
-33.6911 31.2882 74.1573 -0.249 -0.954 -0.166 99 110 106
-32.0024 30.9682 73.2995 -0.023 -0.986 -0.168 139 145 143
-31.7513 30.9554 73.4223 -0.031 -0.986 -0.162 136 142 140
-30.5593 30.6259 72.0701 -0.606 -0.773 -0.188 68 73 68
-30.1618 30.5174 71.6298 -0.059 0.555 -0.830 37 42 36
-30.2316 30.3027 70.0245 -0.498 -0.198 -0.845 50 52 49
-27.4011 30.2446 72.0286 0.370 0.749 -0.550 108 113 107
-26.7522 29.8163 69.5015 -0.378 -0.916 -0.134 145 149 148
-26.6508 29.7901 69.3994 -0.848 -0.303 -0.434 148 153 149
-26.2086 29.7201 69.2736 -0.152 0.359 -0.921 147 152 148
-26.1193 29.6931 69.1560 -0.582 0.280 -0.764 149 154 150
-25.9104 29.6411 68.9608 -0.535 0.307 -0.787 165 168 160
-25.6875 29.5901 68.7844 -0.492 0.052 -0.869 177 180 169
-25.5632 29.5654 68.7126 -0.492 0.052 -0.869 178 181 170
-22.8901 29.1407 67.9438 -0.973 0.200 -0.118 95 94 74
-21.0783 28.8541 67.4315 -0.737 0.126 -0.664 185 188 177
-20.1557 28.7100 67.1838 -0.480 0.273 -0.834 107 105 93
-19.8581 28.6614 67.0885 -0.330 -0.182 -0.926 99 97 85
-19.7402 28.6065 66.7940 -0.701 -0.282 -0.656 108 104 93
-19.6060 28.5817 66.7304 -0.620 -0.337 -0.708 113 109 98
-19.5119 28.5555 66.6228 -0.635 -0.289 -0.716 82 76 64
-19.2449 28.5059 66.4941 -0.118 -0.476 -0.871 57 49 38
-8.1747 26.9421 64.7123 -0.239 -0.577 -0.781 90 74 61
2.7416 25.3448 62.5576 -0.596 0.339 -0.728 86 79 63
3.3230 25.2601 62.4453 -0.279 0.021 -0.960 94 88 72
4.3234 25.1175 62.2758 0.043 -0.151 -0.988 80 74 62
5.4925 25.0200 62.5742 -0.339 -0.033 -0.940 76 72 60
5.5360 24.9943 62.4267 -0.762 0.006 -0.648 76 72 60
