ply
format ascii 1.0
element vertex 857
property float x
property float y
property float z
property float nx
property float ny
property float nz
property uchar diffuse_red
property uchar diffuse_green
property uchar diffuse_blue
end_header
-45.5664 56.3378 80.6634 -0.762 0.570 -0.308 120 134 107
-45.3029 56.2680 80.0790 -0.829 0.448 -0.336 94 108 75
-45.2175 56.2447 79.8795 -0.836 0.364 -0.410 100 113 85
-45.1239 56.2225 79.7064 -0.839 0.351 -0.416 119 130 111
-44.9908 56.2051 79.6531 -0.658 0.501 -0.562 134 144 132
-44.9126 56.1812 79.4356 -0.756 0.425 -0.498 134 143 137
-44.8199 56.1591 79.2629 -0.792 0.397 -0.463 134 142 144
-25.3731 53.2928 66.9701 -0.680 0.278 -0.678 160 160 150
-25.2468 53.2751 66.9025 -0.579 -0.008 -0.815 144 144 136
-25.0218 53.2396 66.7281 -0.633 0.046 -0.773 112 112 104
-24.9036 53.2218 66.6492 -0.691 0.038 -0.722 61 61 53
-24.8154 53.2040 66.5283 -0.589 -0.003 -0.808 65 65 57
-24.6952 53.1863 66.4525 -0.596 0.002 -0.803 73 73 65
-24.5015 53.1688 66.4790 -0.595 0.204 -0.778 79 79 71
-24.1952 53.1155 66.1760 -0.591 0.145 -0.793 85 82 73
-22.9891 52.9736 65.8986 -0.877 -0.119 -0.466 84 88 74
-22.9924 52.9561 65.6574 -0.175 -0.289 -0.941 84 88 74
-22.8054 52.9383 65.6703 -0.171 -0.293 -0.941 87 91 77
-22.6748 52.9205 65.6079 -0.230 -0.137 -0.963 106 110 96
-22.5276 52.9027 65.5672 -0.311 -0.071 -0.948 129 133 119
-22.3841 52.8849 65.5215 -0.311 -0.071 -0.948 133 135 122
-21.2197 52.7247 64.9413 -0.615 0.336 -0.713 90 87 80
-20.8121 52.6712 64.7716 -0.177 0.216 -0.960 92 89 82
-20.3449 52.6170 64.6752 -0.469 0.338 -0.816 97 94 89
-20.2331 52.5993 64.5881 -0.361 0.257 -0.896 81 77 74
-20.0916 52.5814 64.5377 -0.293 0.272 -0.917 84 80 77
-19.9616 52.5635 64.4731 -0.370 0.280 -0.886 109 105 102
-19.8119 52.5454 64.4327 -0.466 0.310 -0.829 124 120 117
-19.2713 52.4901 64.4208 -0.057 -0.093 -0.994 63 62 58
-18.6108 52.4167 64.3264 -0.514 -0.001 -0.858 115 115 107
-18.5091 52.3990 64.2265 -0.713 0.025 -0.701 102 102 94
-18.3988 52.3813 64.1369 -0.675 0.084 -0.733 94 94 86
-18.0557 52.3442 64.1026 -0.752 -0.212 -0.624 121 121 113
-17.9908 52.3271 63.9596 -0.498 -0.061 -0.865 121 120 115
-17.8622 52.3092 63.8917 -0.295 0.079 -0.952 89 90 84
-17.7018 52.2908 63.8608 -0.272 0.118 -0.955 86 87 81
-17.5516 52.2725 63.8178 -0.103 0.154 -0.983 104 105 99
-17.4060 52.2542 63.7694 -0.041 0.171 -0.984 114 115 109
-17.2598 52.2360 63.7214 -0.351 -0.087 -0.932 116 117 111
-17.0916 52.2173 63.6986 -0.269 0.276 -0.923 118 121 112
-16.9452 52.1990 63.6504 -0.269 0.276 -0.923 103 106 97
-16.8052 52.1808 63.5949 -0.354 0.338 -0.872 98 101 90
-16.7502 52.1640 63.4424 -0.589 0.110 -0.801 100 103 92
-16.6369 52.1463 63.3567 -0.589 0.110 -0.801 93 97 83
-16.4570 52.1274 63.3463 -0.219 0.082 -0.972 104 108 94
-16.3132 52.1091 63.2949 -0.195 0.136 -0.971 86 89 78
-16.1724 52.0909 63.2399 -0.273 0.057 -0.960 98 101 92
-14.2083 51.8503 62.6594 -0.122 0.073 -0.990 87 92 85
-14.0324 51.8311 62.6400 -0.130 0.068 -0.989 110 115 108
-13.5450 51.7745 62.5372 -0.259 0.095 -0.961 121 123 120
-11.5661 51.5454 62.1337 -0.080 0.208 -0.975 106 106 98
-10.3711 51.4244 62.1233 -0.537 0.332 -0.775 75 72 65
-10.2605 51.4065 62.0319 -0.650 0.347 -0.676 100 97 90
-10.1795 51.3894 61.9114 -0.510 0.395 -0.764 73 73 63
-10.0526 51.3711 61.8366 -0.676 0.388 -0.627 76 78 65
-9.9871 51.3545 61.7013 -0.525 0.240 -0.816 91 93 80
-9.6460 51.3155 61.6373 0.019 -0.143 -0.990 72 74 61
-8.0916 51.1381 61.3546 -0.413 -0.028 -0.910 113 116 107
2.1364 50.0470 60.5225 -0.616 0.325 -0.718 104 107 98
2.3382 50.0248 60.4979 -0.677 0.069 -0.732 94 97 88
2.4295 50.0073 60.3847 -0.685 0.070 -0.725 102 105 96
2.6859 49.9691 60.2175 -0.087 -0.558 -0.825 108 111 102
12.8410 49.0033 60.9810 0.221 -0.450 -0.865 73 76 67
12.9191 48.9859 60.8518 0.326 -0.416 -0.849 85 88 78
13.5654 48.9408 61.1221 0.326 -0.416 -0.849 86 89 78
-61.3526 58.3516 84.5066 0.275 0.188 -0.943 91 84 65
-53.6118 57.9609 89.5596 -0.460 -0.616 -0.639 121 121 111
-53.4779 57.9417 89.4825 -0.464 -0.620 -0.632 139 142 136
-51.7789 57.5815 86.9582 0.112 -0.123 -0.986 84 98 72
-51.4514 57.5586 87.0869 0.285 -0.287 -0.915 133 145 131
-51.3000 57.5441 87.0945 -0.131 0.064 -0.989 143 154 150
-51.1999 57.5179 86.8802 0.228 0.149 -0.962 143 153 154
-50.2927 57.3821 86.2810 -0.892 0.264 -0.368 151 163 159
-48.4528 57.0745 84.6388 -0.233 -0.583 -0.778 145 156 152
-48.3155 57.0569 84.5869 -0.240 -0.594 -0.768 133 144 138
-48.1725 57.0402 84.5550 -0.240 -0.594 -0.768 134 145 139
-48.0284 57.0237 84.5268 -0.216 -0.575 -0.789 133 144 138
-47.7002 56.9973 84.6109 -0.774 0.488 -0.403 119 130 124
-47.7004 56.9565 84.0695 -0.609 0.738 -0.290 119 130 126
-47.7076 56.8356 82.4593 -0.614 0.202 -0.763 103 118 87
-47.6341 56.8083 82.1956 -0.374 0.165 -0.913 95 113 68
-47.5067 56.7899 82.1192 -0.335 0.163 -0.928 93 112 56
-47.3721 56.7725 82.0675 -0.335 0.163 -0.928 101 118 70
-47.2556 56.7523 81.9541 -0.631 0.106 -0.769 106 121 88
-47.1277 56.7339 81.8793 -0.204 -0.061 -0.977 112 126 106
-46.9971 56.7160 81.8141 -0.674 0.154 -0.722 117 129 118
-46.8758 56.6966 81.7176 -0.595 0.095 -0.798 122 133 125
-46.7287 56.6811 81.7066 -0.554 0.161 -0.817 129 140 132
-46.5935 56.6637 81.6558 -0.219 -0.389 -0.895 135 146 138
-45.5016 56.4548 80.3319 -0.829 0.300 -0.472 107 122 91
-45.4271 56.4297 80.0972 -0.669 0.340 -0.661 99 113 78
-45.3164 56.4094 79.9748 -0.669 0.340 -0.661 90 104 70
-45.2058 56.3891 79.8525 -0.669 0.340 -0.661 89 102 73
-45.0820 56.3706 79.7706 -0.642 0.279 -0.715 112 124 102
-44.9536 56.3526 79.7025 -0.681 0.500 -0.534 138 148 137
-44.8565 56.3308 79.5413 -0.748 0.498 -0.439 136 146 140
-44.7685 56.3079 79.3542 -0.818 0.389 -0.424 136 145 145
-40.4103 55.6407 76.2785 -0.190 -0.790 -0.582 153 162 157
-25.4552 53.4534 67.0721 -0.692 0.294 -0.659 153 153 141
-25.2382 53.4177 66.8859 -0.680 0.278 -0.678 142 141 135
-24.9119 53.3642 66.6091 -0.642 0.097 -0.761 73 73 65
-24.8400 53.3462 66.4655 -0.487 0.165 -0.858 97 97 89
-24.5898 53.3292 66.5715 -0.646 0.285 -0.708 105 105 97
-23.1437 53.1165 65.6649 -0.475 0.472 -0.743 80 84 70
-22.8804 53.0989 65.7797 -0.335 -0.000 -0.942 84 88 74
-22.7532 53.0811 65.7127 -0.341 0.006 -0.940 96 100 85
-22.6272 53.0634 65.6440 -0.363 -0.022 -0.931 141 145 131
-22.4945 53.0456 65.5842 -0.369 -0.011 -0.929 103 107 93
-22.3549 53.0278 65.5332 -0.386 0.035 -0.922 93 95 82
-21.9206 52.9744 65.3999 -0.247 -0.098 -0.964 106 106 96
-21.7904 52.9566 65.3364 -0.254 -0.101 -0.962 110 110 100
-21.6922 52.9389 65.2315 -0.411 0.070 -0.909 94 94 82
-21.3809 52.9032 65.1692 -0.567 -0.110 -0.816 119 119 109
-21.3040 52.8855 65.0374 -0.601 0.175 -0.780 138 135 126
-21.0630 52.8500 64.8855 -0.174 0.216 -0.961 100 97 90
-20.9274 52.8322 64.8286 -0.192 0.219 -0.957 91 88 81
-20.7873 52.8143 64.7773 -0.168 0.231 -0.958 92 89 80
-20.6198 52.7963 64.7601 -0.143 0.242 -0.960 103 100 91
-20.4669 52.7784 64.7243 -0.186 0.285 -0.940 116 113 106
-20.2888 52.7603 64.7197 -0.461 0.335 -0.822 127 124 119
-20.1803 52.7425 64.6282 -0.359 0.334 -0.871 109 106 101
-20.0441 52.7246 64.5712 -0.251 0.324 -0.912 98 94 91
-19.4025 52.6522 64.4600 -0.143 -0.116 -0.983 93 89 86
-19.0363 52.6155 64.4574 -0.133 -0.210 -0.969 94 93 88
-18.6143 52.5613 64.2977 -0.589 -0.038 -0.807 120 120 112
-18.5142 52.5437 64.1960 -0.705 0.019 -0.709 84 84 76
-18.3810 52.5257 64.1338 -0.670 0.054 -0.740 102 102 94
-18.2763 52.5080 64.0377 -0.670 0.054 -0.740 115 115 107
-18.1842 52.4904 63.9271 -0.610 0.007 -0.792 101 101 93
-17.8265 52.4534 63.9095 -0.291 0.100 -0.952 72 73 67
-17.5630 52.4174 63.7809 -0.174 -0.030 -0.984 73 74 68
-17.3606 52.3985 63.7982 -0.077 0.154 -0.985 82 83 77
-17.2532 52.3808 63.7054 -0.351 -0.087 -0.932 88 89 83
-17.0602 52.3620 63.7111 -0.284 0.285 -0.915 95 96 88
-16.9159 52.3437 63.6605 -0.284 0.285 -0.915 89 92 83
-16.7062 52.3084 63.4692 -0.552 0.043 -0.833 84 87 76
-16.5833 52.2904 63.3942 -0.546 0.045 -0.837 86 90 76
-16.1538 52.2681 63.6656 0.082 0.361 -0.929 98 102 88
-16.2530 52.2534 63.3395 -0.190 0.260 -0.947 89 92 81
-13.6644 51.9389 62.5955 -0.321 0.100 -0.942 89 91 86
-13.5181 51.9204 62.5437 -0.321 0.100 -0.942 101 103 100
-11.5053 51.6917 62.1743 -0.363 -0.075 -0.929 97 97 89
-10.0007 51.5183 61.8671 -0.674 0.415 -0.611 63 65 53
-9.9875 51.5029 61.6804 -0.650 0.032 -0.759 76 78 65
-9.9289 51.4864 61.5389 0.191 0.087 -0.978 79 81 68
-9.6776 51.4649 61.5859 0.191 0.087 -0.978 80 82 69
2.3396 50.1824 60.4812 -0.664 -0.087 -0.742 84 87 78
2.3757 50.1670 60.3240 -0.406 -0.314 -0.858 92 95 86
2.5276 50.1469 60.2595 -0.406 -0.314 -0.858 95 98 89
4.3547 49.9753 60.4005 -0.333 -0.021 -0.943 65 68 59
4.5132 49.9548 60.3386 -0.337 0.003 -0.941 67 70 61
8.4798 49.5769 60.5760 -0.429 -0.661 -0.615 61 62 54
9.4099 49.4802 60.5239 0.275 0.189 -0.943 60 63 56
14.2523 49.0494 61.2165 0.352 -0.532 -0.770 67 69 58
-62.2057 59.6806 98.8233 0.018 0.199 -0.980 93 90 73
-54.3356 58.9851 99.8973 -0.346 0.747 -0.567 91 87 75
-53.7348 58.4344 93.5261 -0.964 0.230 -0.135 100 94 80
-53.8548 58.1535 89.7290 -0.631 0.052 -0.774 110 104 92
-53.7266 58.1327 89.6229 -0.631 0.052 -0.774 109 103 90
-53.6170 58.1064 89.4232 -0.460 -0.616 -0.639 119 115 103
-51.5902 57.7222 87.0391 0.186 -0.035 -0.982 96 110 88
-51.3083 57.6886 86.9656 -0.183 0.262 -0.948 145 156 149
-51.1483 57.6762 87.0097 0.158 0.075 -0.985 143 154 151
-48.3247 57.2016 84.4755 -0.225 -0.587 -0.778 127 138 132
-47.6186 56.9545 82.1771 -0.335 0.156 -0.929 79 96 54
-47.4840 56.9372 82.1256 -0.335 0.156 -0.929 90 109 54
-47.3246 56.9240 82.1579 -0.494 0.617 -0.613 99 117 67
-47.1837 56.9076 82.1265 -0.513 0.521 -0.682 106 122 85
-47.1134 56.8799 81.8572 -0.172 -0.015 -0.985 112 126 103
-46.9019 56.8748 82.0620 -0.727 0.094 -0.680 117 129 117
-46.8575 56.8432 81.7091 -0.574 0.051 -0.817 122 133 126
-46.7250 56.8255 81.6499 -0.207 -0.380 -0.902 129 140 134
-46.5919 56.8079 81.5926 -0.219 -0.389 -0.895 134 145 137
-45.5341 56.6294 80.6346 -0.910 0.282 -0.305 120 134 106
-45.4511 56.6050 80.4237 -0.892 0.304 -0.335 99 114 82
-45.3731 56.5799 80.1992 -0.889 0.297 -0.348 84 99 65
-45.2961 56.5549 79.9734 -0.799 0.282 -0.531 83 97 63
-45.1979 56.5329 79.8138 -0.799 0.282 -0.531 96 109 81
-45.1023 56.5106 79.6472 -0.802 0.278 -0.529 116 128 108
-44.6880 56.4607 79.5314 -0.703 0.632 -0.326 136 145 145
-40.5564 55.7991 76.2499 -0.026 -0.008 -1.000 150 159 154
-40.1085 55.7516 76.2078 -0.230 -0.807 -0.545 152 161 156
-39.9222 55.7388 76.2815 -0.170 -0.715 -0.679 152 161 156
-39.6462 55.7336 76.5677 -0.343 -0.721 -0.602 150 160 152
-25.3412 53.5972 67.2067 -0.726 0.287 -0.625 151 151 139
-25.2484 53.5791 67.0906 -0.726 0.287 -0.625 153 153 143
-24.9929 53.5246 66.7120 -0.532 0.545 -0.648 71 71 63
-24.8903 53.5067 66.6111 -0.622 0.068 -0.780 73 73 65
-24.7832 53.4888 66.5168 -0.504 0.188 -0.843 84 84 76
-24.5527 53.4721 66.5951 -0.646 0.285 -0.708 90 90 82
-24.2510 53.4183 66.2849 -0.642 0.054 -0.765 87 84 75
-23.2107 53.2769 65.7848 -0.313 0.652 -0.691 80 84 70
-23.0507 53.2593 65.7620 -0.436 0.529 -0.728 83 87 73
-22.7230 53.2241 65.7258 -0.397 -0.003 -0.918 117 121 107
-22.6135 53.2063 65.6353 -0.363 -0.022 -0.931 133 137 123
-22.4898 53.1885 65.5636 -0.405 0.001 -0.914 99 103 89
-22.3392 53.1708 65.5273 -0.391 0.051 -0.919 110 112 99
-22.2015 53.1531 65.4738 -0.386 0.035 -0.922 108 110 99
-22.0665 53.1354 65.4167 -0.386 0.035 -0.922 103 103 93
-21.9131 53.1176 65.3833 -0.247 -0.098 -0.964 94 94 84
-21.8029 53.0998 65.2940 -0.411 0.070 -0.909 95 95 85
-21.5048 53.0643 65.2152 -0.564 -0.105 -0.819 117 117 107
-21.3866 53.0465 65.1361 -0.564 -0.105 -0.819 121 121 111
-21.2742 53.0287 65.0496 -0.610 -0.036 -0.791 123 120 111
-20.7378 52.9575 64.8139 -0.292 -0.168 -0.942 94 91 84
-20.6006 52.9397 64.7587 -0.149 0.002 -0.989 102 99 92
-20.4519 52.9218 64.7176 -0.157 0.027 -0.987 117 114 107
-20.2710 52.9038 64.7165 -0.352 0.173 -0.920 125 122 117
-20.1449 52.8860 64.6469 -0.352 0.186 -0.917 115 111 108
-20.0080 52.8681 64.5907 -0.352 0.186 -0.917 97 93 90
-19.5467 52.8142 64.4831 -0.197 -0.352 -0.915 85 80 77
-19.3859 52.7962 64.4554 -0.197 -0.352 -0.915 93 89 86
-19.2113 52.7780 64.4440 -0.153 -0.311 -0.938 90 86 83
-19.0463 52.7599 64.4207 -0.136 -0.248 -0.959 86 83 78
-18.5013 52.6880 64.1870 -0.705 0.019 -0.709 87 87 79
-18.3643 52.6700 64.1293 -0.670 0.054 -0.740 107 107 99
-18.2597 52.6522 64.0332 -0.670 0.054 -0.740 104 104 96
-17.4766 52.5612 63.8573 -0.092 0.157 -0.983 88 89 83
-17.2551 52.5256 63.6796 -0.368 -0.055 -0.928 84 85 79
-17.1159 52.5075 63.6235 -0.384 -0.070 -0.921 85 86 80
-16.8489 52.4881 63.7137 -0.240 0.266 -0.934 89 90 82
-16.6743 52.4530 63.4821 -0.404 0.117 -0.907 92 95 84
-16.0774 52.4129 63.7287 0.082 0.361 -0.929 106 109 98
-16.2298 52.3982 63.3425 -0.212 0.285 -0.935 92 95 84
-16.1451 52.3808 63.2245 -0.524 0.185 -0.831 94 97 88
-15.9633 52.3621 63.2153 -0.169 0.369 -0.914 100 103 96
-15.6731 52.3256 63.1142 -0.168 0.257 -0.952 76 78 73
-13.5034 52.0666 62.5374 -0.355 0.271 -0.895 86 88 83
-11.6379 51.8577 62.2212 -0.251 0.201 -0.947 141 141 133
-11.4923 51.8391 62.1664 -0.317 0.253 -0.914 114 114 106
-9.9574 51.6659 61.8891 -0.716 0.313 -0.625 69 71 59
-9.9427 51.6502 61.7038 -0.458 -0.236 -0.857 84 86 73
2.3390 50.3257 60.2770 -0.654 0.130 -0.745 80 83 74
8.2519 49.7639 60.5744 -0.592 -0.581 -0.558 68 69 61
8.5930 49.7354 60.6429 -0.427 -0.667 -0.611 75 76 68
8.5725 49.7221 60.4434 0.118 -0.350 -0.929 58 59 51
9.8679 49.6105 60.6574 0.168 0.170 -0.971 53 56 49
9.7284 49.6023 60.3721 -0.183 0.347 -0.920 47 52 45
9.9643 49.5780 60.3601 -0.182 0.355 -0.917 47 50 43
10.4718 49.5420 60.5437 -0.362 -0.199 -0.911 56 59 52
-61.2155 59.8074 99.6009 0.089 0.393 -0.915 87 84 67
-54.4109 59.1931 100.2689 -0.185 0.731 -0.656 86 79 71
-53.7499 58.7798 95.8405 -0.793 0.599 -0.113 96 93 79
-53.6987 58.5983 93.5975 -0.967 0.224 -0.119 96 90 76
-53.8051 58.3155 89.8719 -0.840 0.011 -0.543 93 86 71
-51.2201 57.8053 86.6088 -0.073 -0.005 -0.997 142 156 145
-48.7373 57.3997 84.5470 -0.091 -0.122 -0.988 124 135 129
-48.5895 57.3843 84.5352 -0.091 -0.122 -0.988 124 135 129
-48.4367 57.3698 84.5413 -0.083 -0.124 -0.989 125 136 129
-48.3009 57.3520 84.4844 -0.132 -0.129 -0.983 121 132 124
-48.1605 57.3351 84.4439 -0.130 -0.134 -0.982 123 134 126
-47.6242 57.3915 85.8279 -0.329 0.819 -0.471 122 133 125
-47.5029 57.3702 85.7087 -0.349 0.808 -0.474 121 132 124
-47.5651 57.1072 82.2894 -0.371 0.099 -0.923 64 80 43
-47.4429 57.0877 82.1946 -0.397 0.062 -0.916 86 103 57
-47.2669 57.0774 82.2826 -0.466 0.584 -0.665 100 117 73
-47.1385 57.0590 82.2082 -0.513 0.521 -0.682 106 122 86
-47.0431 57.0351 82.0232 -0.465 0.601 -0.650 113 127 102
-46.9476 57.0113 81.8398 -0.806 0.503 -0.313 117 130 115
-46.8800 56.9831 81.5654 -0.566 0.461 -0.683 122 133 126
-45.6954 56.8233 81.0105 -0.094 -0.448 -0.889 127 140 130
-45.5090 56.8136 81.1188 -0.774 -0.330 -0.541 129 143 126
-45.5879 56.7650 80.4034 -0.698 0.205 -0.686 117 133 106
-45.5004 56.7410 80.2080 -0.469 0.326 -0.821 92 106 78
-45.3639 56.7242 80.1639 -0.459 0.335 -0.823 70 85 56
-45.2765 56.7004 79.9704 -0.799 0.273 -0.536 74 87 60
-45.1711 56.6792 79.8324 -0.808 0.280 -0.518 104 116 92
-45.1130 56.6515 79.5530 -0.902 0.289 -0.320 123 134 117
-44.6235 56.6120 79.6611 -0.752 0.565 -0.340 136 145 143
-43.3394 56.3986 78.5481 -0.112 0.320 -0.941 149 159 158
-40.8014 55.9179 75.6002 0.443 -0.006 -0.897 150 159 154
-40.2048 55.8851 75.9264 -0.098 0.478 -0.873 145 154 149
-25.3046 53.7405 67.2300 -0.726 0.287 -0.625 151 151 139
-25.2066 53.7223 67.1212 -0.730 0.295 -0.617 144 144 134
-24.8589 53.6493 66.6268 -0.644 0.042 -0.764 79 79 71
-24.7504 53.6314 66.5344 -0.644 0.042 -0.764 77 77 69
-24.6500 53.6134 66.4310 -0.234 0.167 -0.958 75 75 65
-24.3449 53.5787 66.3693 -0.681 0.057 -0.730 76 73 64
-24.2312 53.5608 66.2843 -0.645 0.051 -0.763 77 74 65
-24.1128 53.5431 66.2061 -0.621 0.132 -0.773 77 74 65
-23.2956 53.4562 66.1194 -0.237 0.032 -0.971 88 88 78
-23.0513 53.4206 65.9714 -0.512 0.383 -0.769 85 87 74
-22.9870 53.4024 65.8202 -0.478 0.501 -0.722 95 99 85
-22.8747 53.3845 65.7334 -0.478 0.501 -0.722 115 119 105
-22.7536 53.3668 65.6584 -0.247 0.367 -0.897 124 128 114
-22.6109 53.3491 65.6119 -0.247 0.367 -0.897 112 116 102
-22.4682 53.3315 65.5654 -0.247 0.367 -0.897 102 104 91
-22.3253 53.3138 65.5189 -0.247 0.367 -0.897 118 120 109
-22.1888 53.2961 65.4639 -0.276 0.290 -0.916 116 118 107
-22.0541 53.2784 65.4065 -0.322 0.226 -0.919 99 99 89
-21.8905 53.2608 65.3864 -0.243 0.251 -0.937 82 82 72
-21.7768 53.2430 65.3015 -0.393 0.096 -0.914 68 68 58
-21.6522 53.2252 65.2307 -0.417 0.136 -0.899 91 91 81
-21.5075 53.2075 65.1857 -0.405 0.100 -0.909 127 127 117
-21.3827 53.1897 65.1151 -0.564 -0.105 -0.819 126 126 116
-21.2648 53.1719 65.0358 -0.610 -0.036 -0.791 104 104 96
-20.7129 53.1008 64.8197 -0.227 -0.149 -0.962 95 92 85
-20.5676 53.0830 64.7745 -0.213 -0.160 -0.964 103 100 93
-20.4079 53.0652 64.7472 -0.217 -0.152 -0.964 116 113 106
-20.2607 53.0474 64.7040 -0.439 -0.059 -0.897 125 124 119
-20.1149 53.0295 64.6589 -0.341 0.017 -0.940 122 121 117
-19.9719 53.0117 64.6101 -0.329 0.007 -0.944 92 91 89
-19.8296 52.9938 64.5604 -0.329 0.007 -0.944 75 72 69
-19.6850 52.9759 64.5133 -0.399 -0.061 -0.915 70 67 63
-19.5423 52.9580 64.4637 -0.136 -0.013 -0.991 78 75 71
-19.4074 52.9402 64.4045 -0.124 0.060 -0.991 112 109 106
-19.2186 52.9221 64.4105 -0.116 0.048 -0.992 112 109 106
-19.0490 52.9041 64.3928 -0.147 -0.108 -0.983 97 94 89
-18.4721 52.8322 64.1974 -0.777 -0.163 -0.608 102 102 94
-18.3642 52.8144 64.1052 -0.687 -0.149 -0.711 105 105 97
-18.2789 52.7967 63.9864 -0.609 -0.006 -0.793 110 110 102
-18.1726 52.7789 63.8927 -0.253 0.039 -0.967 115 115 107
-17.6803 52.7245 63.8144 -0.192 -0.040 -0.981 106 107 101
-17.5196 52.7063 63.7837 -0.192 -0.040 -0.981 107 108 102
-17.3622 52.6881 63.7490 -0.183 -0.038 -0.982 107 108 102
-17.2419 52.6702 63.6712 -0.376 -0.063 -0.925 100 101 95
-17.1079 52.6522 63.6092 -0.384 -0.070 -0.921 94 95 89
-16.8238 52.6330 63.7190 -0.338 0.145 -0.930 96 97 89
-16.6824 52.6149 63.6647 -0.338 0.145 -0.930 99 100 92
-16.6598 52.5978 63.4753 -0.411 0.134 -0.902 99 100 92
-16.1158 52.5255 63.2343 -0.505 0.163 -0.847 91 92 84
-15.6932 52.4711 63.0691 -0.139 0.241 -0.961 82 83 78
-13.2065 52.1760 62.4164 -0.339 0.414 -0.844 101 103 98
-11.6295 52.0051 62.2085 -0.315 0.188 -0.930 115 115 107
-11.4183 51.9853 62.2203 -0.513 0.332 -0.791 96 97 89
-10.0151 51.8157 61.8116 -0.823 0.043 -0.566 70 73 63
-9.9562 51.7987 61.6701 -0.458 -0.236 -0.857 108 111 102
-8.6755 51.6618 61.5251 -0.551 0.243 -0.798 95 98 91
-6.4188 51.3921 60.9074 -0.315 -0.322 -0.893 108 111 102
-60.8059 58.6997 84.2504 -0.296 0.553 -0.779 87 75 53
-51.7226 58.0322 86.9226 -0.695 0.009 -0.719 80 97 79
-51.5742 58.0176 86.9204 -0.174 -0.427 -0.887 88 105 87
-51.3487 57.9704 86.6051 -0.698 -0.062 -0.714 135 152 135
-51.2177 57.9515 86.5275 -0.370 -0.183 -0.911 128 145 128
-51.0872 57.9324 86.4479 -0.271 -0.295 -0.916 131 144 132
-50.6887 57.8769 86.2385 0.201 -0.294 -0.935 141 154 145
-48.6880 57.5551 84.6509 -0.080 0.475 -0.876 135 144 136
-48.3964 57.5236 84.6112 -0.043 0.457 -0.888 134 144 136
-48.2547 57.5070 84.5752 -0.047 0.443 -0.895 122 134 125
-47.6481 57.4474 84.5675 -0.617 -0.308 -0.724 116 128 118
-47.6265 57.2811 82.5225 -0.572 0.220 -0.790 73 87 61
-47.5038 57.2616 82.4281 -0.572 0.220 -0.790 75 91 59
-47.3889 57.2408 82.3076 -0.563 0.255 -0.786 104 122 86
-47.2104 57.2311 82.4033 -0.472 0.581 -0.663 82 99 64
-47.0905 57.2112 82.2992 -0.519 0.527 -0.674 103 120 89
-46.9828 57.1891 82.1550 -0.490 0.608 -0.625 108 122 99
-46.8832 57.1658 81.9846 -0.745 0.564 -0.356 112 124 110
-46.8388 57.1332 81.6326 -0.566 0.461 -0.683 119 129 121
-46.7100 57.1150 81.5620 -0.531 0.445 -0.721 126 136 128
-46.5470 57.1025 81.6029 -0.308 0.381 -0.872 133 143 135
-45.7570 56.9956 81.2276 -0.611 -0.570 -0.550 132 143 137
-45.6372 56.9759 81.1275 -0.801 -0.305 -0.515 131 144 135
-45.5249 56.9551 81.0044 -0.781 -0.324 -0.534 132 146 133
-45.5797 56.9091 80.3646 -0.551 0.025 -0.834 135 149 131
-45.4607 56.8896 80.2663 -0.385 0.163 -0.908 106 120 101
-45.3297 56.8720 80.2054 -0.390 0.135 -0.911 83 97 76
-45.2267 56.8502 80.0587 -0.681 0.247 -0.690 69 82 64
-45.1071 56.8310 79.9634 -0.675 0.239 -0.698 102 114 96
-45.0008 56.8098 79.8283 -0.706 0.302 -0.640 124 134 121
-44.8999 56.7879 79.6777 -0.661 0.296 -0.690 121 131 121
-25.2548 53.8841 67.2724 -0.771 0.353 -0.530 151 151 139
-25.0908 53.8470 67.0093 -0.771 0.353 -0.530 121 121 113
-24.8885 53.8107 66.8023 -0.690 0.145 -0.709 80 80 72
-24.8567 53.7915 66.6016 -0.619 0.081 -0.781 74 74 64
-24.7762 53.7732 66.4701 -0.377 0.228 -0.898 69 69 59
-24.6415 53.7556 66.4146 -0.074 0.308 -0.949 62 62 52
-24.0488 53.6862 66.2663 -0.147 0.318 -0.936 74 71 64
-23.8582 53.6693 66.2867 -0.316 0.196 -0.928 80 77 70
-23.6478 53.6526 66.3335 -0.350 -0.030 -0.936 88 85 78
-23.5806 53.6341 66.1846 0.097 0.002 -0.995 90 87 80
-23.2413 53.5996 66.1653 -0.291 -0.131 -0.948 89 89 79
-23.1779 53.5812 66.0121 -0.511 0.444 -0.736 91 93 82
-23.0466 53.5635 65.9505 -0.514 0.436 -0.739 89 91 80
-22.9522 53.5454 65.8395 -0.456 0.442 -0.772 105 107 96
-22.6993 53.5099 65.7035 -0.239 0.333 -0.912 120 122 109
-22.4185 53.4747 65.6042 -0.222 0.330 -0.918 114 116 105
-22.2716 53.4571 65.5627 -0.247 0.367 -0.897 97 99 88
-22.1296 53.4394 65.5148 -0.251 0.390 -0.886 88 88 78
-22.0059 53.4216 65.4428 -0.450 0.321 -0.834 81 81 73
-21.8358 53.4042 65.4310 -0.249 0.259 -0.933 71 72 64
-21.7457 53.3862 65.3155 -0.382 0.181 -0.906 85 87 76
-21.6266 53.3683 65.2376 -0.479 0.170 -0.861 100 102 91
-21.4792 53.3507 65.1960 -0.382 0.181 -0.906 90 92 81
-21.3725 53.3328 65.1022 -0.569 -0.037 -0.821 75 75 67
-21.2445 53.3150 65.0357 -0.629 -0.097 -0.771 79 79 71
-20.8473 53.2618 64.8529 -0.165 -0.007 -0.986 113 110 105
-20.5553 53.2263 64.7645 -0.167 0.037 -0.985 99 99 91
-20.3904 53.2086 64.7437 -0.163 0.070 -0.984 110 109 104
-20.2254 53.1909 64.7226 -0.548 -0.069 -0.834 120 119 115
-20.0887 53.1731 64.6661 -0.344 0.000 -0.939 123 122 118
-19.9613 53.1553 64.5981 -0.321 0.028 -0.947 89 88 86
-19.8184 53.1375 64.5491 -0.321 0.028 -0.947 63 64 59
-19.6930 53.1196 64.4785 -0.331 0.037 -0.943 53 54 51
-19.5475 53.1018 64.4325 -0.255 0.123 -0.959 77 77 75
-19.3997 53.0839 64.3891 -0.243 0.112 -0.964 127 127 125
-19.2332 53.0661 64.3682 -0.214 0.128 -0.968 117 118 113
-19.0611 53.0482 64.3535 -0.115 -0.002 -0.993 111 111 106
-18.8932 53.0303 64.3335 0.014 -0.027 -1.000 100 99 94
-18.3569 52.9586 64.0896 -0.623 -0.072 -0.779 125 126 118
-18.2545 52.9408 63.9911 -0.617 -0.070 -0.784 138 139 131
-18.1682 52.9230 63.8739 -0.247 0.027 -0.969 125 126 118
-17.6869 52.8689 63.7829 -0.168 -0.025 -0.986 100 103 96
-17.5307 52.8509 63.7470 -0.165 -0.034 -0.986 103 104 98
-17.3905 52.8329 63.6926 -0.272 0.048 -0.961 110 111 105
-17.2610 52.8149 63.6256 -0.347 0.062 -0.936 106 107 101
-17.0953 52.7968 63.6002 -0.348 0.112 -0.931 102 103 97
-16.9548 52.7788 63.5456 -0.348 0.112 -0.931 100 101 95
-16.7893 52.7606 63.5194 -0.293 0.037 -0.955 99 100 92
-16.6412 52.7425 63.4732 -0.293 0.037 -0.955 102 103 95
-16.3720 52.7065 63.3496 -0.155 0.189 -0.970 126 127 119
-16.2199 52.6883 63.3075 -0.273 0.156 -0.949 110 111 103
-16.0694 52.6701 63.2633 -0.529 0.134 -0.838 95 96 90
-15.9249 52.6520 63.2124 -0.310 0.251 -0.917 98 99 93
-15.7847 52.6339 63.1564 -0.249 0.232 -0.940 112 113 107
-15.6369 52.6157 63.1088 -0.083 0.238 -0.968 111 112 106
-13.1018 52.3210 62.5046 -0.159 0.244 -0.957 127 129 124
-12.9600 52.3027 62.4476 -0.356 0.298 -0.886 122 125 118
-11.3591 52.1321 62.2593 -0.515 0.250 -0.820 109 110 102
-11.2389 52.1139 62.1783 -0.515 0.250 -0.820 107 108 102
-9.9632 51.9470 61.6427 -0.455 -0.232 -0.860 119 122 115
-0.5703 51.6842 69.7285 0.346 -0.360 -0.867 91 94 85
-6.3834 51.5414 60.9205 -0.225 -0.301 -0.927 105 108 101
17.9481 49.4208 63.9372 0.353 0.289 -0.890 79 82 71
18.4305 49.3855 64.0805 0.319 0.138 -0.938 79 82 73
-61.5120 58.9436 84.6817 0.319 -0.247 -0.915 105 98 80
-53.6105 59.2098 97.2162 -0.775 0.621 -0.116 94 90 79
-51.9984 58.2116 86.9215 -0.167 -0.427 -0.889 125 141 130
-51.8497 58.1974 86.9231 -0.177 -0.422 -0.889 108 124 110
-51.7175 58.1788 86.8506 -0.250 -0.433 -0.866 82 99 83
-51.5672 58.1648 86.8571 -0.186 -0.450 -0.873 82 99 83
-51.4639 58.1386 86.6582 -0.717 -0.061 -0.694 115 132 114
-51.3323 58.1198 86.5836 -0.701 -0.096 -0.706 117 134 115
-51.2154 58.0973 86.4457 -0.686 -0.064 -0.725 120 137 118
-51.0706 58.0818 86.4271 -0.233 -0.368 -0.900 123 137 122
-50.2890 58.0175 86.5600 -0.448 -0.658 -0.605 144 157 147
-48.3582 57.6772 84.6729 -0.077 0.468 -0.880 134 144 135
-48.2199 57.6599 84.6241 -0.026 0.432 -0.901 122 134 124
-47.9447 57.6249 84.5203 -0.295 0.650 -0.700 122 134 124
-47.6821 57.5874 84.3711 -0.754 -0.314 -0.576 116 128 116
-47.6351 57.4231 82.4202 -0.787 -0.188 -0.588 73 87 62
-47.4792 57.4098 82.4405 -0.503 0.103 -0.858 76 91 63
-47.3695 57.3879 82.3024 -0.558 0.182 -0.810 98 116 89
-47.2315 57.3712 82.2606 -0.611 0.192 -0.768 78 94 68
-47.0447 57.3633 82.3829 -0.519 0.527 -0.674 102 118 92
-46.9466 57.3393 82.2062 -0.785 0.271 -0.557 108 121 100
-46.8258 57.3195 82.1058 -0.833 -0.030 -0.553 108 121 106
-46.8068 57.2820 81.6696 -0.559 -0.025 -0.829 119 129 120
-46.6557 57.2676 81.6719 -0.143 -0.562 -0.815 125 135 127
-46.5083 57.2525 81.6610 -0.011 -0.497 -0.868 133 140 133
-46.3981 57.2311 81.5288 -0.556 -0.031 -0.831 135 144 140
-46.2894 57.2095 81.3924 -0.542 -0.010 -0.840 135 144 139
-45.7239 57.1058 80.7908 -0.808 -0.210 -0.551 135 148 139
-45.6850 57.0734 80.4413 -0.508 0.048 -0.860 122 135 126
-45.5719 57.0530 80.3248 -0.394 0.153 -0.906 127 140 131
-45.1972 56.9973 80.0854 -0.730 0.202 -0.652 73 85 73
-45.0837 56.9771 79.9716 -0.741 0.192 -0.644 108 120 107
-44.9627 56.9580 79.8806 -0.756 0.225 -0.614 135 147 135
-44.8491 56.9378 79.7677 -0.817 0.183 -0.547 139 151 139
-44.8543 56.9003 79.3029 -0.437 0.656 -0.616 134 146 135
-44.7384 56.8807 79.1998 -0.437 0.656 -0.616 137 147 138
-25.9798 54.0723 66.9469 0.129 -0.448 -0.885 147 149 136
-25.3162 54.0052 66.9071 -0.516 -0.272 -0.812 137 137 127
-25.1998 53.9873 66.8255 -0.523 -0.274 -0.807 101 101 91
-25.0653 53.9698 66.7699 -0.650 -0.232 -0.724 86 86 76
-24.9422 53.9520 66.6979 -0.630 0.032 -0.776 76 76 66
-24.8509 53.9337 66.5813 -0.610 0.045 -0.791 79 79 69
-24.7417 53.9157 66.4902 -0.593 0.040 -0.804 70 70 60
-24.6254 53.8979 66.4090 -0.085 0.048 -0.995 61 61 51
-24.1680 53.8463 66.3159 -0.233 0.211 -0.949 66 63 56
-24.0552 53.8284 66.2297 -0.428 0.228 -0.875 71 68 61
-23.8459 53.8120 66.2758 -0.405 -0.017 -0.914 87 84 77
-23.6676 53.7951 66.2787 -0.346 -0.218 -0.913 82 79 72
-23.5466 53.7773 66.2034 -0.024 -0.228 -0.973 90 87 80
-23.2427 53.7425 66.1360 -0.270 -0.141 -0.953 108 108 98
-23.0896 53.7251 66.1035 -0.784 0.192 -0.590 99 101 90
-23.0217 53.7066 65.9567 -0.687 0.239 -0.686 89 91 80
-22.9025 53.6887 65.8789 -0.636 0.293 -0.714 103 105 94
-22.7677 53.6711 65.8218 -0.490 0.422 -0.763 125 127 116
-22.6811 53.6528 65.7008 -0.306 0.119 -0.944 120 122 111
-22.5264 53.6354 65.6700 -0.315 0.215 -0.924 103 105 94
-22.1076 53.5826 65.5170 -0.333 0.236 -0.913 66 66 58
-21.9792 53.5648 65.4511 -0.398 0.239 -0.885 81 82 74
-21.8293 53.5473 65.4131 -0.317 0.230 -0.920 102 103 95
-21.7146 53.5294 65.3294 -0.386 0.182 -0.904 105 106 98
-21.5863 53.5116 65.2633 -0.437 0.165 -0.884 97 98 90
-20.8304 53.4049 64.8485 -0.073 -0.210 -0.975 90 87 82
-20.5209 53.3697 64.7821 -0.081 -0.179 -0.980 74 73 68
-20.3444 53.3522 64.7757 -0.102 -0.169 -0.980 76 75 70
-20.2183 53.3344 64.7061 -0.548 -0.069 -0.834 93 92 88
-20.0690 53.3167 64.6653 -0.481 -0.140 -0.866 98 98 96
-19.9427 53.2989 64.5960 -0.321 0.028 -0.947 78 79 76
-19.7998 53.2811 64.5470 -0.321 0.028 -0.947 62 67 63
-19.6737 53.2632 64.4773 -0.331 0.037 -0.943 48 53 49
-19.5287 53.2455 64.4306 -0.291 0.054 -0.955 67 71 67
-19.3714 53.2277 64.3987 -0.243 0.112 -0.964 108 110 107
-19.1976 53.2100 64.3865 -0.197 0.096 -0.976 81 83 80
-19.0433 53.1922 64.3505 -0.103 -0.024 -0.994 108 110 105
-18.6163 53.1386 64.1979 -0.602 -0.093 -0.793 121 122 114
-18.4701 53.1207 64.1512 -0.590 0.040 -0.807 108 109 101
-18.3433 53.1028 64.0816 -0.574 0.047 -0.818 103 104 96
-18.2272 53.0849 63.9992 -0.574 0.047 -0.818 97 98 90
-18.1162 53.0670 63.9110 -0.300 0.053 -0.953 93 94 86
-17.8079 53.0312 63.8357 -0.133 0.137 -0.982 113 116 109
-17.6425 53.0132 63.8108 -0.133 0.137 -0.982 106 109 102
-17.4840 52.9952 63.7775 -0.138 0.152 -0.979 102 103 97
-17.3539 52.9773 63.7112 -0.269 0.054 -0.962 100 101 95
-17.1463 52.9592 63.7341 -0.534 0.241 -0.810 100 101 95
-17.0297 52.9412 63.6520 -0.534 0.241 -0.810 100 101 95
-16.9308 52.9234 63.5497 -0.277 0.027 -0.960 102 103 97
-16.7708 52.9053 63.5172 -0.259 0.010 -0.966 102 103 97
-16.4706 52.8692 63.4289 -0.072 0.175 -0.982 100 101 93
-16.1534 52.8330 63.3592 -0.275 0.121 -0.954 109 110 104
-16.0251 52.8149 63.2900 -0.471 0.258 -0.844 99 100 94
-15.8683 52.7968 63.2526 -0.373 0.206 -0.905 93 94 88
-15.7002 52.7786 63.2275 -0.331 -0.124 -0.935 78 79 73
-15.5381 52.7603 63.1955 -0.208 -0.259 -0.943 59 60 54
-15.3753 52.7421 63.1640 -0.219 -0.249 -0.944 70 71 63
-13.0937 52.4675 62.4914 -0.280 0.138 -0.950 128 131 124
-12.9431 52.4491 62.4436 -0.486 -0.084 -0.870 123 126 119
-12.7525 52.4302 62.4372 -0.415 0.307 -0.857 106 109 102
-11.4759 52.2980 62.3225 -0.069 -0.084 -0.994 109 110 102
-11.3299 52.2794 62.2677 -0.498 0.278 -0.822 118 119 111
-11.2177 52.2614 62.1786 -0.502 0.310 -0.807 98 99 94
-10.5285 52.1528 61.6624 -0.511 0.345 -0.787 63 65 60
-10.4116 52.1347 61.5786 -0.511 0.345 -0.787 65 67 62
-9.9486 52.1112 61.8359 -0.898 -0.183 -0.400 91 96 89
-8.5326 51.9574 61.6218 -0.500 0.350 -0.792 108 111 102
2.0271 50.9137 61.2845 -0.751 0.634 -0.187 74 75 69
18.1553 49.5895 64.0647 0.353 0.291 -0.889 79 82 72
-64.1369 60.8986 103.4168 -0.717 0.686 -0.122 113 110 99
-64.0497 60.8131 102.4929 -0.773 0.626 -0.098 102 100 87
-63.0444 59.2161 84.5119 -0.911 0.125 -0.394 125 118 99
-62.9453 59.1831 84.2303 -0.903 0.167 -0.395 124 117 98
-55.4537 59.4095 95.4968 0.086 -0.402 -0.912 80 72 64
-55.4712 59.3256 94.4705 -0.150 0.142 -0.978 79 73 63
-51.7119 58.3252 86.7806 -0.229 -0.450 -0.863 91 108 90
-51.4538 58.2862 86.6093 -0.700 -0.097 -0.707 104 121 103
-51.3318 58.2649 86.4931 -0.698 -0.093 -0.710 89 106 88
-51.2004 58.2461 86.4183 -0.686 -0.064 -0.725 116 133 115
-51.0562 58.2307 86.3975 -0.318 -0.269 -0.909 141 155 139
-50.3779 58.1934 86.7256 -0.363 -0.701 -0.614 143 156 146
-47.8999 57.7801 84.6046 -0.293 0.642 -0.708 123 134 125
-47.6243 57.5685 82.3855 -0.815 -0.230 -0.531 74 89 61
-47.2497 57.5113 82.1282 -0.473 -0.416 -0.776 77 93 66
-47.0632 57.5037 82.2500 -0.807 0.050 -0.589 102 118 90
-46.5339 57.4743 82.5020 -0.989 -0.062 -0.133 117 129 115
-46.6273 57.4160 81.6965 -0.359 -0.606 -0.710 125 135 125
-45.7083 57.2514 80.7744 -0.780 -0.245 -0.576 134 147 138
-45.6293 57.2251 80.5500 -0.600 -0.444 -0.666 131 144 137
-45.5490 57.1992 80.3313 -0.401 0.158 -0.903 127 138 132
-45.4153 57.1821 80.2787 -0.438 -0.220 -0.872 112 123 115
-45.1712 57.1440 80.1017 -0.730 0.202 -0.652 90 102 92
-45.0624 57.1229 79.9734 -0.730 0.202 -0.652 111 123 113
-44.8349 57.0825 79.7485 -0.806 0.185 -0.562 117 129 119
-44.7526 57.0575 79.5433 -0.681 0.328 -0.655 131 143 132
-44.4953 57.0218 79.4099 -0.293 0.372 -0.881 140 152 141
-25.1677 54.1300 66.8425 -0.451 -0.165 -0.877 94 95 82
-25.0402 54.1124 66.7768 -0.689 -0.125 -0.714 83 83 71
-25.0402 54.0919 66.5312 -0.252 -0.015 -0.968 71 71 59
-24.8419 54.0759 66.5655 -0.473 0.135 -0.871 75 75 63
-24.6613 54.0594 66.5744 -0.502 0.158 -0.850 82 82 69
-24.5508 54.0414 66.4848 -0.195 0.206 -0.959 83 83 71
-24.3994 54.0242 66.4524 -0.126 0.239 -0.963 78 78 68
-24.2422 54.0072 66.4275 -0.126 0.239 -0.963 76 76 68
-23.8634 53.9541 66.2241 -0.586 -0.021 -0.810 91 90 85
-23.6740 53.9375 66.2424 -0.335 -0.217 -0.917 93 92 87
-23.5528 53.9197 66.1674 -0.100 -0.476 -0.874 101 100 95
-23.3892 53.9027 66.1498 -0.069 -0.529 -0.846 113 113 105
-23.2724 53.8848 66.0686 -0.218 -0.205 -0.954 120 120 112
-23.1205 53.8674 66.0347 -0.318 -0.067 -0.946 103 103 95
-22.9888 53.8498 65.9737 -0.687 0.239 -0.686 96 96 86
-22.8461 53.8323 65.9271 -0.477 0.405 -0.780 104 104 94
-22.7196 53.8145 65.8587 -0.485 0.424 -0.764 112 112 102
-22.6538 53.7958 65.7101 -0.306 0.119 -0.944 100 100 90
-22.5123 53.7783 65.6620 -0.306 0.119 -0.944 86 86 76
-22.3818 53.7607 65.5991 -0.212 0.175 -0.962 71 71 63
-22.2223 53.7434 65.5742 -0.224 0.126 -0.966 63 64 56
-22.0726 53.7259 65.5362 -0.300 0.221 -0.928 67 68 62
-21.9530 53.7081 65.4588 -0.395 0.235 -0.888 84 85 79
-21.8207 53.6904 65.3980 -0.447 0.093 -0.890 100 101 95
-21.6925 53.6726 65.3318 -0.447 0.093 -0.890 111 112 106
-21.5500 53.6550 65.2838 -0.566 0.184 -0.804 114 115 109
-20.8128 53.5481 64.8451 -0.165 -0.007 -0.986 87 86 81
-20.6529 53.5307 64.8185 -0.165 -0.007 -0.986 79 78 73
-20.5057 53.5131 64.7758 -0.172 0.000 -0.985 64 63 58
-20.3391 53.4956 64.7570 -0.449 -0.083 -0.890 58 59 54
-20.2017 53.4779 64.7016 -0.537 -0.076 -0.840 68 69 64
-20.0536 53.4602 64.6592 -0.335 0.036 -0.941 60 62 59
-19.9212 53.4424 64.5974 -0.326 0.030 -0.945 48 52 48
-19.7789 53.4247 64.5477 -0.326 0.030 -0.945 84 89 85
-19.6505 53.4069 64.4808 -0.340 0.044 -0.940 80 85 81
-19.5097 53.3892 64.4290 -0.340 0.044 -0.940 89 94 90
-19.3432 53.3716 64.4083 -0.243 0.112 -0.964 98 103 99
-19.2098 53.3537 64.3472 -0.303 0.036 -0.952 95 97 94
-19.0804 53.3359 64.2811 -0.376 -0.162 -0.913 109 111 106
-18.8734 53.3184 64.3083 -0.044 -0.090 -0.995 100 101 95
-18.4590 53.2649 64.1402 -0.602 0.010 -0.799 112 113 105
-18.3701 53.2468 64.0257 -0.464 -0.083 -0.882 95 96 88
-18.2608 53.2289 63.9356 -0.261 0.027 -0.965 82 83 75
-18.1100 53.2111 63.8943 -0.261 0.027 -0.965 93 94 86
-17.9622 53.1932 63.8494 -0.237 0.029 -0.971 119 120 112
-17.8164 53.1754 63.8019 -0.276 0.035 -0.961 114 115 107
-17.4485 53.1397 63.7950 -0.138 0.152 -0.979 102 103 95
-17.1343 53.1039 63.7244 -0.482 0.239 -0.843 101 102 94
-17.0117 53.0859 63.6491 -0.468 0.253 -0.847 100 101 95
-16.8879 53.0679 63.5753 -0.468 0.253 -0.847 107 108 102
-16.2750 52.9959 63.4128 -0.097 0.210 -0.973 94 95 89
-16.1231 52.9779 63.3702 -0.292 0.132 -0.947 97 98 92
-15.9996 52.9599 63.2956 -0.466 0.254 -0.847 103 104 98
-15.8317 52.9418 63.2705 -0.373 0.206 -0.905 93 94 88
-15.7083 52.9238 63.1957 -0.343 -0.107 -0.933 90 89 84
-15.5494 52.9057 63.1602 -0.221 -0.247 -0.943 107 106 101
-15.3947 52.8876 63.1198 -0.229 -0.241 -0.943 95 94 89
-13.0683 52.6137 62.4963 -0.219 0.024 -0.976 120 123 116
-12.9155 52.5954 62.4508 -0.280 0.142 -0.950 124 127 120
-12.7278 52.5767 62.4414 -0.325 0.242 -0.914 105 108 101
-11.4718 52.4456 62.3055 -0.061 -0.064 -0.996 112 113 105
-11.2926 52.4268 62.2844 -0.511 0.276 -0.814 103 104 96
-11.1883 52.4087 62.1873 -0.506 0.274 -0.818 111 112 107
-11.0403 52.3902 62.1343 -0.506 0.254 -0.824 108 109 104
-10.4190 52.2989 61.7502 -0.362 0.053 -0.931 87 90 83
-10.2538 52.2801 61.7140 -0.354 0.018 -0.935 94 97 90
-10.0340 52.2606 61.7312 -0.872 -0.097 -0.481 109 112 103
-9.5672 52.2210 61.7905 -0.034 -0.057 -0.998 131 134 127
-7.0984 51.9519 61.3860 -0.703 -0.080 -0.707 68 69 64
-6.3963 51.8419 60.8699 -0.072 -0.163 -0.984 79 82 75
2.0044 51.0884 61.4375 -0.862 0.488 -0.140 62 63 58
-58.6077 58.6406 81.0399 -0.813 -0.561 -0.157 69 69 63
-51.3288 58.4104 86.4140 -0.807 -0.222 -0.548 59 76 60
-51.1945 58.3924 86.3518 -0.687 -0.094 -0.720 96 113 95
-51.0733 58.3710 86.2343 -0.697 0.004 -0.717 96 110 93
-50.9215 58.3576 86.2459 -0.379 -0.116 -0.918 119 133 119
-50.1766 58.3381 86.8437 -0.388 -0.713 -0.584 140 153 143
-48.3709 58.0130 85.0269 -0.232 0.638 -0.734 138 145 138
-48.2432 57.9934 84.9375 -0.240 0.625 -0.742 135 145 136
-47.9887 57.9539 84.7561 -0.045 0.407 -0.913 126 138 126
-47.4033 57.7556 83.0753 -0.501 -0.572 -0.650 76 92 64
-47.2449 57.7427 83.1000 -0.397 -0.590 -0.703 75 91 65
-47.1617 57.7151 82.8672 -0.415 -0.738 -0.532 80 96 70
-46.5403 57.5333 81.4205 -0.321 -0.612 -0.722 130 141 127
-45.9370 57.4762 81.4187 0.092 0.151 -0.984 135 147 134
-45.1511 57.2897 80.0996 -0.714 0.155 -0.683 82 95 85
-45.0325 57.2701 80.0013 -0.682 0.091 -0.726 101 113 103
-44.9179 57.2499 79.8910 -0.682 0.091 -0.726 116 128 118
-44.8122 57.2284 79.7546 -0.664 0.211 -0.718 111 123 113
-44.7354 57.2023 79.5331 -0.745 0.404 -0.531 121 133 123
-44.4575 57.1698 79.4602 -0.278 0.391 -0.877 148 160 150
-25.1927 54.2714 66.7782 -0.463 -0.141 -0.875 82 83 69
-25.0299 54.2547 66.7628 -0.669 -0.060 -0.741 77 77 65
-24.9795 54.2351 66.5884 -0.422 0.251 -0.871 72 72 60
-24.6755 54.2011 66.5263 -0.528 0.291 -0.798 92 93 79
-24.5551 54.1833 66.4507 -0.172 0.219 -0.961 99 99 87
-24.3101 54.1684 66.5483 -0.105 0.234 -0.967 81 81 71
-24.0156 54.1134 66.2285 -0.387 0.159 -0.908 79 78 73
-23.6542 54.0804 66.2417 -0.405 -0.087 -0.910 105 104 99
-23.5462 54.0623 66.1489 -0.103 -0.296 -0.950 109 108 103
-23.4334 54.0443 66.0625 -0.087 -0.532 -0.842 114 114 106
-23.2341 54.0281 66.0930 -0.240 -0.132 -0.962 115 115 107
-23.0919 54.0107 66.0459 -0.337 -0.069 -0.939 105 105 97
-22.9361 53.9935 66.0170 -0.448 -0.090 -0.890 109 109 99
-22.8018 53.9759 65.9590 -0.453 -0.026 -0.891 104 104 94
-22.6987 53.9577 65.8596 -0.553 -0.057 -0.831 94 94 84
-22.6361 53.9387 65.7067 -0.297 0.141 -0.944 82 82 72
-22.4981 53.9212 65.6540 -0.212 0.175 -0.962 81 81 71
-22.3474 53.9039 65.6177 -0.212 0.175 -0.962 80 80 70
-22.1901 53.8867 65.5898 -0.215 0.124 -0.969 77 78 70
-22.0449 53.8692 65.5458 -0.265 0.099 -0.959 74 75 69
-21.9350 53.8512 65.4558 -0.443 0.038 -0.896 84 85 79
-21.8057 53.8335 65.3911 -0.443 0.038 -0.896 93 94 88
-20.7886 53.6914 64.8502 -0.176 0.166 -0.970 87 86 81
-20.6365 53.6739 64.8137 -0.156 0.175 -0.972 73 72 67
-20.4779 53.6565 64.7851 -0.156 0.175 -0.972 49 48 43
-20.3290 53.6390 64.7442 -0.472 -0.097 -0.876 38 39 33
-20.2008 53.6212 64.6774 -0.551 -0.090 -0.830 42 44 39
-20.0559 53.6036 64.6313 -0.406 -0.176 -0.897 52 56 53
-19.9161 53.5859 64.5786 -0.319 -0.145 -0.936 48 53 49
-19.7713 53.5682 64.5320 -0.319 -0.145 -0.936 136 141 137
-19.6390 53.5505 64.4699 -0.323 -0.151 -0.934 140 145 141
-19.5037 53.5327 64.4116 -0.301 -0.145 -0.942 139 144 140
-19.0878 53.4795 64.2476 -0.502 -0.162 -0.850 116 118 113
-18.9390 53.4618 64.2050 -0.383 -0.190 -0.904 109 110 104
-18.8496 53.4437 64.0912 -0.346 -0.197 -0.917 121 122 114
-18.5228 53.4085 64.0402 -0.368 -0.195 -0.909 115 116 108
-18.3784 53.3907 63.9917 -0.362 -0.199 -0.911 94 95 87
-18.2551 53.3728 63.9182 -0.186 -0.060 -0.981 102 103 95
-18.0982 53.3551 63.8842 -0.190 -0.064 -0.980 133 134 126
-17.6325 53.3018 63.7749 -0.277 0.038 -0.960 107 108 102
-17.4491 53.2841 63.7705 -0.289 0.006 -0.957 102 103 95
-17.2753 53.2664 63.7547 -0.113 0.204 -0.973 100 101 93
-17.1399 53.2484 63.6943 -0.303 0.156 -0.940 100 101 93
-17.0583 53.2303 63.5721 -0.122 0.357 -0.926 100 101 95
-16.9022 53.2125 63.5355 -0.106 0.348 -0.931 114 115 109
-16.7486 53.1946 63.4957 -0.039 0.483 -0.875 110 111 105
-16.2313 53.1409 63.4389 -0.034 0.428 -0.903 76 77 71
-15.9839 53.1049 63.2901 -0.516 0.435 -0.738 106 107 101
-15.8054 53.0869 63.2770 -0.590 0.050 -0.806 120 121 115
-15.6708 53.0689 63.2145 -0.587 0.011 -0.810 127 126 121
-15.5408 53.0508 63.1469 -0.267 -0.258 -0.928 131 130 125
-15.4010 53.0328 63.0902 -0.258 -0.237 -0.937 146 145 140
-13.0486 52.7600 62.4952 -0.212 0.017 -0.977 112 115 108
-12.8830 52.7416 62.4631 -0.280 0.142 -0.950 116 119 112
-10.5035 52.4474 61.6459 -0.693 -0.195 -0.694 88 91 84
-10.0908 52.4261 61.8543 -0.083 -0.029 -0.996 95 98 91
-9.8845 52.3900 61.6583 -0.886 0.002 -0.464 122 125 118
-6.9056 52.0825 61.3506 -0.866 -0.027 -0.500 90 91 86
-55.5932 59.7324 95.3059 -0.309 0.628 -0.714 60 56 47
-55.4301 59.7221 95.3632 -0.194 0.289 -0.938 75 71 62
-55.2791 59.7064 95.3456 0.012 0.336 -0.942 92 85 75
-53.0473 59.7404 98.1461 -0.939 -0.122 -0.321 96 92 80
-52.1690 58.7095 87.1998 0.140 0.162 -0.977 140 153 146
-51.9615 58.7131 87.4661 -0.842 -0.141 -0.521 141 153 149
-51.5386 58.6073 86.7011 -0.666 -0.296 -0.684 96 113 97
-51.2994 58.5630 86.4486 -0.754 0.142 -0.641 76 93 77
-51.1783 58.5414 86.3298 -0.586 0.034 -0.809 87 104 88
-51.0550 58.5204 86.2214 -0.640 0.058 -0.766 78 92 75
-50.9309 58.4997 86.1163 -0.640 0.058 -0.766 98 112 98
-50.7917 58.4831 86.0753 -0.273 -0.588 -0.762 113 126 115
-50.4553 58.4651 86.2298 -0.429 -0.713 -0.555 124 137 127
-50.2318 58.4702 86.5298 -0.462 -0.731 -0.502 136 150 137
-49.3886 58.2172 84.5211 -0.872 -0.130 -0.472 138 148 142
-47.9257 58.1137 84.9059 -0.176 0.513 -0.840 135 147 135
-47.8004 58.0934 84.8080 -0.281 0.583 -0.763 136 148 137
-47.2566 57.8848 82.9874 -0.397 -0.590 -0.703 82 98 72
-46.9159 57.7759 82.0986 -0.919 0.043 -0.393 82 98 72
-46.8290 57.7494 81.8867 -0.921 0.033 -0.388 90 104 78
-46.5088 57.6820 81.4552 -0.177 0.406 -0.897 119 132 108
-46.2063 57.6540 81.4583 0.054 0.157 -0.986 134 146 124
-45.1249 57.4365 80.1164 -0.716 0.168 -0.677 63 76 66
-45.0141 57.4155 79.9940 -0.716 0.168 -0.677 85 97 87
-44.8891 57.3970 79.9151 -0.708 0.131 -0.694 136 148 138
-44.7854 57.3750 79.7729 -0.664 0.211 -0.718 154 166 156
-44.4184 57.3182 79.5140 -0.278 0.391 -0.877 139 151 142
-44.0595 57.2984 79.6731 -0.536 -0.022 -0.844 146 157 153
-25.2237 54.4336 66.9524 0.093 0.069 -0.993 72 72 60
-25.1591 54.4142 66.7974 -0.117 -0.276 -0.954 72 73 59
-25.0590 54.3957 66.6930 -0.619 0.032 -0.785 73 73 61
-25.0004 54.3762 66.5305 -0.492 -0.288 -0.821 73 73 61
-24.5967 54.3240 66.3646 -0.139 -0.340 -0.930 88 88 76
-23.8342 54.2392 66.2088 -0.483 0.085 -0.872 103 102 97
-23.6472 54.2230 66.2238 -0.325 -0.040 -0.945 100 99 94
-23.5305 54.2050 66.1427 0.018 -0.073 -0.997 99 98 93
-23.3897 54.1877 66.0942 -0.001 -0.203 -0.979 98 98 90
-23.0502 54.1542 66.0747 -0.317 -0.028 -0.948 106 106 98
-22.9039 54.1369 66.0329 -0.432 -0.027 -0.902 118 118 108
-22.8002 54.1186 65.9341 -0.445 -0.024 -0.895 104 104 94
-22.5921 54.1026 65.9742 -0.493 0.470 -0.732 83 83 71
-22.5311 54.0835 65.8188 -0.416 0.525 -0.742 84 84 72
-22.4727 54.0643 65.6607 -0.258 0.197 -0.946 93 93 83
-22.3139 54.0472 65.6351 -0.257 0.207 -0.944 102 102 92
-22.1696 54.0298 65.5900 -0.287 0.234 -0.929 95 96 88
-22.0071 54.0128 65.5687 -0.258 0.078 -0.963 79 80 74
-21.9123 53.9944 65.4590 -0.314 0.115 -0.942 84 85 79
-21.7770 53.9768 65.4021 -0.431 0.041 -0.901 89 90 84
-21.6279 53.9594 65.3627 -0.548 0.141 -0.825 89 90 84
-21.3521 53.9243 65.2548 -0.323 0.133 -0.937 93 94 88
-20.6005 53.8174 64.8334 -0.142 0.256 -0.956 106 105 100
-20.3018 53.7825 64.7528 -0.498 0.155 -0.853 70 71 65
-20.1730 53.7647 64.6867 -0.505 0.146 -0.851 67 69 64
-20.0486 53.7469 64.6152 -0.380 -0.077 -0.922 66 71 65
-19.8957 53.7294 64.5787 -0.309 -0.012 -0.951 37 43 39
-19.7545 53.7118 64.5277 -0.301 -0.003 -0.954 110 115 111
-19.6265 53.6940 64.4604 -0.298 -0.001 -0.955 131 136 132
-19.4806 53.6764 64.4148 -0.298 -0.001 -0.955 141 146 142
-19.0673 53.6232 64.2478 -0.393 0.046 -0.918 113 115 110
-18.9323 53.6055 64.1887 -0.378 0.044 -0.925 104 105 99
-18.8005 53.5877 64.1256 -0.358 0.039 -0.933 102 103 95
-18.5231 53.5713 64.2359 -0.547 0.116 -0.829 88 89 81
-18.4303 53.5531 64.1257 -0.577 0.086 -0.812 95 96 88
-18.3811 53.5345 63.9644 -0.270 0.106 -0.957 79 80 72
-18.2155 53.5169 63.9408 -0.263 0.034 -0.964 84 85 77
-18.0597 53.4993 63.9054 -0.270 0.037 -0.962 109 110 102
-17.9079 53.4816 63.8652 -0.238 0.000 -0.971 114 115 107
-17.3693 53.4290 63.8393 -0.136 -0.089 -0.987 116 117 111
-17.2358 53.4111 63.7767 0.033 0.127 -0.991 108 109 103
-17.1185 53.3930 63.6954 -0.209 0.489 -0.847 113 114 108
-16.9710 53.3752 63.6487 -0.209 0.489 -0.847 118 119 113
-16.8455 53.3572 63.5769 -0.030 0.453 -0.891 123 124 118
-16.6699 53.3395 63.5620 -0.030 0.453 -0.891 139 140 134
-16.4910 53.3218 63.5505 -0.029 0.440 -0.898 140 141 135
-16.1523 53.2861 63.5047 -0.034 0.428 -0.903 82 83 77
-15.9073 53.2500 63.3528 -0.457 0.498 -0.737 98 99 93
-15.5924 53.2141 63.2788 -0.546 0.386 -0.744 130 129 124
-15.5768 53.1958 63.0844 -0.300 -0.346 -0.889 138 137 132
-15.3806 53.1780 63.0900 -0.249 -0.009 -0.969 108 107 102
-15.1590 53.1601 63.1231 0.111 0.060 -0.992 90 89 84
-12.9920 52.9062 62.5329 -0.116 -0.316 -0.942 98 101 94
-12.8061 52.8879 62.5218 -0.266 -0.067 -0.962 106 109 102
-11.1205 52.7034 62.2136 -0.636 -0.164 -0.754 131 132 127
-10.9898 52.6851 62.1432 -0.651 -0.122 -0.749 116 117 112
-10.9014 52.6671 62.0302 -0.703 -0.212 -0.679 72 73 68
-10.6937 52.6308 61.8361 -0.770 -0.059 -0.635 67 68 63
-10.5746 52.6126 61.7544 -0.736 0.031 -0.677 94 95 90
-10.4532 52.5943 61.6750 -0.527 0.046 -0.849 99 102 95
-10.1290 52.5745 61.7959 0.026 0.005 -1.000 100 103 96
-7.0032 52.2508 61.4354 -0.177 0.232 -0.956 84 84 82
1.9886 51.4385 61.7693 -0.998 0.012 0.057 109 114 107
1.8815 51.4243 61.4905 -0.998 0.038 0.058 84 87 80
-62.9730 59.6380 84.6457 -0.867 0.389 -0.312 105 98 79
-55.8357 59.9401 95.5614 -0.381 0.686 -0.620 87 83 74
-55.2535 59.8685 95.3614 -0.260 0.406 -0.876 70 63 53
-53.1446 59.9382 98.3648 -0.921 -0.143 -0.363 77 73 62
-52.7846 59.9217 98.5559 -0.970 -0.083 -0.229 96 92 80
-52.4484 59.4641 93.7251 -0.759 -0.650 0.010 104 100 86
-51.9808 58.8521 87.2825 0.126 0.092 -0.988 142 153 148
-51.8667 58.8279 87.1277 -0.776 0.118 -0.620 140 153 144
-51.5111 58.7596 86.7276 -0.752 0.112 -0.650 77 94 76
-51.3942 58.7366 86.5894 -0.799 0.025 -0.601 85 102 84
-51.2718 58.7152 86.4752 -0.758 0.139 -0.637 80 97 79
-51.1581 58.6914 86.3249 -0.588 0.068 -0.806 83 100 82
-50.9165 58.6480 86.0873 -0.638 -0.058 -0.768 95 109 93
-50.7964 58.6262 85.9667 -0.273 -0.588 -0.762 90 104 91
-50.4741 58.6050 86.0645 -0.429 -0.713 -0.555 120 134 121
-50.2462 58.6120 86.3834 -0.451 -0.706 -0.546 127 141 128
-49.6068 58.4602 85.3346 -0.967 0.049 -0.250 138 148 145
-49.5227 58.4297 85.0773 -0.964 0.059 -0.259 138 148 145
-49.4473 58.3973 84.7891 -0.964 0.059 -0.259 137 148 143
-49.3273 58.3761 84.6750 -0.906 -0.270 -0.326 138 147 143
-48.9950 58.3061 84.2313 -0.699 -0.537 -0.472 145 152 145
-48.5015 58.2257 83.8380 -0.450 -0.609 -0.653 137 147 138
-47.8447 58.2780 85.1206 -0.226 0.663 -0.714 135 147 137
-47.6981 58.2624 85.0972 -0.266 0.615 -0.743 135 147 136
-47.2684 58.0264 82.8752 -0.397 -0.590 -0.703 81 97 71
-46.9281 57.9611 82.4924 -0.280 -0.714 -0.642 81 97 71
-46.4703 57.8322 81.5124 -0.191 0.389 -0.901 108 122 90
-46.1775 57.8025 81.4835 0.054 0.157 -0.986 109 123 91
-45.3376 57.7051 81.2613 -0.652 0.510 -0.561 144 157 147
-45.3886 57.6544 80.6343 -0.427 -0.346 -0.836 132 148 138
-45.1028 57.5826 80.1204 -0.699 0.169 -0.695 104 117 107
-44.9879 57.5623 80.0107 -0.699 0.178 -0.693 73 85 75
-44.8668 57.5430 79.9199 -0.708 0.131 -0.694 123 135 125
-44.0667 57.4400 79.5924 -0.496 0.050 -0.867 147 158 154
-25.6575 54.6267 67.0468 -0.116 0.680 -0.724 146 148 135
-25.0305 54.5384 66.7048 -0.710 -0.075 -0.700 76 76 64
-24.9710 54.5186 66.5436 -0.623 -0.256 -0.740 77 77 65
-24.8354 54.5013 66.4897 -0.670 -0.271 -0.691 98 98 86
-24.7295 54.4831 66.3943 -0.670 -0.271 -0.691 98 99 85
-24.6145 54.4651 66.3118 -0.140 -0.347 -0.927 97 97 85
-23.6748 54.3645 66.1585 -0.459 -0.072 -0.886 92 91 86
-23.5481 54.3468 66.0913 -0.331 -0.274 -0.903 90 89 84
-23.2286 54.3132 66.0457 -0.029 -0.224 -0.974 88 88 80
-23.0952 54.2957 65.9871 -0.212 -0.080 -0.974 106 106 98
-22.7871 54.2825 66.1619 -0.371 0.555 -0.745 107 107 97
-22.6647 54.2646 66.0876 -0.371 0.555 -0.745 87 87 77
-22.5335 54.2470 66.0250 -0.395 0.496 -0.773 91 91 79
-22.4304 54.2286 65.9251 -0.367 0.574 -0.732 87 87 75
-22.3418 54.2099 65.8064 -0.432 0.536 -0.725 99 99 89
-22.2099 54.1922 65.7449 -0.417 0.456 -0.786 111 111 101
-21.9605 54.1566 65.6030 -0.591 0.439 -0.677 90 91 83
-21.8648 54.1381 65.4944 -0.499 0.295 -0.815 75 78 71
-21.7505 54.1201 65.4101 -0.507 0.264 -0.820 92 93 87
-21.5656 54.1036 65.4168 -0.552 -0.018 -0.834 93 94 88
-21.3350 54.0879 65.4817 -0.336 0.299 -0.893 83 84 78
-21.2198 54.0699 65.3980 -0.377 0.084 -0.922 76 77 71
-21.0915 54.0521 65.3312 -0.325 0.268 -0.907 70 71 65
-20.8107 53.9967 64.9990 -0.385 0.130 -0.914 93 91 86
-20.6765 53.9791 64.9400 -0.385 0.130 -0.914 119 116 111
-20.5515 53.9613 64.8693 -0.223 0.110 -0.969 120 119 114
