ply
format ascii 1.0
element vertex 857
property float x
property float y
property float z
property float nx
property float ny
property float nz
property uchar diffuse_red
property uchar diffuse_green
property uchar diffuse_blue
end_header
-59.1442 50.3184 98.3171 -0.201 -0.262 -0.944 64 86 42
-59.0637 50.2402 97.9971 -0.834 -0.013 -0.551 60 82 39
-58.9957 50.1507 97.6310 -0.853 0.015 -0.522 60 82 40
-58.9308 50.0591 97.2561 -0.817 -0.039 -0.575 60 83 42
-58.8136 50.0193 97.0921 -0.817 -0.039 -0.575 60 82 46
-58.6527 50.0221 97.1012 -0.879 -0.260 -0.401 75 96 64
-58.5926 49.9278 96.7156 -0.692 0.124 -0.711 73 93 64
-58.4777 49.8868 96.5464 -0.705 0.101 -0.702 116 134 108
-58.3529 49.8554 96.4165 -0.705 0.101 -0.702 157 176 150
-58.2277 49.8244 96.2886 -0.763 0.044 -0.645 142 164 138
-58.1108 49.7859 96.1298 -0.806 0.101 -0.584 123 141 117
-58.0190 49.7245 95.8776 -0.919 0.196 -0.341 111 124 106
-57.8533 49.5867 95.3133 -0.916 0.200 -0.349 80 83 74
-57.3754 49.8777 96.4936 -0.461 -0.146 -0.875 70 73 64
-57.2247 49.8694 96.4573 -0.499 0.110 -0.860 64 67 58
-57.0955 49.8415 96.3419 -0.494 0.114 -0.862 98 99 91
-57.0351 49.7525 95.9778 -0.870 -0.436 -0.228 130 132 121
-56.7701 49.7038 95.7754 -0.910 -0.202 -0.363 133 131 119
-57.0032 49.3604 94.3774 -0.765 -0.064 -0.640 132 130 117
-56.7198 49.3321 94.2578 -0.720 -0.163 -0.674 123 121 108
-56.6097 49.2907 94.0875 -0.683 -0.036 -0.730 117 115 102
-55.9014 48.7015 91.6733 -0.885 -0.437 -0.161 122 121 103
-54.7097 48.4058 90.4497 -0.245 -0.054 -0.968 123 128 106
-54.4306 48.3788 90.3354 -0.042 -0.516 -0.855 101 106 83
-54.2792 48.3741 90.3138 0.001 -0.477 -0.879 87 90 70
-54.1171 48.3772 90.3241 -0.083 -0.183 -0.980 151 154 137
-54.0194 48.3323 90.1395 -0.638 -0.119 -0.761 131 134 117
-53.8990 48.3043 90.0238 -0.661 -0.135 -0.738 130 133 116
-53.3875 48.2153 89.6531 -0.545 -0.119 -0.830 73 74 60
-53.2953 48.1675 89.4569 -0.885 0.153 -0.440 68 68 56
-52.6195 48.1945 89.5572 -0.947 0.264 -0.181 83 83 71
-52.6574 48.0567 88.9954 -0.467 0.406 -0.786 83 83 71
-52.4664 48.0784 89.0815 -0.103 0.370 -0.923 82 82 72
-52.3394 48.0557 88.9870 -0.103 0.359 -0.928 77 77 67
-52.1799 48.0553 88.9830 -0.104 0.362 -0.927 79 79 71
-52.1009 47.9999 88.7559 -0.414 0.366 -0.833 86 86 78
-51.8331 47.5397 86.8744 -0.436 0.209 -0.875 75 75 67
-51.6923 47.5281 86.8250 -0.433 0.209 -0.877 86 86 78
-51.5639 47.5084 86.7427 -0.436 0.170 -0.884 93 93 85
-51.2565 47.3994 86.2936 -0.528 0.459 -0.715 123 121 114
-50.9718 47.3782 86.2029 -0.423 0.457 -0.783 149 153 147
-51.1859 46.5606 82.8700 -0.651 -0.435 -0.622 149 155 151
-49.0739 47.3571 86.0896 -0.728 0.677 -0.109 156 162 158
-44.6945 45.1533 77.0342 -0.899 0.136 -0.417 144 149 145
-44.5465 45.1472 77.0074 -0.812 -0.027 -0.583 144 149 145
-19.4660 42.0856 64.1539 -0.529 -0.248 -0.811 124 123 119
-19.1003 42.0271 63.9100 -0.406 -0.250 -0.879 125 126 120
-17.6574 42.1600 64.4315 -0.277 0.410 -0.869 113 115 102
-17.5890 42.1281 64.3003 -0.596 0.621 -0.509 109 111 100
-17.4336 42.1153 64.2459 -0.572 0.611 -0.548 95 97 86
-17.2311 42.1128 64.2327 -0.443 0.596 -0.670 88 90 79
-13.0745 41.9245 63.4044 0.219 0.212 -0.952 106 107 99
-12.3389 42.0274 63.8136 0.161 0.364 -0.917 105 106 98
-10.9202 41.7193 62.5363 -0.124 -0.387 -0.914 87 85 73
-9.3473 41.6638 62.2872 -0.002 -0.177 -0.984 82 83 77
-9.1080 41.6645 62.2866 -0.002 -0.177 -0.984 77 76 71
-9.0027 41.6400 62.1852 -0.645 0.318 -0.695 91 90 85
-8.9022 41.6147 62.0804 -0.645 0.318 -0.695 83 80 75
-8.9650 41.5590 61.8542 -0.524 -0.246 -0.815 75 72 67
-4.1280 41.4246 61.2357 -0.364 -0.275 -0.890 79 77 68
0.3929 41.2793 60.5776 -0.376 -0.279 -0.884 52 54 43
0.5620 41.2640 60.5129 -0.328 -0.145 -0.933 60 62 49
0.8339 41.2652 60.5137 -0.684 -0.181 -0.707 68 70 57
3.3023 41.3579 60.8566 -0.477 -0.544 -0.690 60 62 48
3.5976 41.3187 60.6924 0.035 -0.171 -0.985 76 78 64
3.7622 41.3017 60.6207 0.070 -0.174 -0.982 79 81 67
4.0716 41.3071 60.6382 0.051 -0.163 -0.985 80 82 69
4.3381 41.3057 60.6286 0.055 -0.163 -0.985 81 83 72
4.7848 41.1205 59.8667 -0.392 -0.205 -0.897 65 66 51
-67.5701 53.1051 109.0861 0.119 0.423 -0.898 104 99 79
-67.5415 52.8730 108.1447 -0.999 -0.007 -0.034 102 97 77
-64.5485 50.0524 96.6569 -0.066 -0.772 -0.633 97 102 95
-64.4630 49.9729 96.3330 -0.242 -0.659 -0.712 103 110 102
-60.7247 51.3371 101.7939 -0.804 0.385 -0.453 52 62 53
-60.5438 51.3599 101.8829 -0.747 0.551 -0.372 53 64 56
-60.4279 51.3099 101.6780 -0.715 0.575 -0.397 54 65 59
-60.3287 51.2419 101.4007 -0.715 0.575 -0.397 53 64 58
-60.2674 51.1332 100.9590 -0.843 0.419 -0.337 37 48 44
-60.3262 50.8955 99.9967 -0.878 -0.430 -0.210 33 44 40
-60.0943 50.8034 99.6191 -0.820 -0.334 -0.465 46 59 49
-59.8727 50.7020 99.2038 -0.528 -0.566 -0.633 45 61 50
-59.1406 50.4756 98.2727 -0.201 -0.262 -0.944 61 85 53
-58.9063 50.2358 97.2962 -0.757 0.290 -0.585 60 84 54
-58.7857 50.1990 97.1451 -0.767 0.299 -0.567 62 83 56
-58.5637 50.2612 97.3930 -0.991 -0.030 -0.131 70 88 64
-58.5296 50.1407 96.9041 -0.770 0.270 -0.578 109 123 101
-58.4291 50.0854 96.6780 -0.721 0.328 -0.610 143 157 135
-58.3001 50.0576 96.5629 -0.724 0.294 -0.624 142 157 134
-58.2142 49.9892 96.2839 -0.763 0.044 -0.645 111 125 105
-58.0871 49.9602 96.1641 -0.885 -0.095 -0.456 101 114 93
-57.3726 50.0336 96.4486 -0.537 -0.329 -0.777 73 74 66
-57.2155 50.0311 96.4357 -0.361 -0.216 -0.907 85 86 78
-57.0806 50.0084 96.3411 -0.375 -0.215 -0.902 123 125 114
-57.0545 49.8881 95.8528 -0.806 -0.563 -0.181 143 143 132
-56.9714 49.8199 95.5750 -0.686 -0.652 -0.325 140 140 128
-56.7573 49.8683 95.7673 -0.892 -0.208 -0.400 139 137 124
-56.6676 49.8064 95.5145 -0.931 -0.293 -0.220 138 136 123
-56.6843 49.5139 94.3292 -0.760 -0.064 -0.647 118 114 102
-56.1946 49.2572 93.2798 -0.929 0.127 -0.349 107 101 87
-56.1146 49.1920 93.0142 -0.624 -0.026 -0.781 102 96 82
-54.6956 48.5646 90.4450 -0.263 -0.064 -0.963 123 128 107
-54.2828 48.5197 90.2551 -0.009 -0.484 -0.875 132 137 117
-54.1246 48.5200 90.2534 -0.009 -0.484 -0.875 155 158 141
-54.0267 48.4751 90.0699 -0.707 -0.258 -0.659 138 141 124
-53.9070 48.4467 89.9525 -0.707 -0.258 -0.659 115 118 101
-53.7705 48.4308 89.8855 -0.746 -0.251 -0.616 144 147 130
-53.6392 48.4110 89.8029 -0.790 -0.100 -0.605 138 141 124
-53.4970 48.3992 89.7522 -0.812 0.055 -0.581 110 113 96
-53.3839 48.3662 89.6165 -0.628 -0.216 -0.747 86 87 73
-52.4578 48.4575 89.9695 -0.947 0.240 -0.215 82 82 70
-52.6251 48.2275 89.0403 -0.325 -0.176 -0.929 82 82 70
-52.4423 48.2438 89.1030 -0.120 -0.276 -0.954 82 82 70
-52.2825 48.2437 89.0999 -0.469 -0.215 -0.857 72 72 62
-52.1504 48.2244 89.0191 -0.230 0.033 -0.973 73 73 65
-52.2713 47.9232 87.8003 -0.904 -0.032 -0.427 86 86 78
-51.6912 47.6751 86.7839 -0.535 0.140 -0.833 82 82 74
-51.5461 47.6663 86.7459 -0.425 0.216 -0.879 83 83 75
-51.4862 47.6018 86.4834 -0.600 0.220 -0.769 116 116 108
-51.3818 47.5667 86.3392 -0.642 0.340 -0.688 135 132 125
-51.2194 47.5693 86.3465 -0.505 0.430 -0.749 151 149 144
-50.7061 47.4909 86.0193 -0.237 0.238 -0.942 153 159 155
-51.1102 47.1362 84.5891 -0.537 -0.114 -0.836 150 156 152
-51.1609 47.0063 84.0633 -0.515 -0.490 -0.704 149 155 151
-44.9059 45.3442 77.2112 -0.557 0.050 -0.829 141 146 142
-44.6114 45.2563 76.8497 -0.886 0.109 -0.450 150 155 151
-20.5488 42.5069 65.2624 -0.834 0.245 -0.494 49 46 41
-18.9914 42.1970 63.9780 -0.575 0.065 -0.816 111 112 105
-18.8712 42.1771 63.8949 -0.581 0.050 -0.812 93 94 86
-17.5857 42.3235 64.4648 -0.365 0.204 -0.909 114 116 105
-17.1476 42.2788 64.2756 -0.415 0.126 -0.901 103 105 94
-17.4246 42.1708 63.8430 -0.489 0.320 -0.812 111 111 100
-15.6848 42.1288 63.6406 -0.236 0.235 -0.943 103 102 97
-15.4130 42.0941 63.4949 -0.824 0.102 -0.558 113 112 107
-15.0527 42.0320 63.2364 -0.474 -0.340 -0.812 113 113 103
-12.6529 42.0235 63.1582 -0.551 -0.822 -0.145 84 85 77
-10.9299 41.9136 62.6809 -0.835 0.028 -0.549 87 87 77
-8.6544 41.8139 62.2350 -0.338 0.421 -0.842 81 78 73
-6.7171 41.6866 61.6833 -0.297 -0.077 -0.952 136 139 122
-4.6846 41.6133 61.3487 -0.375 -0.388 -0.842 74 72 60
-4.6487 41.5761 61.1974 -0.327 -0.420 -0.847 79 77 65
-4.1718 41.4864 60.8249 -0.368 -0.216 -0.904 77 81 67
-2.3824 41.6650 61.5161 -0.159 0.324 -0.933 81 88 73
-2.1961 41.6533 61.4654 -0.490 0.189 -0.851 86 96 79
0.4211 41.4860 60.7388 -0.648 -0.308 -0.697 52 54 43
0.4794 41.4526 60.6026 -0.623 -0.232 -0.747 46 48 37
0.7044 41.4465 60.5736 -0.394 -0.163 -0.905 52 54 43
4.5227 41.4548 60.5373 -0.533 -0.603 -0.593 79 80 72
4.8442 41.2921 59.8716 -0.382 -0.198 -0.903 68 66 52
-64.7111 50.3704 97.2959 -0.473 0.661 -0.583 95 105 96
-64.5643 50.1756 96.5083 -0.066 -0.772 -0.633 100 106 99
-64.4726 50.1040 96.2179 -0.238 -0.659 -0.713 103 110 102
-64.4035 50.0042 95.8144 0.137 -0.548 -0.825 103 110 103
-64.1228 50.1770 96.5040 0.325 -0.334 -0.885 107 114 107
-60.5122 51.5521 101.9613 -0.733 0.518 -0.441 48 58 50
-59.3063 50.6217 98.1874 -0.927 -0.137 -0.348 59 85 64
-59.1931 50.5760 98.0009 -0.359 -0.106 -0.927 53 78 58
-58.4822 50.3393 97.0319 -0.885 0.330 -0.327 146 152 137
-58.2631 50.2454 96.6491 -0.714 0.371 -0.594 111 119 101
-58.1911 50.1632 96.3162 -0.750 0.044 -0.660 97 106 90
-57.3828 50.1774 96.3556 -0.716 -0.142 -0.684 88 88 78
-57.2169 50.1833 96.3753 -0.457 -0.129 -0.880 115 117 106
-57.1014 50.1429 96.2103 -0.331 -0.119 -0.936 141 143 132
-57.0050 49.9423 95.4002 -0.686 -0.652 -0.325 141 139 126
-56.7752 50.0054 95.6490 -0.882 -0.170 -0.440 142 140 127
-56.1777 49.4217 93.2853 -0.657 -0.518 -0.548 110 107 92
-55.6900 49.3015 92.7905 -0.349 0.045 -0.936 120 118 103
-54.3773 48.7157 90.4023 -0.543 -0.019 -0.839 144 149 128
-54.1345 48.6608 90.1755 -0.009 -0.484 -0.875 147 151 136
-54.0290 48.6216 90.0152 -0.707 -0.258 -0.659 134 136 122
-53.9094 48.5931 89.8979 -0.707 -0.258 -0.659 89 91 77
-53.7850 48.5682 89.7949 -0.715 -0.334 -0.615 135 137 123
-53.6569 48.5462 89.7034 -0.739 -0.325 -0.590 140 142 128
-53.4861 48.5556 89.7373 -0.660 -0.150 -0.736 118 120 106
-53.3884 48.5112 89.5563 -0.626 -0.226 -0.746 100 102 89
-53.2429 48.5018 89.5155 -0.707 -0.242 -0.665 81 81 69
-53.2176 48.4056 89.1273 -0.833 -0.262 -0.488 80 80 68
-53.0290 48.3141 88.7548 -0.812 -0.242 -0.531 80 80 68
-52.6196 48.3797 89.0096 -0.325 -0.176 -0.929 82 82 70
-52.2362 48.4248 89.1829 -0.795 -0.399 -0.457 67 67 57
-51.6503 47.8484 86.8485 -0.722 0.440 -0.534 108 108 100
-51.4596 47.7652 86.5093 -0.600 0.220 -0.769 142 143 135
-51.3459 47.7360 86.3893 -0.642 0.340 -0.688 151 152 144
-50.8653 47.6368 85.9789 -0.821 0.408 -0.400 152 159 152
-45.1223 45.5331 77.3793 0.079 0.192 -0.978 144 150 146
-44.9848 45.5224 77.3329 -0.121 0.014 -0.993 146 151 147
-44.8810 45.4954 77.2222 -0.582 0.100 -0.807 145 150 146
-44.5919 45.4047 76.8503 -0.890 0.182 -0.418 155 160 156
-31.3622 43.5838 69.2223 0.080 -0.507 -0.858 157 158 152
-20.5804 42.6452 65.2024 -0.806 0.313 -0.503 58 57 52
-17.1222 42.4323 64.2677 -0.283 -0.774 -0.566 115 117 108
-15.6801 42.2781 63.6145 -0.124 0.097 -0.988 103 104 98
-15.2024 42.2410 63.4545 -0.785 0.184 -0.591 133 132 127
-14.9736 42.1970 63.2723 -0.748 -0.268 -0.607 128 128 120
-14.5321 42.2443 63.4527 -0.066 -0.369 -0.927 114 114 104
-13.2468 42.2821 63.5764 0.148 -0.048 -0.988 112 112 104
-12.9201 42.2111 63.2832 -0.481 -0.857 -0.188 111 111 103
-12.9241 42.1643 63.0949 -0.502 -0.848 -0.168 98 98 90
-12.5561 42.0567 62.6535 -0.588 0.096 -0.803 73 73 65
-12.4007 42.0428 62.5939 -0.618 0.087 -0.782 100 100 92
-10.9629 42.1494 62.9913 -0.986 -0.121 0.116 97 97 89
-10.6613 42.0277 62.4942 -0.767 0.058 -0.639 94 94 84
-9.1201 42.0123 62.3980 -0.002 0.198 -0.980 84 83 79
-8.8115 42.0266 62.4488 0.226 -0.045 -0.973 83 82 78
-8.6652 42.0097 62.3774 -0.164 0.325 -0.931 89 88 84
-8.2204 41.8265 61.6298 -0.382 0.316 -0.868 77 77 68
-2.5105 41.8447 61.5755 -0.301 0.292 -0.908 82 87 73
-2.2668 41.8431 61.5638 -0.181 0.319 -0.930 82 89 73
-2.1472 41.8199 61.4678 -0.389 0.258 -0.884 87 96 79
-1.7779 41.7960 61.3633 -0.332 0.346 -0.878 66 79 59
-1.1969 41.6774 60.8728 -0.639 0.074 -0.766 73 77 55
-0.5538 41.6993 60.9463 -0.305 -0.703 -0.642 73 75 54
0.3447 41.6329 60.6589 -0.623 -0.232 -0.747 50 52 41
0.4670 41.6100 60.5641 -0.623 -0.232 -0.747 49 50 42
0.7557 41.6145 60.5758 -0.253 -0.203 -0.946 54 56 45
4.7382 41.6520 60.6379 -0.099 0.141 -0.985 72 73 65
4.9261 41.4673 59.8900 -0.421 -0.198 -0.885 67 66 52
5.0680 41.4468 59.8042 -0.344 -0.199 -0.918 66 67 50
-65.7823 51.5303 101.3206 -0.138 0.787 -0.601 86 84 71
-64.4820 50.2351 96.1043 -0.046 -0.415 -0.909 104 111 103
-64.1159 50.3301 96.4749 0.294 -0.339 -0.894 106 113 106
-63.1919 50.7463 98.1160 -0.894 -0.420 0.155 125 135 126
-60.3547 51.1730 99.7486 -0.281 -0.546 -0.789 34 45 41
-59.4950 50.9072 98.6628 -0.849 -0.412 -0.331 45 68 52
-59.4083 50.8328 98.3629 -0.872 -0.328 -0.362 61 85 67
-59.1789 50.7436 97.9999 -0.352 -0.095 -0.931 51 78 62
-58.8478 50.5992 97.4135 -0.648 0.261 -0.716 117 141 124
-58.7156 50.5734 97.3071 -0.764 0.295 -0.574 137 156 140
-58.5639 50.5671 97.2779 -0.926 0.273 -0.261 139 148 133
-58.4908 50.4836 96.9416 -0.922 0.278 -0.271 155 156 142
-58.3902 50.4276 96.7152 -0.849 0.386 -0.361 126 128 114
-58.2655 50.3955 96.5834 -0.763 0.406 -0.502 103 105 91
-58.1904 50.3159 96.2628 -0.816 0.117 -0.567 97 101 87
-57.3698 50.3427 96.3485 -0.694 -0.089 -0.714 116 116 104
-57.2313 50.3234 96.2677 -0.677 -0.104 -0.729 123 125 114
-57.1142 50.2844 96.1088 -0.377 -0.108 -0.920 141 141 129
-57.0780 50.0285 95.0840 -0.872 -0.465 -0.152 133 131 118
-56.8736 49.9282 94.6772 -0.502 0.645 -0.576 143 140 125
-56.2719 49.6262 93.4532 -0.906 0.312 -0.288 119 116 101
-56.2853 49.4802 92.8695 -0.181 -0.247 -0.952 104 101 86
-55.6901 49.4516 92.7394 -0.321 -0.041 -0.946 116 114 99
-54.9608 49.2730 92.0056 -0.466 0.255 -0.847 118 121 102
-54.8243 49.2555 91.9321 -0.499 0.269 -0.824 118 121 102
-54.4319 49.1897 91.6585 -0.650 0.241 -0.721 132 139 123
-54.5128 48.8806 90.4242 -0.480 -0.104 -0.871 144 151 133
-54.3652 48.8733 90.3909 -0.543 -0.019 -0.839 136 143 125
-54.2342 48.8530 90.3066 -0.543 -0.019 -0.839 130 137 120
-54.1078 48.8293 90.2084 -0.477 -0.082 -0.875 136 140 125
-54.0291 48.7696 89.9672 -0.714 -0.196 -0.672 135 139 125
-53.9099 48.7408 89.8489 -0.714 -0.196 -0.672 121 125 112
-53.7513 48.7415 89.8475 -0.711 -0.208 -0.672 139 142 129
-53.3197 48.7099 89.7098 -0.368 0.179 -0.912 100 102 89
-53.2462 48.6476 89.4588 -0.640 -0.204 -0.741 86 88 75
-52.6082 48.6495 89.4499 -0.318 0.354 -0.880 81 81 69
-52.4129 48.5617 89.0933 0.037 0.231 -0.972 81 83 70
-52.3142 48.5189 88.9194 -0.654 -0.454 -0.605 67 69 60
-52.1591 48.1853 87.5807 -0.303 0.111 -0.946 83 85 80
-52.0458 48.1546 87.4550 -0.639 0.358 -0.681 82 83 77
-51.7126 48.0589 87.0633 -0.741 0.514 -0.433 118 120 114
-51.4203 47.9372 86.5686 -0.451 -0.022 -0.892 146 150 143
-51.3333 47.8902 86.3783 -0.246 -0.110 -0.963 149 152 145
-44.9339 45.6864 77.3935 -0.113 0.068 -0.991 151 156 152
-44.8034 45.6721 77.3331 -0.589 0.052 -0.807 152 157 153
-20.8281 42.7803 65.1356 -0.283 0.184 -0.941 71 70 66
-17.5093 42.5404 64.0889 -0.264 -0.928 -0.264 100 101 93
-17.3414 42.5307 64.0456 -0.265 -0.928 -0.263 119 120 112
-17.2422 42.5055 63.9421 -0.287 -0.928 -0.236 109 110 102
-16.6610 42.4459 63.6885 -0.818 -0.557 -0.143 103 104 96
-15.5857 42.4469 63.6643 -0.235 -0.021 -0.972 111 112 106
-15.4534 42.4287 63.5882 -0.684 -0.007 -0.729 129 130 124
-15.3479 42.4047 63.4895 -0.684 -0.007 -0.729 135 136 130
-15.2535 42.3784 63.3817 -0.815 0.199 -0.544 135 134 129
-14.9419 42.3522 63.2687 -0.731 -0.351 -0.586 125 122 115
-12.5242 42.2131 62.6488 -0.588 0.096 -0.803 75 76 68
-9.3909 42.1576 62.3446 -0.186 0.311 -0.932 97 96 92
-8.7887 42.1390 62.2547 -0.526 0.437 -0.730 79 78 74
-8.3457 42.0444 61.8647 -0.573 0.471 -0.671 55 54 50
-8.1428 41.9938 61.6566 -0.382 0.316 -0.868 70 70 61
-5.6501 42.1932 62.3892 0.046 0.526 -0.849 136 139 121
-4.0656 41.8594 61.0122 -0.286 -0.206 -0.936 75 78 64
-2.0590 41.9936 61.4966 -0.425 0.190 -0.885 85 94 77
-1.6884 41.9700 61.3927 -0.394 0.286 -0.873 87 100 80
-1.6654 41.9300 61.2320 -0.376 0.334 -0.864 94 107 89
-0.8831 41.8457 60.8743 -0.364 -0.490 -0.792 68 67 49
0.3171 41.7876 60.6106 -0.647 -0.196 -0.737 51 52 43
0.4353 41.7641 60.5131 -0.647 -0.196 -0.737 58 59 51
1.0822 41.8285 60.7540 0.363 -0.322 -0.875 58 60 49
5.3772 41.6150 59.7874 -0.279 -0.244 -0.929 66 67 50
5.6138 41.6091 59.7576 -0.251 -0.229 -0.941 71 71 58
-63.9958 51.4231 100.1784 0.282 0.239 -0.929 100 107 99
-64.3175 50.4026 96.1317 0.076 0.492 -0.867 107 114 107
-63.1705 50.9209 98.1574 0.235 -0.725 -0.647 129 139 130
-60.4453 51.4019 99.9879 0.340 0.043 -0.939 36 47 43
-59.3582 50.8742 97.8576 -0.521 0.427 -0.739 58 83 67
-59.1740 50.9017 97.9612 -0.730 0.220 -0.647 99 122 106
-58.8220 50.7778 97.4582 -0.606 0.127 -0.785 172 198 181
-58.6880 50.7537 97.3585 -0.735 0.270 -0.622 213 235 218
-58.5760 50.7079 97.1730 -0.754 0.254 -0.605 142 153 137
-58.4585 50.6679 97.0104 -0.747 0.264 -0.610 129 130 117
-58.3134 50.6551 96.9553 -0.676 0.400 -0.619 98 98 86
-56.9925 50.1145 94.7666 -0.893 -0.415 -0.177 134 131 116
-55.0495 49.4790 92.1820 -0.329 0.192 -0.924 131 134 117
-54.9750 49.4113 91.9107 -0.462 0.165 -0.871 115 118 101
-54.8267 49.4035 91.8751 -0.480 0.152 -0.864 126 130 113
-54.6137 49.4471 92.0422 -0.952 -0.195 -0.234 136 144 128
-54.4259 49.3443 91.6281 -0.848 -0.212 -0.485 141 149 134
-54.3481 49.2809 91.3733 -0.847 -0.224 -0.483 142 150 134
-54.4439 48.9605 90.1028 -0.684 0.360 -0.635 135 142 126
-54.2488 48.9901 90.2144 -0.818 0.105 -0.566 131 137 123
-54.0876 48.9931 90.2215 -0.389 -0.020 -0.921 134 140 128
-54.0308 48.9163 89.9146 -0.619 -0.400 -0.676 132 138 127
-53.9056 48.8920 89.8143 -0.619 -0.400 -0.676 129 135 125
-52.5795 48.8190 89.4845 -0.189 -0.368 -0.910 80 82 68
-52.5555 48.7220 89.0980 -0.216 -0.207 -0.954 81 83 70
-52.4022 48.7179 89.0770 -0.668 -0.300 -0.681 79 82 71
-52.3581 48.6363 88.7513 -0.660 -0.434 -0.613 70 75 67
-52.4706 48.4450 87.9943 -0.922 -0.195 -0.334 62 69 62
-52.3670 48.4069 87.8399 -0.362 -0.327 -0.873 53 60 56
-52.1220 48.3578 87.6370 -0.274 0.036 -0.961 73 80 75
-52.0410 48.3047 87.4235 -0.328 0.331 -0.885 69 76 69
-51.9298 48.2726 87.2926 -0.605 0.346 -0.717 92 99 92
-51.4848 48.1458 86.7753 -0.605 0.215 -0.767 163 170 162
-51.3898 48.1036 86.6047 -0.426 0.017 -0.904 156 163 155
-21.2313 43.0254 65.5135 -0.479 0.706 -0.522 52 53 48
-20.5983 42.9821 65.3221 -0.861 0.358 -0.361 61 61 58
-19.7751 42.8361 64.7171 -0.493 0.116 -0.862 91 92 86
-19.2373 42.6722 64.0493 -0.392 -0.173 -0.903 110 111 105
-15.5733 42.5980 63.6447 -0.350 -0.292 -0.890 118 119 113
-15.4444 42.5791 63.5657 -0.710 -0.329 -0.623 124 125 119
-15.3399 42.5549 63.4662 -0.844 -0.098 -0.528 119 120 114
-14.5082 42.5476 63.4123 0.053 -0.570 -0.820 106 103 96
-13.5016 42.5758 63.4944 0.268 -0.210 -0.940 101 98 91
-13.1842 42.5496 63.3804 -0.823 0.382 -0.420 98 98 90
-8.5413 42.2496 62.0486 0.266 0.226 -0.937 45 44 40
-6.2915 42.2287 61.8982 -0.127 0.433 -0.893 134 137 118
-4.6377 42.1773 61.6443 -0.355 0.393 -0.848 74 72 60
0.1027 41.9542 60.6153 -0.164 0.136 -0.977 58 60 49
0.3900 41.9157 60.4535 -0.645 0.248 -0.723 59 60 52
3.2583 42.1767 61.4052 0.274 -0.247 -0.929 65 66 52
4.1438 41.9268 60.3853 -0.239 0.181 -0.954 72 74 61
6.7800 42.0428 60.7672 -0.056 -0.455 -0.889 70 71 55
-62.4507 51.3972 99.3662 -0.139 0.180 -0.974 104 114 106
-59.4655 51.0792 98.0092 -0.629 0.251 -0.735 43 65 50
-59.1429 51.0868 98.0284 -0.728 0.218 -0.650 138 161 143
-58.8060 50.9468 97.4642 -0.676 -0.041 -0.736 178 205 190
-58.6699 50.9248 97.3727 -0.770 0.139 -0.623 212 234 221
-58.5404 50.8962 97.2554 -0.753 -0.061 -0.656 121 133 121
-58.4202 50.8585 97.1024 -0.646 0.015 -0.764 94 97 86
-57.5283 50.3520 95.0717 -0.793 0.334 -0.510 127 127 115
-56.8899 50.3592 95.0785 -0.392 0.699 -0.598 130 127 112
-55.0970 49.7197 92.4920 -0.510 0.259 -0.820 128 131 114
-55.0032 49.6668 92.2800 -0.266 0.079 -0.961 136 140 123
-54.9083 49.6152 92.0730 -0.708 0.347 -0.616 112 115 98
-54.7699 49.5992 92.0050 -0.723 0.329 -0.607 137 141 124
-54.4996 49.5618 91.8482 -0.937 -0.278 -0.211 140 148 135
-54.4268 49.4935 91.5761 -0.843 -0.269 -0.466 135 143 130
-54.3209 49.4520 91.4084 -0.843 -0.269 -0.466 132 140 126
-54.2049 49.1722 90.2996 -0.255 -0.120 -0.959 141 147 135
-54.0605 49.1623 90.2555 -0.448 -0.035 -0.893 141 147 137
-54.0433 49.0546 89.8296 -0.694 -0.305 -0.652 135 140 133
-53.9493 49.0065 89.6365 -0.680 -0.339 -0.650 125 130 123
-53.8071 48.9954 89.5877 -0.710 -0.278 -0.647 120 125 118
-53.4642 48.7822 88.7341 -0.640 0.018 -0.768 87 90 79
-53.3054 48.6686 88.2801 -0.750 -0.428 -0.504 86 88 75
-53.0546 48.6234 88.0931 -0.188 -0.568 -0.801 80 82 68
-52.7107 48.5328 87.7236 -0.490 -0.315 -0.813 74 78 71
-52.5398 48.5428 87.7573 -0.880 -0.108 -0.462 69 76 71
-52.3488 48.5666 87.8448 -0.751 0.030 -0.660 66 76 73
-52.1922 48.5659 87.8366 -0.297 0.009 -0.955 64 75 69
-52.0684 48.5420 87.7381 -0.440 0.042 -0.897 71 81 76
-51.9881 48.4880 87.5219 -0.449 0.428 -0.785 93 104 98
-51.3813 48.2555 86.5831 -0.428 -0.038 -0.903 152 162 154
-21.3694 43.2373 65.7492 0.460 -0.186 -0.868 48 47 45
-18.8573 42.8105 63.9784 -0.190 -0.192 -0.963 108 109 103
-18.6971 42.7998 63.9307 -0.355 -0.005 -0.935 109 110 104
-15.4728 42.7212 63.5117 -0.713 -0.317 -0.625 111 112 106
-13.3886 42.7504 63.5565 0.373 -0.223 -0.900 95 92 85
-13.1194 42.7138 63.4028 -0.823 0.382 -0.420 91 91 83
-9.3967 42.4156 62.0994 -0.752 -0.011 -0.659 72 71 67
-8.5514 42.4004 62.0109 0.277 0.058 -0.959 51 50 46
-5.0656 42.3437 61.6693 -0.052 0.003 -0.999 74 74 64
-4.6654 42.3732 61.7723 -0.572 0.440 -0.692 70 70 60
-4.5755 42.3449 61.6573 -0.333 0.315 -0.889 77 74 65
-4.4804 42.3176 61.5462 -0.367 0.432 -0.824 87 85 73
-4.3280 42.3009 61.4750 -0.234 -0.095 -0.968 112 110 98
-2.1336 42.2078 61.0334 -0.291 -0.950 -0.116 94 108 88
5.0455 42.1929 60.7320 -0.150 0.536 -0.831 72 74 63
5.9391 42.1178 60.4054 -0.393 0.111 -0.913 84 85 71
6.7124 42.0663 60.1761 -0.683 -0.217 -0.698 70 73 54
7.4471 42.0951 60.2650 0.018 0.178 -0.984 67 70 49
-65.2104 52.1539 101.7845 0.487 -0.444 -0.752 68 70 61
-65.0776 52.1255 101.6680 0.439 -0.568 -0.696 70 73 65
-64.5794 51.7516 100.1820 -0.070 0.004 -0.998 97 102 95
-63.7811 51.2028 97.9981 -0.985 -0.175 0.013 109 116 108
-63.7957 50.9887 97.1582 -0.931 -0.363 -0.021 118 127 120
-63.5548 50.7277 96.1248 0.311 -0.785 -0.537 130 134 127
-63.3926 50.7462 96.1917 0.311 -0.785 -0.537 130 137 130
-60.5748 51.7421 99.9946 -0.103 0.004 -0.995 28 40 36
-60.3789 51.7850 100.1555 -0.125 -0.500 -0.857 27 38 32
-60.2227 51.7823 100.1392 -0.181 -0.504 -0.844 41 50 47
-59.9621 51.7192 99.8818 -0.566 -0.582 -0.584 22 37 27
-59.5719 51.2857 98.1657 -0.761 -0.381 -0.525 70 91 76
-59.4623 51.2353 97.9636 -0.510 0.386 -0.769 133 155 139
-59.1333 51.2500 98.0091 -0.560 0.362 -0.745 166 191 172
-58.7853 51.1206 97.4884 -0.624 -0.007 -0.782 182 208 194
-58.6319 51.1161 97.4650 -0.701 0.121 -0.703 203 222 210
-58.5305 51.0590 97.2368 -0.760 -0.050 -0.649 132 142 130
-58.3878 51.0437 97.1714 -0.548 -0.297 -0.782 78 81 68
-57.5987 50.5848 95.3407 -0.795 0.344 -0.500 123 125 112
-57.5100 50.5203 95.0843 -0.826 0.334 -0.454 132 132 120
-56.1467 50.0491 93.1840 -0.669 0.261 -0.696 118 116 101
-55.7141 50.0150 93.0341 -0.103 0.071 -0.992 100 98 83
-55.0673 49.8947 92.5375 -0.448 0.223 -0.866 138 141 124
-54.9733 49.8416 92.3257 -0.298 0.084 -0.951 142 145 128
-54.8672 49.7988 92.1539 -0.787 0.211 -0.580 117 119 105
-54.7476 49.7674 92.0258 -0.810 0.293 -0.508 141 144 129
-54.5087 49.7046 91.7703 -0.971 -0.060 -0.232 125 133 119
-54.4299 49.6409 91.5174 -0.925 -0.194 -0.328 116 124 109
-54.3251 49.5983 91.3463 -0.845 -0.250 -0.472 116 124 109
-54.3884 49.2995 90.1761 -0.122 0.268 -0.956 137 145 132
-53.6732 49.0069 89.0011 -0.749 -0.370 -0.549 98 104 94
-52.4691 48.7399 87.9077 -0.941 0.060 -0.334 76 84 78
-52.3471 48.7147 87.8044 -0.760 0.066 -0.646 81 91 88
-52.2019 48.7060 87.7650 -0.323 0.083 -0.943 86 95 90
-51.9945 48.4118 86.6025 -0.631 -0.004 -0.776 155 165 157
-51.6836 48.5180 87.0075 -0.679 0.515 -0.522 157 167 159
-42.1529 45.5289 74.9189 -0.470 0.767 -0.437 152 161 156
-20.9801 43.2791 65.2954 -0.129 0.416 -0.900 53 53 51
-19.9163 43.2426 65.1121 -0.339 0.396 -0.853 63 64 58
-19.4924 42.9995 64.1421 -0.480 -0.272 -0.834 85 86 80
-15.5616 42.8974 63.5944 -0.512 -0.338 -0.790 85 86 80
-15.2345 42.7800 63.1212 -0.498 -0.130 -0.857 99 98 93
-13.4971 42.8772 63.4376 0.267 -0.321 -0.909 86 83 76
-13.1554 42.8091 63.1577 -0.612 0.602 -0.513 82 82 74
-10.4918 42.6218 62.3225 0.138 -0.307 -0.941 115 115 105
-10.2163 42.6319 62.3519 0.179 -0.266 -0.947 119 119 110
-10.0244 42.6249 62.3170 0.030 -0.523 -0.852 90 89 85
-9.7521 42.6340 62.3428 0.073 -0.430 -0.900 93 92 90
-9.5079 42.6373 62.3467 -0.186 -0.402 -0.897 91 90 86
-9.3890 42.6152 62.2555 -0.656 0.090 -0.750 80 79 75
-8.7030 42.5689 62.0479 -0.015 -0.194 -0.981 68 69 64
-5.0985 42.4932 61.6157 -0.084 -0.174 -0.981 81 81 71
-4.5446 42.5068 61.6485 -0.115 0.022 -0.993 80 78 66
-4.4334 42.4824 61.5485 -0.403 0.285 -0.870 80 78 66
-4.2571 42.4702 61.4938 -0.244 -0.063 -0.968 112 109 100
0.1602 42.3712 60.9397 0.395 -0.194 -0.898 70 71 62
1.0134 42.3861 60.9664 -0.697 0.669 -0.260 62 64 53
2.7769 42.3770 60.8645 0.060 0.098 -0.993 68 70 60
2.9450 42.3611 60.7956 -0.227 -0.163 -0.960 68 70 58
4.8713 42.3725 60.7684 0.254 0.205 -0.945 75 79 65
5.2169 42.3852 60.8053 -0.234 0.586 -0.776 75 79 65
5.9727 42.2877 60.3943 -0.399 0.099 -0.912 97 99 86
7.1492 42.3013 60.4034 -0.605 -0.131 -0.785 69 72 53
-67.8625 55.3300 113.6248 0.219 0.633 -0.743 126 114 90
-67.6865 55.3560 113.7187 0.218 0.631 -0.744 119 106 80
-67.2769 55.5165 114.3280 -0.257 0.852 -0.456 94 82 56
-65.2291 52.2752 101.6028 0.490 -0.422 -0.763 70 76 66
-65.0854 52.2633 101.5505 0.439 -0.568 -0.696 77 83 76
-64.8336 50.5265 94.7668 -0.516 -0.794 -0.320 103 110 103
-62.1193 52.1119 100.8379 -0.846 0.073 -0.528 105 109 100
-60.5508 51.9235 100.0386 -0.113 -0.013 -0.994 21 32 30
-60.3778 51.9406 100.0981 -0.121 -0.387 -0.914 60 71 65
-60.2171 51.9433 100.1021 -0.217 -0.474 -0.853 95 104 101
-60.0920 51.9057 99.9505 -0.545 -0.361 -0.757 92 103 98
-59.9470 51.8905 99.8851 -0.529 -0.355 -0.771 63 78 68
-59.6649 51.5074 98.3794 -0.779 -0.434 -0.453 100 118 106
-59.5614 51.4497 98.1502 -0.738 -0.360 -0.570 189 209 197
-59.4303 51.4219 98.0362 -0.510 0.386 -0.769 217 238 223
-58.8846 51.3336 97.6695 -0.426 0.074 -0.901 172 198 181
-58.7403 51.3197 97.6093 -0.471 0.189 -0.861 179 203 186
-58.5778 51.3242 97.6202 -0.646 0.176 -0.743 184 203 188
-58.4981 51.2446 97.3064 -0.715 -0.011 -0.699 135 146 130
-58.3753 51.2090 97.1627 -0.493 -0.388 -0.779 80 85 70
-58.1323 51.1361 96.8683 -0.919 0.166 -0.357 68 72 58
-57.4456 50.7323 95.2651 -0.419 0.441 -0.794 128 128 116
-57.0260 50.5372 94.4871 -0.934 0.140 -0.328 127 125 112
-56.1608 50.0500 92.5514 -0.858 0.016 -0.514 118 116 101
-55.4903 49.9542 92.1502 -0.529 -0.063 -0.846 133 134 118
-55.0029 50.0989 92.6943 -0.599 0.367 -0.712 144 147 128
-54.9121 50.0426 92.4713 -0.483 0.415 -0.771 135 138 121
-54.8081 49.9977 92.2917 -0.831 0.256 -0.494 120 123 106
-54.6953 49.9603 92.1414 -0.803 0.296 -0.518 126 130 113
-54.4902 49.8695 91.7786 -0.971 -0.067 -0.229 108 116 101
-54.4304 49.7901 91.4666 -0.966 -0.080 -0.244 98 107 91
-54.3152 49.7558 91.3282 -0.891 -0.212 -0.401 102 111 94
-52.4872 48.8736 87.8124 -0.898 0.141 -0.416 90 98 92
-52.3596 48.8525 87.7247 -0.750 0.059 -0.659 99 109 106
-42.1412 45.7456 75.1874 -0.218 0.333 -0.917 152 161 156
-41.6007 45.6250 74.6950 -0.367 0.277 -0.888 149 158 153
-31.6234 44.2048 68.7457 0.370 -0.361 -0.856 143 148 144
-20.5602 43.4803 65.4646 -0.610 0.663 -0.434 66 66 64
-20.6310 43.4117 65.2001 -0.117 0.552 -0.826 63 63 61
-19.4912 43.1944 64.3056 -0.437 -0.064 -0.897 88 89 83
-19.3524 43.1788 64.2391 -0.437 -0.064 -0.897 88 89 83
-15.5280 43.0534 63.5926 -0.485 -0.349 -0.802 85 86 80
-15.4310 43.0273 63.4867 -0.672 -0.226 -0.705 83 86 79
-15.2737 43.0148 63.4315 -0.639 -0.267 -0.721 88 91 84
-13.0252 43.0352 63.4186 -0.686 0.382 -0.620 81 81 73
-12.9743 42.9986 63.2739 -0.550 0.641 -0.535 84 84 76
-10.2359 42.7796 62.3069 0.179 -0.266 -0.947 103 103 95
-10.1008 42.7610 62.2288 -0.028 -0.717 -0.696 88 87 83
-9.7779 42.7809 62.2931 0.086 -0.434 -0.897 76 75 71
-9.4879 42.7938 62.3316 -0.038 -0.386 -0.922 82 81 77
-9.3387 42.7779 62.2632 -0.489 -0.418 -0.765 89 88 83
-9.2016 42.7594 62.1857 -0.489 -0.418 -0.765 80 79 74
-9.1070 42.7324 62.0763 -0.476 0.221 -0.851 63 62 58
-8.6479 42.7327 62.0587 0.075 0.066 -0.995 69 70 65
-8.1569 42.7389 62.0627 0.016 0.141 -0.990 66 65 61
-5.7480 42.6611 61.6600 0.311 -0.151 -0.938 80 82 71
-5.0825 42.6518 61.5965 -0.108 -0.163 -0.981 85 87 76
-2.6779 42.3794 60.4350 -0.424 -0.328 -0.844 95 111 85
-2.4949 42.3238 60.2107 -0.430 -0.342 -0.835 96 109 88
5.9888 42.4549 60.3727 -0.407 0.134 -0.904 115 117 104
-65.3101 52.5315 101.9492 0.167 0.181 -0.969 69 75 63
-64.6610 52.1474 100.4317 -0.590 0.327 -0.738 96 106 98
-64.5295 52.1195 100.3174 -0.667 0.640 -0.381 100 109 104
-64.5845 51.4111 97.5748 -0.188 0.012 -0.982 102 111 106
-60.7478 52.0314 99.8069 -0.140 -0.280 -0.950 22 30 29
-60.3729 52.1004 100.0574 -0.143 -0.398 -0.906 108 119 115
-60.2183 52.0964 100.0349 -0.143 -0.398 -0.906 187 196 195
-60.0769 52.0772 99.9540 -0.347 -0.319 -0.882 193 203 200
-59.9488 52.0431 99.8161 -0.529 -0.355 -0.771 215 229 221
-59.6700 51.6547 98.2985 -0.785 -0.427 -0.449 192 210 198
-59.5619 51.6018 98.0886 -0.794 -0.423 -0.436 171 189 177
-59.3892 51.6186 98.1461 -0.532 0.388 -0.753 149 168 156
-59.2292 51.6212 98.1491 -0.517 0.403 -0.755 146 164 155
-59.0995 51.5916 98.0286 -0.547 0.397 -0.737 173 192 181
-58.8492 51.5234 97.7529 -0.395 0.250 -0.884 152 175 157
-58.4767 51.4193 97.3327 -0.724 0.108 -0.682 119 130 112
-58.3583 51.3791 97.1719 -0.416 -0.352 -0.839 100 106 90
-58.1222 51.2990 96.8506 -0.929 0.148 -0.340 98 102 87
-57.9873 51.1201 96.1515 -0.862 0.063 -0.503 100 102 88
-57.3102 50.7151 94.5514 -0.696 0.306 -0.649 121 122 108
-57.1732 50.6968 94.4743 -0.683 0.204 -0.701 126 124 111
-57.0286 50.6855 94.4243 -0.975 -0.117 -0.188 127 125 112
-56.7559 50.5044 93.7100 -0.936 0.137 -0.323 122 119 104
-56.6651 50.4450 93.4759 -0.911 0.083 -0.404 122 119 104
-56.1497 50.2089 92.5378 -0.858 0.016 -0.514 120 118 103
-55.4831 50.1097 92.1234 -0.517 -0.057 -0.854 138 139 121
-54.7798 50.1715 92.3315 -0.598 0.431 -0.676 121 124 105
-54.5637 50.0887 92.0009 -0.858 0.306 -0.413 98 105 89
-54.4655 50.0397 91.8066 -0.883 0.287 -0.371 95 104 87
-54.3834 49.9779 91.5633 -0.883 0.287 -0.371 100 109 92
-54.6398 49.6435 90.2792 -0.165 0.093 -0.982 110 119 102
-52.5591 49.0819 88.0092 -0.794 0.410 -0.448 93 98 90
-52.4966 49.0134 87.7410 -0.732 0.463 -0.500 107 115 109
-52.3575 49.0006 87.6853 -0.470 0.445 -0.762 132 143 138
-31.7596 44.3007 68.5481 0.459 -0.295 -0.838 143 148 144
-28.7939 44.7890 70.3079 0.436 -0.715 -0.547 45 42 37
-21.3214 43.6874 65.7037 0.532 -0.155 -0.833 41 40 38
-20.8078 43.6656 65.5966 -0.870 0.288 -0.401 55 55 53
-20.5107 43.6392 65.4809 -0.637 0.620 -0.458 64 64 62
-19.6165 43.5093 64.9372 -0.813 0.096 -0.574 91 92 86
-15.4537 43.1704 63.4375 -0.666 0.228 -0.710 98 99 93
-14.6717 43.1070 63.1566 -0.011 -0.121 -0.993 123 120 113
-14.1726 43.1230 63.1963 0.209 -0.115 -0.971 114 111 104
-10.1516 42.9021 62.1601 0.132 -0.512 -0.849 87 86 81
-9.3553 42.9269 62.2206 -0.254 -0.571 -0.780 94 94 87
-9.2536 42.9012 62.1165 -0.407 -0.567 -0.717 83 83 75
-8.5197 42.8652 61.9439 -0.015 0.178 -0.984 73 74 68
-5.7052 42.8245 61.6600 0.038 -0.368 -0.929 90 93 82
-5.0951 42.8509 61.7351 0.033 -0.353 -0.935 94 97 86
6.1529 42.6914 60.6133 -0.823 0.422 -0.380 78 80 69
6.1317 42.6432 60.4272 -0.613 -0.160 -0.773 87 89 76
6.3167 42.6292 60.3648 -0.361 -0.273 -0.892 77 79 65
-64.7490 52.1682 99.8743 -0.572 0.125 -0.811 95 104 99
-60.3740 52.2533 99.9904 -0.143 -0.398 -0.906 56 67 63
-60.2195 52.2494 99.9678 -0.143 -0.398 -0.906 147 156 155
-60.0640 52.2463 99.9483 -0.287 -0.348 -0.892 143 152 150
-59.9332 52.2150 99.8217 -0.497 -0.324 -0.805 177 189 182
-59.0782 51.7674 98.0564 -0.089 -0.310 -0.947 156 171 165
-58.9737 51.7111 97.8346 -0.736 0.284 -0.614 203 221 209
-58.8425 51.6834 97.7214 -0.700 0.235 -0.674 155 176 155
-58.7184 51.6483 97.5803 -0.700 0.235 -0.674 150 172 146
-58.5208 51.5269 97.1034 -0.856 -0.003 -0.518 120 132 110
-58.3545 51.5359 97.1297 -0.277 0.077 -0.958 113 120 102
-58.0661 51.5080 97.0086 -0.600 -0.265 -0.755 111 115 100
-57.6053 51.1840 95.7384 -0.310 0.097 -0.946 129 130 116
-56.6828 50.5786 93.3623 -0.912 0.164 -0.377 121 119 104
-56.3656 50.5830 93.3638 -0.946 -0.322 0.044 121 119 104
-56.2965 50.5047 93.0589 -0.813 -0.310 -0.492 121 119 104
-56.1429 50.3640 92.5095 -0.923 -0.041 -0.383 121 119 104
-55.6430 50.2559 92.0690 -0.907 -0.120 -0.403 138 139 123
-55.4969 50.2472 92.0283 -0.295 0.065 -0.953 145 146 130
-55.1177 50.4368 92.7402 -0.167 -0.522 -0.837 151 154 138
-54.6474 50.3006 92.1930 -0.844 0.255 -0.472 99 102 86
-54.5554 50.2458 91.9776 -0.867 0.287 -0.406 91 98 83
-54.4513 50.2013 91.8013 -0.885 0.270 -0.379 101 109 95
-54.3606 50.1462 91.5847 -0.834 0.433 -0.342 120 128 114
-54.1985 50.0217 91.0973 -0.764 0.374 -0.526 141 152 137
-52.5140 49.2618 88.0890 -0.756 0.428 -0.495 140 146 138
-52.4202 49.2156 87.9068 -0.762 0.419 -0.494 153 162 155
-52.3039 49.1861 87.7876 -0.506 0.459 -0.730 154 165 159
-52.4596 48.9604 86.9256 -0.462 0.178 -0.869 160 167 163
-45.5180 47.2113 79.8538 -0.907 -0.330 0.262 137 143 139
-31.6970 44.4611 68.5932 0.391 -0.338 -0.856 143 148 144
-22.9814 43.5506 64.6650 -0.357 -0.486 -0.798 42 41 39
-20.7623 43.8237 65.6093 -0.848 0.401 -0.348 56 56 54
-19.9323 43.6775 65.0062 -0.204 -0.260 -0.944 73 74 68
-15.6634 43.3676 63.6060 -0.076 -0.014 -0.997 131 132 126
-14.8956 43.2529 63.1272 -0.082 -0.139 -0.987 128 125 118
-14.6551 43.2594 63.1404 -0.028 -0.218 -0.975 127 124 117
-14.5006 43.2462 63.0821 0.036 -0.427 -0.903 125 122 115
-14.2435 43.2561 63.1080 -0.246 -0.465 -0.850 112 109 102
-14.0928 43.2419 63.0461 -0.056 -0.428 -0.902 106 103 96
-13.1632 43.2575 63.0610 0.064 -0.509 -0.858 77 77 69
-12.6127 43.3314 63.3192 -0.633 0.579 -0.515 78 78 70
-11.3484 43.0350 62.1165 -0.496 -0.287 -0.820 93 92 87
-6.6734 42.9267 61.4731 0.059 -0.423 -0.904 133 137 122
-5.1333 42.9992 61.6778 0.033 -0.353 -0.935 87 90 79
-5.0174 42.9757 61.5815 -0.028 -0.318 -0.948 77 79 68
1.4621 42.8572 60.8118 0.322 0.296 -0.899 64 66 55
1.7994 42.8719 60.8520 0.237 0.205 -0.950 72 74 63
1.5963 42.7907 60.5491 -0.776 -0.091 -0.624 74 75 66
5.1542 42.6882 59.9820 -0.925 0.086 -0.371 77 79 68
-66.5036 53.6175 104.8783 -0.784 -0.342 -0.517 100 101 87
-66.4075 53.5196 104.4987 -0.869 -0.259 -0.420 105 106 92
-65.6455 52.7783 101.6219 0.154 0.356 -0.922 82 86 72
-64.7672 52.5092 100.5465 0.351 -0.811 -0.468 98 109 101
-63.3158 51.6163 97.0538 -0.405 0.854 -0.326 106 104 90
-63.2457 51.5145 96.6604 -0.417 0.856 -0.304 105 102 84
-63.3441 51.1977 95.4531 -0.353 0.843 -0.406 102 99 80
-62.1484 51.3964 96.1514 -0.392 -0.805 -0.446 113 111 96
-62.0099 51.3829 96.0924 -0.387 -0.804 -0.450 87 86 67
-61.8815 51.3572 95.9874 -0.392 -0.805 -0.446 23 25 10
-60.2226 52.4000 99.8924 -0.240 -0.484 -0.842 91 99 100
-60.0715 52.3920 99.8540 -0.240 -0.484 -0.842 122 130 129
-59.9326 52.3701 99.7632 -0.499 -0.333 -0.800 163 174 169
-59.0464 51.9545 98.1262 -0.514 -0.473 -0.715 127 140 137
-58.9592 51.8794 97.8344 -0.699 0.228 -0.678 208 224 215
-58.8348 51.8445 97.6942 -0.699 0.228 -0.678 162 181 161
-58.6950 51.8258 97.6154 -0.690 0.241 -0.683 138 158 130
-58.5088 51.6918 97.0929 -0.872 -0.078 -0.483 112 125 101
-58.3105 51.7337 97.2431 -0.069 0.045 -0.997 110 118 99
-57.6117 51.3295 95.6598 -0.332 0.326 -0.885 130 131 115
-57.4631 51.3211 95.6201 0.116 0.179 -0.977 137 138 122
-57.3005 51.3262 95.6310 0.114 0.192 -0.975 129 130 116
-56.6780 50.7326 93.3266 -0.904 0.307 -0.298 117 115 102
-56.2878 50.6621 93.0367 -0.811 -0.302 -0.502 128 126 113
-55.4801 50.4108 92.0327 -0.296 0.071 -0.952 136 136 123
-55.1302 50.5767 92.6495 -0.163 -0.468 -0.869 138 140 127
-54.9943 50.5580 92.5709 -0.026 -0.295 -0.955 136 138 126
-54.6033 50.4878 92.2821 -0.821 0.316 -0.476 87 90 77
-54.4171 50.3797 91.8586 -0.827 0.439 -0.352 120 128 116
-54.3329 50.3189 91.6214 -0.809 0.478 -0.343 135 143 131
-51.1317 48.2056 83.3670 -0.681 0.531 -0.504 150 156 152
-19.8155 43.8536 65.0842 -0.084 -0.771 -0.632 73 74 68
-17.5992 43.6477 64.1808 -0.009 -0.526 -0.851 87 90 83
-17.2906 43.6728 64.2607 -0.276 -0.732 -0.622 103 106 99
-16.6766 43.6713 64.2233 0.061 -0.596 -0.801 101 102 96
-16.5549 43.6507 64.1380 -0.079 0.704 -0.706 100 103 96
-16.2060 43.5850 63.8686 0.071 0.658 -0.750 101 104 97
-16.1619 43.5461 63.7173 -0.184 0.645 -0.742 105 106 100
-15.6799 43.5120 63.5619 -0.148 0.083 -0.986 105 106 100
-15.3914 43.5305 63.6175 -0.533 0.438 -0.724 107 108 102
-14.2852 43.3955 63.0437 -0.246 -0.465 -0.850 101 101 93
-13.3848 43.5030 63.4082 0.433 -0.130 -0.892 86 86 78
-13.1000 43.5187 63.4534 0.407 -0.120 -0.906 78 78 70
-12.7857 43.5408 63.5217 -0.597 0.288 -0.749 74 74 66
-12.7130 43.5084 63.3941 -0.628 0.246 -0.739 74 74 66
-10.5019 43.1778 62.0139 -0.521 0.027 -0.853 73 72 67
-8.2170 43.1863 61.9277 0.279 -0.254 -0.926 73 74 68
-6.2207 43.2650 62.1251 0.429 0.009 -0.903 132 139 121
-5.1791 43.1459 61.6152 0.048 -0.336 -0.940 80 83 72
-5.0621 43.1225 61.5198 -0.089 -0.159 -0.983 69 72 61
2.2477 43.1136 61.1058 0.303 -0.003 -0.953 81 83 72
1.6551 42.9618 60.5556 -0.778 -0.099 -0.620 77 78 69
2.0081 42.8440 60.0864 0.314 -0.321 -0.894 87 87 75
6.9621 42.9324 60.1675 -0.012 0.028 -1.000 66 68 54
-66.5559 53.6778 104.4562 -0.925 -0.258 -0.277 101 102 88
-66.4431 53.6091 104.1886 -0.924 -0.230 -0.306 102 103 89
-66.1004 53.1653 102.4817 -0.798 0.508 -0.324 68 70 56
-65.9858 53.1059 102.2492 -0.757 0.572 -0.316 79 81 67
-65.2594 51.0900 94.5410 -0.758 0.254 -0.600 104 113 108
-63.4137 51.6337 96.5069 -0.326 0.843 -0.428 93 92 78
-63.2550 51.2679 95.1067 -0.407 0.830 -0.381 93 90 73
-63.1505 51.2147 94.8987 -0.092 0.690 -0.718 94 91 74
-61.9941 51.5484 96.1039 0.273 -0.126 -0.954 105 104 85
-61.8326 51.5625 96.1482 0.273 -0.126 -0.954 49 51 36
-60.1325 52.4761 99.5293 -0.941 0.177 -0.289 125 132 132
-60.0536 52.3864 99.1836 -0.933 0.190 -0.306 168 179 174
-59.9362 52.3411 99.0049 -0.938 0.156 -0.309 169 184 175
-59.7408 52.3840 99.1572 -0.699 0.176 -0.693 169 185 174
-59.6114 52.3523 99.0293 -0.708 0.171 -0.685 167 183 173
-58.9407 52.0521 97.8503 -0.639 0.043 -0.768 206 220 211
-58.8089 52.0248 97.7391 -0.639 0.043 -0.768 174 191 172
-58.6718 52.0031 97.6491 -0.694 0.225 -0.684 122 141 112
-58.5404 51.8114 96.9125 -0.932 -0.163 -0.325 101 114 88
-58.4120 51.7819 96.7932 -0.849 -0.177 -0.498 105 114 94
-58.2740 51.7623 96.7109 -0.294 -0.415 -0.861 104 111 93
-57.5958 51.4968 95.6637 -0.349 0.327 -0.878 137 140 123
-57.4386 51.4969 95.6551 0.116 0.179 -0.977 138 139 123
-56.6773 51.1732 94.3816 -0.964 -0.007 -0.267 113 114 100
-56.6655 51.0381 93.8673 -0.967 0.060 -0.248 110 111 97
-56.6011 50.9531 93.5404 -0.967 0.050 -0.249 110 111 97
-55.6582 50.5405 91.9187 -0.895 -0.113 -0.432 128 128 116
-55.4668 50.5714 92.0257 -0.305 -0.022 -0.952 132 132 122
-55.1274 50.7295 92.6081 -0.177 -0.503 -0.846 131 133 123
-54.9854 50.7160 92.5491 -0.058 -0.459 -0.887 130 132 123
-54.8315 50.7127 92.5278 -0.090 -0.401 -0.911 119 121 112
-54.6578 50.7259 92.5684 -0.591 0.317 -0.742 107 109 98
-54.5407 50.6911 92.4295 -0.562 0.370 -0.739 116 119 108
-54.4757 50.6127 92.1279 -0.847 0.292 -0.444 127 133 125
-54.3762 50.5639 91.9366 -0.840 0.406 -0.359 131 138 130
-53.2812 50.1712 90.3823 -0.553 0.347 -0.758 119 129 120
-53.2879 50.0423 89.8923 -0.170 0.242 -0.955 127 134 126
-53.1459 50.0303 89.8386 -0.633 0.215 -0.744 134 141 133
-20.3363 44.1240 65.5539 -0.967 0.032 -0.252 58 57 53
-19.6043 44.0030 65.0531 -0.138 -0.507 -0.851 82 82 74
-16.6657 43.8222 64.2025 0.150 -0.448 -0.881 102 103 97
-16.1748 43.8910 64.4368 -0.005 0.702 -0.712 110 111 105
-16.1072 43.8069 64.1131 -0.064 0.732 -0.678 116 117 111
-15.9206 43.8017 64.0830 0.081 0.653 -0.753 116 117 111
-15.8177 43.7266 63.7918 -0.409 0.568 -0.714 106 107 101
-13.0383 43.6344 63.2870 -0.415 0.385 -0.824 80 80 72
-12.9030 43.6163 63.2105 -0.415 0.385 -0.824 81 81 73
-13.5214 43.4279 62.5283 -0.524 0.073 -0.848 81 81 73
-12.4924 43.6115 63.1697 -0.411 0.470 -0.781 81 81 73
-11.8850 43.5532 62.9143 -0.896 -0.005 -0.444 87 86 81
-11.8597 43.5105 62.7505 -0.880 0.007 -0.476 84 83 78
-10.5242 43.3240 61.9669 -0.588 -0.028 -0.808 68 67 61
-8.4719 43.3806 62.0686 -0.429 0.605 -0.671 72 73 65
-8.1863 43.3458 61.9202 0.269 -0.246 -0.931 68 69 63
-5.0197 43.2865 61.5191 -0.199 0.178 -0.964 63 65 54
1.1336 43.2106 60.8893 0.364 -0.378 -0.851 82 84 73
1.3918 43.2119 60.8798 0.478 -0.189 -0.858 100 102 91
1.8176 43.1518 60.6276 -0.818 -0.062 -0.571 77 78 70
7.0266 43.4295 61.3952 -0.815 0.557 -0.160 88 92 77
7.4604 43.0913 60.0847 -0.218 0.205 -0.954 74 76 63
-66.4140 53.8094 104.2973 -0.940 0.126 -0.316 100 101 87
-66.2417 53.5836 103.4337 -0.994 -0.044 -0.097 77 79 65
-66.1683 53.4521 102.9320 -0.990 -0.113 -0.079 71 73 59
-66.1014 53.3121 102.3991 -0.989 -0.091 -0.118 71 73 59
-65.2402 53.0020 101.1758 -0.421 0.593 -0.687 100 107 98
-65.3315 51.3305 94.8623 -0.870 0.038 -0.491 104 113 108
-65.3200 51.1424 94.1509 -0.702 0.289 -0.651 104 113 108
-63.1732 51.7070 96.1585 -0.519 0.792 -0.321 94 91 74
-61.7976 51.7516 96.2462 0.436 0.100 -0.894 84 86 71
-61.5987 51.8099 96.4549 0.442 0.041 -0.896 25 28 23
-60.3494 52.7439 99.9121 -0.778 0.251 -0.576 24 33 30
-60.0651 52.7078 99.7588 -0.233 -0.282 -0.931 78 85 86
-59.9826 52.6212 99.4266 -0.925 0.128 -0.357 182 193 188
-59.0617 52.2442 97.9473 -0.058 -0.120 -0.991 57 72 68
-58.9293 52.2174 97.8381 -0.417 -0.206 -0.885 168 181 173
-58.7905 52.1975 97.7546 -0.408 -0.262 -0.875 167 184 166
-58.6542 52.1749 97.6611 -0.747 -0.015 -0.665 108 127 98
-58.0795 51.7923 96.1812 -0.546 -0.410 -0.731 126 133 115
-57.8556 51.7019 95.8263 -0.407 -0.075 -0.910 126 133 115
-57.5498 51.6940 95.7783 -0.785 0.336 -0.521 144 147 130
-56.5455 51.5974 95.3537 -0.448 0.187 -0.874 120 121 107
-56.6161 51.2346 93.9866 -0.826 -0.289 -0.484 107 108 94
-56.5046 51.1927 93.8214 -0.826 -0.289 -0.484 103 104 90
-55.6671 50.6814 91.8392 -0.727 0.186 -0.661 128 128 116
-55.3849 50.7921 92.2413 -0.753 0.371 -0.544 132 132 122
-55.1581 50.8531 92.4585 -0.145 -0.526 -0.838 131 132 124
-55.0057 50.8489 92.4336 -0.067 -0.453 -0.889 132 133 125
-54.8397 50.8562 92.4514 -0.092 -0.400 -0.912 134 135 127
-54.6385 50.8932 92.5796 -0.550 0.378 -0.745 121 123 112
-54.5120 50.8662 92.4698 -0.562 0.369 -0.740 128 131 120
-54.3873 50.8377 92.3548 -0.576 0.367 -0.731 132 139 130
-54.2587 50.8126 92.2524 -0.589 0.436 -0.680 130 137 130
-54.6708 50.3370 90.4785 -0.445 0.135 -0.885 128 138 130
-53.3838 50.3644 90.5066 -0.753 0.170 -0.636 133 143 134
-53.2775 50.3235 90.3455 -0.752 0.166 -0.638 130 140 131
-53.0116 50.1609 89.7153 -0.792 0.216 -0.571 145 155 146
-46.2557 47.4080 78.9105 -0.787 -0.369 -0.495 141 151 143
-46.2363 47.3327 78.6246 -0.896 -0.080 -0.437 151 158 151
-46.1215 47.3099 78.5315 -0.840 -0.173 -0.513 153 160 153
-25.3301 43.9540 64.6204 -0.376 -0.392 -0.840 30 31 26
-25.0143 43.9382 64.5421 -0.147 -0.458 -0.876 29 30 25
-24.8339 43.9365 64.5250 -0.196 -0.428 -0.883 29 30 25
-24.7259 43.9145 64.4354 -0.236 -0.517 -0.823 32 33 28
-24.5643 43.9074 64.3991 -0.226 -0.270 -0.936 33 34 29
-19.9938 44.2040 65.2509 -0.311 0.361 -0.879 103 103 95
-16.7535 43.9489 64.0960 0.150 -0.451 -0.880 123 124 118
-15.9206 44.1022 64.6263 -0.009 0.706 -0.708 122 123 117
-15.6769 44.0095 64.2614 0.052 0.734 -0.677 113 114 108
-13.1302 43.7637 63.1824 -0.261 0.447 -0.855 87 87 79
-11.9557 43.6398 62.6448 -0.741 -0.115 -0.662 88 87 82
-10.4773 43.4851 61.9726 -0.441 -0.016 -0.897 68 68 61
-8.2143 43.5882 62.2293 -0.340 0.473 -0.813 56 57 49
-8.1151 43.4665 61.7632 -0.580 0.116 -0.807 65 66 61
-5.1490 43.5101 61.7535 0.363 -0.072 -0.929 61 64 53
-5.2025 43.4523 61.5379 -0.197 0.171 -0.965 61 64 53
-5.4936 43.3003 60.9808 -0.757 -0.327 -0.566 57 59 48
-1.6613 43.2161 60.4365 -0.485 -0.183 -0.855 95 99 88
-1.5477 43.1918 60.3379 -0.641 -0.021 -0.767 80 82 74
-1.4347 43.1674 60.2390 -0.604 -0.012 -0.797 67 72 62
1.3540 43.3658 60.8247 0.478 -0.189 -0.858 87 89 76
2.2629 43.4404 61.0533 0.286 -0.144 -0.947 76 78 67
5.1229 43.4006 60.7345 0.321 -0.235 -0.917 79 81 67
5.2311 43.3737 60.6263 0.325 0.059 -0.944 78 82 67
6.9991 43.5918 61.3468 0.129 0.333 -0.934 93 96 79
-66.7071 53.9802 104.3137 -0.692 0.646 -0.323 93 94 80
-66.5811 53.9339 104.1319 -0.666 0.673 -0.321 87 88 74
-66.3025 53.8888 103.9449 -0.948 0.180 -0.264 74 76 62
-66.2165 53.7757 103.5145 -0.963 0.204 -0.174 74 76 62
-65.5207 52.2613 97.7814 -0.123 0.059 -0.991 102 112 104
-65.4690 52.1190 97.2434 0.099 0.045 -0.994 103 110 102
-61.9800 51.8585 96.0470 0.427 0.125 -0.896 98 97 80
-60.3372 52.9122 99.9036 -0.764 0.256 -0.593 23 32 30
-60.0489 52.8806 99.7670 -0.827 0.205 -0.524 58 65 65
-59.1574 52.4642 98.1471 -0.479 -0.094 -0.873 44 60 56
-59.0346 52.4267 97.9982 -0.483 -0.110 -0.869 34 49 45
-58.9128 52.3882 97.8459 -0.439 -0.198 -0.876 94 110 102
-58.7660 52.3767 97.7936 -0.113 -0.225 -0.968 112 129 112
-58.6327 52.3508 97.6883 -0.741 0.009 -0.671 78 97 70
-58.0877 51.9356 96.0943 -0.500 -0.401 -0.767 117 124 106
-57.8178 51.8917 95.9122 -0.246 -0.150 -0.958 115 122 104
-57.4306 52.1231 96.7576 -0.943 0.316 -0.098 116 119 102
-57.3882 51.8504 95.7303 -0.156 0.151 -0.976 129 130 114
-57.2450 51.8364 95.6689 -0.140 0.127 -0.982 128 129 113
-57.0937 51.8303 95.6367 -0.152 0.135 -0.979 121 122 106
-56.5158 51.7782 95.4046 -0.321 0.391 -0.863 120 121 107
-56.6242 51.5253 94.4613 -0.868 0.040 -0.495 121 122 108
-56.4054 51.2899 93.5633 -0.660 0.664 -0.351 104 105 91
-56.3285 51.0732 92.7442 -0.744 0.566 -0.354 125 126 112
-55.3525 50.9701 92.2961 -0.678 0.477 -0.560 132 132 121
-53.3849 50.5129 90.4555 -0.789 0.220 -0.573 141 151 142
-53.2790 50.4716 90.2937 -0.789 0.220 -0.573 142 154 144
-53.1759 50.4283 90.1245 -0.513 -0.318 -0.797 149 161 151
-52.8401 50.3205 89.6985 -0.886 -0.043 -0.461 160 170 162
-45.8589 47.7683 79.6742 -0.590 0.423 -0.688 142 152 144
-45.8025 47.7121 79.4594 -0.457 0.436 -0.775 148 158 150
-41.4167 46.6183 75.0765 -0.945 -0.232 -0.231 152 158 156
-25.4675 44.4295 65.8585 -0.001 -0.490 -0.872 35 36 31
-25.1374 44.0439 64.3889 -0.668 0.319 -0.672 29 30 25
-24.9788 44.0363 64.3505 -0.746 0.129 -0.653 29 30 25
-24.7971 44.0351 64.3348 -0.575 -0.550 -0.606 28 29 24
-19.1101 44.2173 64.6650 -0.101 0.590 -0.801 106 107 101
-18.9109 44.1142 64.2652 -0.477 -0.009 -0.879 100 102 97
-16.7938 44.0870 64.0307 0.149 -0.456 -0.877 123 124 118
-15.5484 44.3437 64.9177 -0.005 0.695 -0.719 114 115 109
-15.7660 44.1878 64.3456 -0.150 0.550 -0.821 96 97 91
-15.7206 44.1481 64.1936 -0.075 0.447 -0.892 94 95 89
-15.5906 44.1292 64.1143 -0.672 0.588 -0.451 94 95 89
-14.0599 43.8948 63.1383 0.079 0.455 -0.887 100 100 92
-13.6414 43.9433 63.2945 0.335 0.186 -0.924 102 102 94
-13.5492 43.9153 63.1836 0.214 0.282 -0.935 98 98 90
-11.8639 43.8600 62.8705 -0.051 -0.683 -0.729 104 103 98
-11.6616 43.8568 62.8460 -0.034 -0.688 -0.725 90 89 84
-11.6554 43.8094 62.6674 -0.773 -0.277 -0.570 82 81 77
-11.4007 43.7693 62.5008 -0.579 -0.051 -0.814 81 80 75
-11.1516 43.7279 62.3300 -0.493 0.466 -0.735 95 94 89
-10.9882 43.7159 62.2746 -0.143 0.164 -0.976 79 78 73
-10.3732 43.7069 62.2026 -0.124 0.645 -0.754 70 69 64
-10.3171 43.6711 62.0645 -0.491 -0.075 -0.868 71 70 64
-9.1080 43.7420 62.2554 0.341 0.110 -0.934 100 100 90
-8.7601 43.7690 62.3351 0.238 0.222 -0.946 76 76 66
-8.4816 43.7807 62.3620 0.231 0.151 -0.961 74 74 66
-8.2245 43.7877 62.3722 0.199 0.191 -0.961 67 68 60
-8.0274 43.7817 62.3375 -0.292 0.381 -0.878 67 68 61
-7.9843 43.6471 61.8290 -0.610 0.094 -0.787 68 69 63
-5.2006 43.4671 60.9791 -0.766 -0.265 -0.585 58 58 48
2.2807 43.6057 61.0335 0.286 -0.144 -0.947 70 72 61
1.6205 43.4371 60.4414 -0.801 -0.141 -0.582 71 73 63
7.1097 43.7785 61.3818 -0.765 0.286 -0.577 94 97 80
7.0080 43.7136 61.1445 -0.848 0.507 -0.154 83 85 71
