ply
format ascii 1.0
element vertex 869
property float x
property float y
property float z
property float nx
property float ny
property float nz
property uchar diffuse_red
property uchar diffuse_green
property uchar diffuse_blue
end_header
-2.6327 -1.9903 67.4781 -0.338 -0.281 -0.898 135 174 176
-2.4180 -1.9999 67.4122 -0.334 -0.285 -0.898 134 171 175
-3.0242 -0.5613 81.2896 -0.622 -0.255 -0.741 113 137 147
-2.6339 -0.6008 80.9560 -0.278 -0.285 -0.917 84 106 117
-2.4133 -0.6093 80.9022 0.044 -0.299 -0.953 73 93 102
-2.0136 -0.5861 81.1772 0.861 0.149 -0.487 25 45 52
2.0370 -0.6331 81.2354 -0.456 -0.147 -0.877 93 119 142
2.5052 -0.6587 81.0466 0.144 -0.635 -0.759 63 86 107
2.6761 -0.6587 81.0679 0.160 -0.631 -0.759 66 89 110
2.8725 -0.6640 81.0413 0.548 -0.211 -0.810 69 92 115
4.8744 -0.9740 78.2884 -0.069 -0.668 -0.741 86 111 131
5.1064 -0.9881 78.1808 0.437 -0.698 -0.567 88 113 133
13.7232 -1.0065 79.0953 0.552 -0.610 -0.569 177 214 233
13.8288 -0.9927 79.2426 0.533 -0.561 -0.634 176 212 234
20.7622 -0.5301 84.6086 -0.807 -0.393 -0.442 185 217 232
22.1486 -0.6824 83.3067 0.130 -0.410 -0.903 161 190 203
22.5481 -0.7131 83.0599 0.137 -0.532 -0.835 143 167 179
22.6776 -0.7028 83.1762 0.137 -0.578 -0.805 138 162 174
24.9452 -0.6045 84.4173 -0.298 -0.410 -0.862 105 117 129
25.4185 -0.6049 84.4734 0.374 -0.111 -0.921 79 92 101
25.5787 -0.6061 84.4818 0.374 -0.025 -0.927 90 103 112
26.2353 -0.6187 84.4436 0.220 -0.863 -0.455 96 109 118
26.3760 -0.6117 84.5289 0.358 -0.813 -0.459 97 107 117
26.6337 -0.5870 84.8008 0.290 -0.698 -0.654 94 105 111
26.7950 -0.5891 84.8016 0.309 -0.720 -0.621 78 93 96
26.9305 -0.5795 84.9118 0.269 -0.646 -0.714 66 84 85
27.7941 -0.5437 85.3679 -0.149 -0.370 -0.917 124 144 146
27.9608 -0.5485 85.3428 -0.149 -0.370 -0.917 126 149 154
28.8686 -0.4540 86.3744 0.419 -0.651 -0.633 141 165 175
31.5073 -0.3451 87.7657 0.679 -0.379 -0.629 173 198 204
31.6637 -0.3443 87.7929 0.539 -0.490 -0.686 174 202 206
31.8476 -0.3604 87.6602 0.188 -0.809 -0.556 172 197 201
32.0105 -0.3640 87.6463 -0.474 -0.579 -0.663 185 210 215
33.0311 -0.3130 88.2701 0.466 -0.663 -0.586 206 236 244
33.2116 -0.3287 88.1410 0.418 -0.743 -0.522 200 230 240
33.3483 -0.3150 88.2912 0.076 -0.797 -0.599 204 233 246
33.4931 -0.3066 88.3911 -0.035 -0.699 -0.714 209 238 253
33.9885 -0.3242 88.2832 0.299 -0.816 -0.495 168 197 218
34.2411 -0.2802 88.7416 -0.173 -0.795 -0.581 172 202 226
34.6890 -0.2630 88.9658 0.258 -0.844 -0.471 159 183 209
34.8130 -0.2376 89.2274 0.132 -0.963 -0.235 134 157 185
35.1405 -0.2478 89.1701 0.181 -0.875 -0.449 115 138 166
35.2477 -0.2081 89.5685 0.218 -0.907 -0.361 119 142 166
35.4043 -0.2074 89.5957 0.182 -0.900 -0.397 151 180 200
35.5863 -0.2275 89.4235 0.316 -0.876 -0.364 152 186 203
37.3848 -0.1500 90.4036 0.726 -0.535 -0.431 141 174 189
37.8137 -0.1066 90.8783 0.684 -0.591 -0.427 140 162 176
38.2491 -0.0668 91.3203 0.206 -0.724 -0.658 153 172 187
38.5560 -0.0568 91.4558 0.688 -0.528 -0.498 109 131 145
38.7911 0.0366 92.3921 0.777 -0.608 -0.166 161 192 205
38.9831 -0.0020 92.0416 0.880 -0.401 -0.254 167 201 213
39.0337 0.1280 93.3088 0.411 -0.805 -0.428 161 194 209
39.7239 0.0646 92.7811 -0.241 -0.890 -0.387 201 235 247
39.8630 0.0912 93.0569 -0.595 -0.758 -0.268 197 233 242
41.5806 0.1461 93.8076 -0.538 -0.211 -0.816 90 107 115
41.7349 0.1551 93.9143 -0.112 0.481 -0.870 103 120 128
42.0625 0.1379 93.7895 -0.054 0.319 -0.946 83 100 107
42.2254 0.1301 93.7342 -0.054 0.312 -0.949 85 102 109
43.9621 0.1409 94.0587 0.702 -0.452 -0.550 109 129 136
44.1148 0.1572 94.2366 0.717 -0.410 -0.564 110 129 136
44.2497 0.2337 94.9961 0.563 -0.562 -0.606 111 130 136
45.6720 0.2741 95.5676 -0.454 -0.497 -0.739 127 146 152
45.8322 0.2652 95.5019 -0.224 -0.396 -0.891 123 142 148
46.1470 0.2875 95.7578 0.706 -0.131 -0.696 129 148 154
46.4650 0.2824 95.7485 0.611 0.513 -0.603 112 133 136
46.6232 0.2884 95.8271 0.718 0.502 -0.482 108 129 132
46.7801 0.3218 96.1712 0.600 0.542 -0.588 107 128 131
46.9381 0.3551 96.5146 0.698 0.395 -0.598 105 126 129
47.7364 0.3983 97.0341 0.036 -0.811 -0.584 111 132 135
50.5039 0.6105 99.4441 0.660 -0.683 -0.313 111 132 137
50.6746 0.6390 99.7416 0.660 -0.683 -0.313 127 148 153
51.5282 0.7526 100.9521 0.371 -0.487 -0.790 99 125 126
51.6914 0.7530 100.9768 0.374 -0.469 -0.800 108 134 135
51.8421 0.7249 100.7233 -0.052 -0.131 -0.990 111 137 138
52.1809 0.7552 101.0598 -0.195 -0.645 -0.739 120 144 146
52.3527 0.7742 101.2664 -0.067 -0.800 -0.596 104 128 130
52.5191 0.7813 101.3564 -0.051 -0.796 -0.603 87 108 111
52.6813 0.7800 101.3639 0.232 -0.878 -0.418 77 98 99
53.8697 0.8621 102.3114 -0.381 -0.721 -0.579 117 138 143
55.8294 0.4799 98.8522 -0.258 -0.274 -0.927 113 123 110
56.1573 0.4978 99.0678 -0.266 -0.339 -0.902 123 136 127
56.3165 0.5012 99.1201 0.006 -0.672 -0.741 116 129 120
56.4772 0.5060 99.1876 0.221 -0.370 -0.902 90 103 94
56.6449 0.5186 99.3312 0.510 -0.733 -0.450 82 95 85
57.2119 0.6213 100.3992 0.850 -0.416 -0.324 123 135 121
57.4053 0.6581 100.7807 0.848 -0.410 -0.335 110 122 108
58.5166 0.8124 102.4184 0.401 -0.892 -0.207 105 117 107
-11.2916 0.2238 86.1640 -0.388 -0.845 -0.368 72 101 109
-2.6006 -0.4489 80.8679 -0.273 -0.261 -0.926 79 102 113
-2.3823 -0.4571 80.8179 0.086 -0.317 -0.944 65 87 99
0.4819 -0.4747 81.0213 0.734 0.454 -0.505 99 126 147
2.5618 -0.7894 78.2865 0.189 -0.647 -0.739 94 122 143
3.1543 -0.8086 78.1797 0.577 -0.438 -0.689 103 131 152
3.3962 -0.8243 78.0620 0.680 -0.521 -0.516 106 134 155
3.4949 -0.8107 78.2045 0.647 -0.548 -0.530 111 139 160
3.6050 -0.7993 78.3271 0.647 -0.548 -0.530 111 139 160
3.7056 -0.7859 78.4679 0.652 -0.553 -0.520 109 137 158
3.9222 -0.7966 78.3945 0.105 -0.592 -0.799 105 133 151
4.5420 -0.8227 78.2251 -0.420 -0.758 -0.499 105 133 152
4.8952 -0.8625 77.8913 -0.395 -0.802 -0.447 102 131 149
4.9287 -0.8350 78.1580 -0.069 -0.668 -0.741 95 124 142
5.1730 -0.8521 78.0267 0.486 -0.682 -0.547 92 123 138
8.0440 -0.9488 77.4756 -0.337 -0.804 -0.490 179 214 233
12.3162 -0.6984 80.4196 -0.237 -0.945 -0.224 193 230 246
22.1226 -0.5207 83.3879 0.129 -0.484 -0.865 161 189 202
22.5102 -0.5473 83.1837 -0.067 -0.622 -0.780 151 175 187
22.6559 -0.5429 83.2450 -0.077 -0.662 -0.746 145 167 180
22.8580 -0.5598 83.1101 -0.006 -0.562 -0.827 158 182 194
24.4979 -0.5260 83.6454 0.569 -0.378 -0.730 80 94 106
24.5570 -0.4860 84.0346 0.448 -0.540 -0.712 72 86 98
24.7015 -0.4808 84.1034 -0.269 -0.398 -0.877 84 97 106
24.8471 -0.4759 84.1684 0.374 -0.479 -0.794 100 112 124
25.4516 -0.4658 84.3435 0.089 -0.616 -0.782 82 95 104
25.6094 -0.4661 84.3607 0.117 -0.605 -0.787 83 93 103
26.2473 -0.4710 84.3973 0.073 -0.625 -0.777 86 96 106
26.4281 -0.4818 84.3169 0.424 -0.788 -0.446 88 98 108
26.7627 -0.4208 84.9430 0.250 0.224 -0.942 84 98 103
26.9590 -0.4389 84.7953 0.269 -0.646 -0.714 77 95 97
27.8156 -0.3999 85.2796 -0.024 -0.213 -0.977 81 101 103
28.1288 -0.3999 85.3197 0.492 0.020 -0.870 76 102 111
28.4163 -0.3873 85.4773 0.367 0.034 -0.930 84 109 116
28.5492 -0.3755 85.6073 0.683 -0.157 -0.714 98 123 130
31.4084 -0.2224 87.4396 0.337 0.488 -0.805 151 176 183
31.5264 -0.1985 87.6830 0.711 -0.303 -0.635 153 178 184
31.6856 -0.1996 87.6936 0.614 -0.383 -0.690 145 173 176
31.8663 -0.2141 87.5786 0.050 -0.569 -0.821 145 170 174
32.0663 -0.2411 87.3466 -0.351 -0.692 -0.630 150 175 179
32.1814 -0.2148 87.6126 -0.262 0.454 -0.851 159 187 190
33.4838 -0.1406 88.4897 0.595 -0.107 -0.797 210 240 253
34.0754 -0.1137 88.8235 0.510 -0.190 -0.839 187 219 238
34.6093 -0.1610 88.4407 0.264 -0.747 -0.611 173 200 225
35.1737 -0.1130 88.9723 0.201 -0.852 -0.484 153 181 210
35.3009 -0.0892 89.2162 0.213 -0.927 -0.308 135 161 189
35.4728 -0.1014 89.1216 0.114 -0.958 -0.262 144 174 199
35.6333 -0.1046 89.1120 0.316 -0.890 -0.330 152 186 206
36.5552 -0.4972 85.4832 0.696 -0.414 -0.587 199 235 249
37.1039 -0.0177 90.1325 0.485 -0.466 -0.740 202 235 250
37.4016 -0.0017 90.3242 0.713 -0.423 -0.560 148 181 196
38.2729 0.0748 91.1673 0.201 -0.730 -0.653 141 162 179
38.4416 0.0625 91.0718 0.790 -0.480 -0.381 135 156 173
38.5781 0.0864 91.3177 0.802 -0.469 -0.371 110 133 149
38.8216 0.1712 92.1583 0.778 -0.610 -0.146 167 196 208
40.2854 0.1187 91.8467 -0.592 -0.757 -0.278 65 87 98
40.8869 0.1606 92.3248 0.624 0.200 -0.755 94 107 120
42.0733 0.2992 93.8025 -0.209 0.226 -0.952 85 102 110
42.2341 0.2955 93.7882 -0.054 0.312 -0.949 83 100 107
43.8284 0.2662 93.7149 0.796 -0.312 -0.519 108 128 135
43.9790 0.2871 93.9333 0.796 -0.312 -0.519 108 128 135
44.1229 0.3316 94.3773 0.693 -0.636 -0.341 114 133 139
44.5693 0.4385 95.4554 0.623 -0.464 -0.630 125 144 150
44.8828 0.4634 95.7338 -0.365 -0.496 -0.788 125 144 150
45.5253 0.4430 95.6227 -0.211 -0.799 -0.564 119 138 144
46.1587 0.4703 95.9657 0.670 -0.299 -0.680 101 120 126
47.7512 0.5563 96.9928 0.723 -0.127 -0.679 103 124 127
49.3566 0.6193 97.8023 0.442 -0.096 -0.892 143 164 169
49.6762 0.6205 97.8554 0.622 -0.316 -0.716 130 149 155
49.8393 0.6348 98.0134 0.659 -0.329 -0.677 107 126 130
50.0049 0.6575 98.2512 0.677 -0.299 -0.672 129 148 152
50.1668 0.6642 98.3366 0.365 -0.538 -0.760 122 145 150
50.6791 0.7653 99.3678 0.195 -0.951 -0.240 110 131 136
50.8442 0.7769 99.5005 0.354 -0.902 -0.246 125 149 153
51.0206 0.8196 99.9303 0.504 -0.844 -0.186 127 151 155
51.3429 0.8160 99.9378 0.207 -0.965 -0.159 124 150 151
51.6992 0.8957 100.7454 0.095 -0.434 -0.896 107 133 134
51.8522 0.8732 100.5502 -0.122 -0.539 -0.834 112 138 139
52.1862 0.8943 100.7948 -0.353 -0.644 -0.678 128 152 154
52.3453 0.8874 100.7497 -0.199 -0.654 -0.730 122 146 148
52.5070 0.8863 100.7603 -0.219 -0.656 -0.723 122 143 144
52.6730 0.8941 100.8562 0.332 -0.813 -0.478 114 135 136
56.0164 0.6543 99.0000 -0.381 -0.322 -0.866 112 125 116
56.1686 0.6493 98.9719 -0.267 -0.326 -0.907 122 135 126
56.3168 0.6399 98.9017 0.020 -0.605 -0.796 104 116 106
56.4962 0.6664 99.1777 -0.487 -0.178 -0.855 87 100 91
56.8218 0.6805 99.3551 0.814 -0.315 -0.488 125 138 127
57.3875 0.7814 100.3918 0.862 -0.275 -0.426 103 115 101
-11.2372 0.3521 85.7346 -0.415 -0.834 -0.364 74 103 113
-6.5295 -0.0556 82.5258 -0.387 -0.864 -0.323 89 119 128
-5.3178 -0.1782 81.5338 0.441 -0.845 -0.302 116 145 153
-5.2617 -0.1559 81.7508 0.727 -0.685 -0.045 121 150 158
-4.8025 -0.1749 81.6327 -0.109 -0.050 -0.993 120 149 157
-2.6653 -0.2785 80.9424 -0.177 -0.704 -0.688 75 102 115
-2.3975 -0.2963 80.8104 -0.152 -0.694 -0.704 60 85 99
-2.2478 -0.2916 80.8743 0.129 -0.657 -0.743 27 51 65
0.4524 -0.3117 81.0425 0.738 0.453 -0.501 103 134 154
3.7409 -0.6419 78.3740 0.621 -0.429 -0.656 106 137 157
6.6035 -0.6940 78.2638 -0.413 -0.628 -0.660 171 207 229
13.3023 -0.7664 78.4697 0.522 -0.631 -0.574 191 228 244
17.0120 -0.8003 78.6430 0.570 -0.744 -0.350 183 216 235
22.5286 -0.4023 83.1142 -0.022 -0.642 -0.767 159 183 193
22.6927 -0.4049 83.1116 -0.022 -0.642 -0.767 158 180 193
22.8638 -0.4102 83.0841 -0.123 -0.567 -0.814 160 184 196
24.5462 -0.3937 83.4624 0.618 -0.283 -0.733 69 82 100
24.6782 -0.3835 83.5749 0.616 -0.398 -0.680 69 82 97
24.7999 -0.3690 83.7274 -0.180 -0.155 -0.971 70 82 93
25.2971 -0.3810 83.6809 0.106 -0.358 -0.928 72 84 96
26.2750 -0.3303 84.2867 0.073 -0.625 -0.777 79 89 98
26.5726 -0.3236 84.3896 0.449 -0.780 -0.436 99 108 117
26.6978 -0.3093 84.5401 0.481 -0.756 -0.444 109 120 126
26.8298 -0.2980 84.6639 0.481 -0.756 -0.444 90 104 107
27.8784 -0.2763 85.0067 0.107 -0.779 -0.618 95 116 117
28.0673 -0.2925 84.8793 -0.091 -0.775 -0.625 86 109 113
28.2546 -0.3082 84.7562 0.442 -0.776 -0.450 72 98 105
31.7177 -0.0614 87.5351 0.660 -0.447 -0.604 148 176 180
31.8880 -0.0697 87.4797 0.050 -0.569 -0.821 151 176 182
35.4817 0.0528 89.1069 0.079 -0.921 -0.382 146 177 200
35.6639 0.0313 88.9284 0.332 -0.881 -0.338 150 185 204
35.8113 0.0388 89.0192 0.497 -0.801 -0.335 166 203 220
37.1199 0.1313 90.0616 0.489 -0.458 -0.742 202 235 250
37.4212 0.1438 90.2190 0.779 -0.271 -0.565 153 186 201
37.8587 0.1788 90.6057 0.724 -0.551 -0.414 139 165 180
38.1435 0.2112 90.9482 0.096 -0.757 -0.647 145 166 183
38.4635 0.2055 90.9371 0.790 -0.480 -0.381 126 149 165
38.5975 0.2324 91.2071 0.816 -0.450 -0.362 114 137 153
38.7401 0.2501 91.3929 0.773 -0.618 -0.140 118 145 159
39.0435 0.2648 91.5712 0.706 -0.616 -0.350 160 190 200
39.2838 0.3605 92.5028 -0.137 -0.933 -0.333 205 235 246
39.4355 0.3702 92.6140 -0.267 -0.936 -0.230 205 235 246
40.1361 0.2795 91.8535 -0.572 -0.780 -0.254 98 119 126
41.0434 0.3380 92.5235 0.925 -0.338 -0.171 97 114 124
41.1636 0.4008 93.1297 0.925 -0.332 -0.181 98 116 126
41.4386 0.4753 93.8666 -0.204 -0.565 -0.799 104 121 131
41.7409 0.5070 94.2044 -0.195 0.370 -0.908 100 117 127
41.9121 0.4855 94.0249 -0.741 0.139 -0.656 102 121 128
42.2448 0.4575 93.8066 -0.318 -0.035 -0.947 80 99 106
44.2989 0.4746 94.2384 0.476 -0.833 -0.283 106 125 131
47.7667 0.7262 97.0631 -0.250 -0.558 -0.791 103 127 127
49.8617 0.8225 98.2451 0.728 -0.269 -0.631 113 132 136
50.1898 0.8510 98.5569 0.370 -0.385 -0.845 107 128 133
50.3516 0.8560 98.6255 0.370 -0.385 -0.845 122 146 150
50.6901 0.9116 99.1926 0.541 -0.788 -0.293 108 132 136
50.8538 0.9194 99.2873 0.338 -0.839 -0.426 107 131 135
51.0229 0.9423 99.5254 0.512 -0.789 -0.340 108 132 136
51.7142 1.0556 100.6819 0.118 -0.435 -0.893 101 125 127
52.9803 0.9940 100.2701 0.903 -0.212 -0.373 103 124 125
53.1554 1.0198 100.5362 0.929 -0.226 -0.294 102 123 126
53.5514 1.1476 101.7893 0.158 -0.916 -0.370 116 137 140
55.0653 1.2179 102.6509 0.012 -0.701 -0.713 112 123 126
55.2336 1.2248 102.7381 0.407 -0.649 -0.643 107 115 126
55.3928 1.2193 102.7075 0.373 -0.595 -0.712 92 97 118
56.1813 0.8022 98.8914 -0.265 -0.328 -0.907 127 140 131
56.5124 0.8235 99.1358 -0.487 -0.178 -0.855 74 87 78
57.4044 0.9406 100.3539 0.824 -0.474 -0.309 98 110 96
-12.3632 0.5531 85.8305 -0.067 -0.994 -0.087 80 111 116
-10.7365 0.4340 84.9476 -0.312 -0.911 -0.271 70 100 112
-6.8869 0.1396 82.7427 -0.318 -0.898 -0.303 97 129 140
-5.5375 -0.0098 81.5417 -0.092 -0.949 -0.300 115 145 154
-5.1418 -0.0503 81.2204 0.402 -0.881 -0.251 125 155 163
-4.7308 -0.0279 81.4835 -0.412 -0.041 -0.910 123 153 163
-4.4203 -0.0197 81.6015 0.496 -0.340 -0.799 114 142 153
-4.2640 -0.0157 81.6590 0.685 -0.343 -0.642 118 146 158
-2.3360 -0.1501 80.6754 -0.077 -0.841 -0.536 89 117 134
0.3164 -0.1619 80.9248 0.737 0.444 -0.509 105 138 155
0.4194 -0.1122 81.3989 0.864 -0.260 -0.431 109 142 159
3.0254 -0.5483 77.7143 0.463 -0.526 -0.713 109 140 158
3.1267 -0.5350 77.8507 0.416 -0.568 -0.710 109 140 158
3.2978 -0.5364 77.8612 0.556 -0.459 -0.693 110 141 159
3.5838 -0.5273 77.9842 0.557 -0.397 -0.730 110 141 159
3.6750 -0.5117 78.1409 0.631 -0.422 -0.652 111 142 160
3.7573 -0.4941 78.3150 0.573 -0.343 -0.744 106 137 155
3.9852 -0.5076 78.2208 0.086 -0.608 -0.790 103 135 150
13.3487 -0.6314 78.3392 0.320 -0.712 -0.625 191 228 244
17.2586 -0.6348 78.8358 0.668 -0.699 -0.255 192 227 246
21.4539 -0.2024 83.4051 0.058 0.556 -0.829 186 218 233
22.7117 -0.2602 83.0401 -0.039 -0.637 -0.770 176 200 210
22.8916 -0.2691 82.9817 -0.123 -0.567 -0.814 176 200 212
24.7442 -0.2592 83.3239 0.352 -0.491 -0.797 99 112 129
24.8950 -0.2570 83.3642 0.079 -0.465 -0.882 92 104 117
26.1677 -0.1995 84.0688 0.238 -0.169 -0.957 60 70 79
26.3258 -0.2005 84.0811 0.265 -0.174 -0.948 57 70 78
26.6202 -0.1924 84.1952 0.328 -0.123 -0.937 69 79 88
26.7402 -0.1757 84.3664 0.592 -0.378 -0.712 82 93 99
26.8748 -0.1656 84.4780 0.564 -0.553 -0.613 86 100 104
28.0910 -0.1506 84.7809 -0.083 -0.765 -0.639 94 117 121
28.2808 -0.1680 84.6461 0.412 -0.768 -0.491 103 129 136
35.1054 0.1376 88.3961 0.019 -0.743 -0.670 175 208 224
35.2472 0.1492 88.5225 0.200 -0.718 -0.667 172 205 223
35.3752 0.1726 88.7564 0.213 -0.753 -0.622 171 201 219
35.6982 0.1634 88.7152 0.262 -0.688 -0.677 150 187 202
35.8596 0.1587 88.6932 0.273 -0.707 -0.652 168 206 219
37.4352 0.2948 90.1660 0.779 -0.271 -0.565 157 190 205
37.7425 0.3017 90.2707 0.714 -0.540 -0.445 119 147 164
37.8856 0.3164 90.4269 0.696 -0.575 -0.430 132 158 175
38.4858 0.3477 90.7973 0.847 -0.403 -0.347 128 151 167
38.6155 0.3799 91.1126 0.861 -0.377 -0.342 112 138 153
38.7445 0.4140 91.4463 0.776 -0.603 -0.187 115 142 156
39.0749 0.3959 91.3226 0.301 -0.859 -0.414 136 166 176
39.3328 0.4695 92.0389 -0.084 -0.935 -0.345 204 234 244
39.4838 0.4793 92.1498 -0.278 -0.914 -0.296 206 236 246
39.6549 0.4623 92.0155 -0.262 -0.922 -0.287 206 234 243
40.8548 0.3130 90.7966 0.571 -0.320 -0.756 90 102 114
41.3589 0.5159 92.7423 0.629 -0.766 -0.130 98 116 126
42.0865 0.6394 93.9837 -0.758 0.125 -0.640 78 96 106
42.5946 0.5728 93.4359 -0.766 0.036 -0.642 98 116 126
43.8672 0.5424 93.3261 0.676 -0.617 -0.402 107 127 134
44.0123 0.5803 93.6967 0.400 -0.476 -0.783 109 129 136
44.1639 0.5998 93.8973 0.367 -0.524 -0.769 93 112 118
45.2449 0.7079 95.0445 -0.149 -0.746 -0.649 98 117 123
45.7219 0.6992 95.0278 0.768 -0.371 -0.523 106 125 131
45.8766 0.7268 95.3049 0.779 -0.350 -0.520 94 113 119
46.0327 0.7483 95.5245 0.779 -0.350 -0.520 111 130 136
47.4605 0.8261 96.4375 0.279 -0.855 -0.438 117 138 141
47.6201 0.8390 96.5782 0.495 -0.821 -0.286 123 144 145
47.9390 0.8439 96.6671 0.116 -0.923 -0.366 104 128 130
48.4161 0.8416 96.7101 0.217 -0.965 -0.148 105 130 134
50.0452 1.0127 98.5134 0.601 -0.316 -0.734 106 125 129
50.5318 1.0298 98.7377 0.432 -0.480 -0.763 109 133 137
50.6998 1.0532 98.9772 0.338 -0.802 -0.492 111 135 139
50.8621 1.0576 99.0399 0.280 -0.820 -0.499 103 127 131
51.0330 1.0869 99.3337 0.634 -0.669 -0.388 102 127 131
53.3881 1.2809 101.4479 0.169 -0.902 -0.396 94 115 118
54.2220 1.3145 101.8713 0.351 -0.797 -0.491 123 142 147
55.0678 1.3614 102.4197 0.333 -0.645 -0.688 116 130 134
55.2405 1.3749 102.5683 0.555 -0.553 -0.621 110 122 132
56.5285 0.9807 99.0938 -0.487 -0.178 -0.855 119 132 123
56.6717 0.9655 98.9724 0.651 -0.399 -0.646 125 138 128
57.4034 1.0807 100.1368 0.824 -0.474 -0.309 93 105 91
57.5967 1.1184 100.5121 0.568 -0.782 -0.258 68 80 66
58.5262 0.9520 99.0971 0.707 -0.593 -0.386 109 121 111
-3.8345 -0.4529 76.2364 -0.151 -0.942 -0.299 98 129 148
-5.6448 0.1378 81.3719 -0.189 -0.939 -0.288 118 151 162
-5.1676 0.1147 81.2270 0.234 -0.911 -0.339 128 161 170
-4.9740 0.1115 81.2245 0.661 -0.748 -0.056 133 166 175
-4.9569 0.1418 81.5035 0.697 -0.712 -0.088 128 161 170
-4.8716 0.1594 81.6749 -0.407 -0.019 -0.913 123 153 163
-4.6348 0.1480 81.6036 -0.347 -0.178 -0.921 118 148 159
-4.4655 0.1495 81.6405 -0.261 -0.016 -0.965 115 145 156
-4.2624 0.1444 81.6224 0.222 -0.118 -0.968 122 151 165
-4.2435 0.1749 81.9033 0.073 -0.886 -0.458 127 156 170
0.3516 0.0239 81.1589 0.676 -0.711 -0.195 113 149 163
3.8723 -0.3676 78.0743 0.273 -0.425 -0.863 104 135 153
5.0980 -0.4573 77.4261 0.037 -0.308 -0.951 100 132 147
5.2609 -0.4574 77.4471 0.456 -0.729 -0.511 107 139 154
5.3913 -0.4503 77.5296 0.764 -0.548 -0.341 111 143 158
22.4525 -0.1903 82.2492 0.074 -0.770 -0.634 174 203 216
22.7367 -0.1180 82.9477 -0.174 -0.550 -0.817 187 211 221
22.9064 -0.1230 82.9248 -0.158 -0.551 -0.820 176 200 210
23.0934 -0.1351 82.8401 0.173 -0.467 -0.867 91 118 127
23.6455 -0.0406 83.7782 -0.480 -0.593 -0.646 114 129 151
26.3621 -0.0644 83.9354 -0.015 -0.161 -0.987 48 61 69
26.5295 -0.0699 83.9081 0.434 0.194 -0.880 47 57 67
26.7858 -0.0440 84.1795 0.578 -0.247 -0.777 68 79 88
26.9237 -0.0355 84.2761 0.574 -0.236 -0.784 84 98 104
27.4513 0.0113 84.7752 0.684 -0.276 -0.675 95 113 116
30.2958 0.0730 85.7287 0.376 -0.448 -0.811 134 159 164
31.5272 0.0788 85.9511 0.265 0.489 -0.831 152 177 182
32.5603 0.2166 87.3497 0.280 -0.482 -0.830 147 178 181
35.1282 0.2794 88.2763 0.093 -0.857 -0.508 171 204 215
35.5550 0.3140 88.6500 0.041 -0.743 -0.669 163 196 206
35.7231 0.3034 88.5764 0.141 -0.570 -0.809 156 192 202
35.8785 0.3036 88.6000 0.375 -0.527 -0.763 178 216 228
36.0165 0.3195 88.7638 -0.017 -0.740 -0.673 196 232 248
37.4539 0.4410 90.0690 0.775 -0.278 -0.568 160 193 208
37.9055 0.4612 90.3159 0.629 -0.531 -0.568 129 156 173
38.5140 0.4827 90.5954 0.832 -0.479 -0.280 127 150 166
38.6420 0.5171 90.9264 0.856 -0.393 -0.336 111 137 152
38.7732 0.5487 91.2331 0.684 -0.658 -0.315 120 147 159
39.3841 0.5739 91.5464 0.097 -0.897 -0.432 205 235 245
40.8678 0.4651 90.7590 0.564 -0.316 -0.763 100 113 122
40.9552 0.5764 91.7856 0.492 -0.128 -0.861 98 112 123
41.9410 0.7954 93.9178 -0.397 -0.282 -0.874 86 104 116
42.0970 0.8025 94.0046 -0.769 0.037 -0.639 80 100 109
43.8739 0.7191 93.4882 0.629 -0.289 -0.722 104 124 131
44.0211 0.7520 93.8085 0.608 -0.135 -0.783 118 139 144
44.1735 0.7701 93.9945 0.346 -0.160 -0.924 115 134 140
45.2641 0.8381 94.7653 -0.163 -0.720 -0.675 116 135 141
45.4287 0.8021 94.4594 0.748 -0.542 -0.383 138 157 163
45.5822 0.8285 94.7214 0.748 -0.542 -0.383 162 181 187
45.7383 0.8417 94.8633 0.870 -0.343 -0.353 145 164 170
45.8923 0.8737 95.1755 0.759 -0.444 -0.476 100 119 125
46.0439 0.9333 95.7397 0.828 -0.385 -0.408 97 116 122
46.2027 0.9384 95.8089 0.698 0.033 -0.716 115 134 140
47.7935 0.9799 96.4056 -0.119 -0.930 -0.347 102 123 126
47.9530 0.9881 96.5023 -0.062 -0.935 -0.349 100 121 124
50.0602 1.1707 98.4577 0.601 -0.316 -0.734 41 60 64
50.5450 1.1818 98.6257 0.156 -0.220 -0.963 68 92 96
50.7075 1.1881 98.7050 0.167 -0.228 -0.959 111 135 139
50.8697 1.1935 98.7764 0.388 -0.521 -0.761 108 132 136
51.0283 1.1880 98.7480 0.362 -0.323 -0.874 99 123 127
51.3522 1.1969 98.8743 0.366 -0.355 -0.861 105 129 133
53.4011 1.4376 101.3502 -0.143 -0.570 -0.809 99 120 121
53.5562 1.4241 101.2486 -0.142 -0.563 -0.814 107 126 130
53.7157 1.4191 101.2250 -0.144 -0.557 -0.818 111 130 134
53.8848 1.4307 101.3537 0.021 -0.421 -0.907 105 124 128
54.0446 1.4264 101.3373 0.095 -0.451 -0.887 102 121 125
55.5498 1.4927 102.1488 0.042 -0.456 -0.889 101 116 129
56.1403 1.0271 97.9849 0.422 -0.813 -0.402 120 131 123
56.2901 1.0207 97.9478 0.702 -0.596 -0.391 101 114 104
56.5234 1.1129 98.8198 -0.009 -0.032 -0.999 128 141 132
56.6626 1.0932 98.6601 0.345 -0.018 -0.939 129 142 132
57.4061 1.2243 99.9573 0.878 -0.353 -0.323 102 113 97
58.3407 1.2160 100.0105 0.236 -0.840 -0.489 98 112 97
59.2813 1.3623 101.4737 0.349 -0.648 -0.677 113 124 118
59.4771 1.3966 101.8131 0.579 -0.733 -0.359 118 129 121
-13.1288 0.7958 84.7541 -0.206 -0.972 -0.110 83 113 122
-9.7838 0.4986 82.5532 -0.585 -0.647 -0.489 93 125 136
-9.7323 0.5223 82.7734 -0.149 -0.948 -0.281 95 127 138
-3.7118 -0.2930 76.2951 0.054 -0.391 -0.919 113 146 164
-5.2718 0.2275 80.7510 0.547 -0.823 -0.151 127 159 172
-5.2613 0.2591 81.0367 0.547 -0.822 -0.159 141 173 184
-5.1188 0.2656 81.1152 0.621 -0.765 -0.170 134 168 178
-4.8947 0.2565 81.0642 0.665 -0.746 -0.039 139 171 182
-4.6372 0.3091 81.5734 -0.347 -0.178 -0.921 121 153 164
-4.2493 0.3024 81.5672 0.440 -0.272 -0.856 130 159 173
1.2449 -0.1845 77.9647 -0.417 -0.416 -0.808 93 126 143
1.7673 -0.2245 77.6791 -0.181 -0.500 -0.847 103 136 153
2.0766 -0.2548 77.4496 0.067 -0.207 -0.976 105 138 155
2.2676 -0.2604 77.4263 0.132 -0.073 -0.989 116 149 166
3.8919 -0.2208 78.0095 0.325 -0.490 -0.808 101 132 150
4.5167 -0.2505 77.8310 -0.378 -0.548 -0.746 99 131 146
4.7689 -0.2704 77.6876 -0.316 -0.564 -0.763 97 129 144
16.0269 -0.2007 79.8917 0.264 0.347 -0.900 185 218 235
16.4742 -0.1931 80.0226 0.836 -0.271 -0.478 184 217 236
16.5757 -0.1757 80.1931 0.834 -0.248 -0.492 189 222 241
22.3273 -0.0513 82.1164 0.285 -0.958 0.036 186 218 231
22.4956 0.0676 83.2082 -0.159 -0.876 -0.455 181 208 215
22.7635 0.0234 82.8489 -0.178 -0.534 -0.827 184 209 216
22.9335 0.0181 82.8247 -0.158 -0.551 -0.820 175 202 209
23.1128 0.0088 82.7667 0.216 -0.437 -0.873 42 69 76
24.4770 0.0257 83.1100 0.144 -0.567 -0.811 121 134 149
26.3865 0.0770 83.8382 -0.032 -0.024 -0.999 45 57 69
26.5345 0.0805 83.8907 0.476 0.176 -0.861 44 56 69
27.5203 0.1308 84.4804 0.244 -0.234 -0.941 97 114 122
30.3130 0.2183 85.6580 0.455 -0.391 -0.800 80 105 114
31.1723 0.2627 86.1770 0.511 0.681 -0.524 145 170 175
33.3565 0.3637 87.3899 0.123 -0.916 -0.381 153 184 187
35.0324 0.3903 87.8636 0.536 0.143 -0.832 195 228 232
35.3085 0.4194 88.1637 0.781 -0.027 -0.624 196 227 230
35.4424 0.4380 88.3500 0.423 -0.551 -0.719 178 209 213
35.5924 0.4429 88.4152 0.403 -0.511 -0.759 159 193 198
35.7386 0.4513 88.5105 0.433 -0.118 -0.894 155 191 200
35.8886 0.4564 88.5775 0.641 -0.388 -0.662 178 214 228
36.0144 0.4836 88.8395 0.664 -0.360 -0.655 196 231 249
36.1583 0.4948 88.9602 0.334 -0.254 -0.908 199 232 251
37.6308 0.5853 89.9793 0.390 -0.620 -0.681 131 163 180
37.9162 0.6160 90.2951 0.642 -0.443 -0.626 120 147 164
38.2197 0.6276 90.4424 -0.137 -0.637 -0.759 156 179 195
38.5433 0.6157 90.3808 0.730 -0.563 -0.387 127 150 164
38.6583 0.6662 90.8499 0.527 -0.625 -0.575 106 132 145
38.8011 0.6839 91.0295 0.634 -0.676 -0.376 111 138 150
38.9553 0.6879 91.0866 0.230 -0.876 -0.423 139 170 180
39.1111 0.6898 91.1253 0.223 -0.873 -0.434 149 177 188
39.2599 0.7009 91.2459 0.080 -0.923 -0.376 176 204 215
39.4178 0.7001 91.2611 -0.015 -0.915 -0.402 204 234 244
40.7146 0.6345 90.8534 0.473 -0.336 -0.815 107 120 128
40.8717 0.6320 90.8531 0.522 -0.350 -0.778 108 122 131
40.9985 0.6798 91.3004 0.187 -0.436 -0.880 98 112 123
41.1783 0.6392 90.9608 0.267 -0.476 -0.838 100 116 129
41.5891 0.7413 91.9354 -0.095 -0.947 -0.307 85 103 115
42.1187 0.9424 93.8156 -0.688 -0.372 -0.624 83 103 114
42.6194 0.8894 93.4099 -0.669 -0.394 -0.630 94 112 124
43.8880 0.8733 93.4437 0.760 -0.426 -0.490 104 124 131
44.0367 0.9017 93.7194 0.733 -0.456 -0.505 110 131 136
44.1851 0.9339 94.0289 0.381 -0.656 -0.651 113 132 138
44.3398 0.9464 94.1630 0.349 -0.739 -0.576 110 129 135
44.9635 0.9849 94.5962 -0.100 -0.930 -0.355 122 141 147
45.2939 0.9103 93.9726 0.739 -0.447 -0.503 119 138 142
45.4483 0.9263 94.1380 0.881 -0.265 -0.393 110 129 133
45.6001 0.9614 94.4745 0.871 -0.367 -0.326 131 150 154
45.7537 0.9904 94.7568 0.870 -0.343 -0.353 140 159 163
46.0615 1.0631 95.4524 0.782 -0.446 -0.436 98 117 121
46.2170 1.0989 95.7957 0.512 -0.618 -0.597 102 121 125
47.0118 1.1420 96.2946 0.243 -0.844 -0.478 96 115 121
47.6495 1.1472 96.4307 0.264 -0.851 -0.454 92 111 117
47.8076 1.1234 96.2386 -0.007 -0.705 -0.709 93 112 118
48.2811 1.0943 96.0439 -0.338 -0.392 -0.856 102 123 128
48.4393 1.0949 96.0720 -0.319 -0.354 -0.879 96 120 122
48.5996 1.1134 96.2601 -0.156 -0.162 -0.974 98 122 124
50.0745 1.3259 98.3756 0.597 -0.305 -0.742 66 85 89
53.4104 1.5874 101.1914 -0.135 -0.567 -0.812 103 124 125
53.5733 1.5880 101.2195 -0.133 -0.548 -0.826 114 134 135
53.7515 1.6157 101.4936 0.240 -0.101 -0.966 124 143 147
53.9369 1.6544 101.8668 0.828 -0.000 -0.561 128 147 151
54.1026 1.6585 101.9269 0.809 -0.069 -0.583 126 145 149
55.2200 1.6250 101.7833 0.821 -0.370 -0.435 102 124 124
55.5500 1.6331 101.9018 0.520 -0.563 -0.642 101 128 128
56.3167 1.1892 98.0225 0.794 -0.545 -0.270 84 97 88
56.4966 1.2187 98.3127 0.597 -0.688 -0.412 113 126 117
56.6831 1.2549 98.6646 0.345 -0.018 -0.939 114 126 117
57.4188 1.3786 99.8780 0.811 -0.472 -0.345 96 107 91
58.3638 1.3806 100.0286 0.082 -0.926 -0.368 98 111 94
59.2851 1.5100 101.3200 0.358 -0.641 -0.679 119 130 124
59.4491 1.5153 101.3905 0.692 -0.561 -0.454 107 118 110
60.4879 1.4579 101.0211 0.463 -0.459 -0.758 76 90 76
-13.0248 0.9137 84.2702 -0.292 -0.934 -0.206 97 127 138
-9.9389 0.6583 82.4499 -0.650 -0.562 -0.511 107 140 154
-5.0510 0.3444 80.3696 0.485 -0.856 -0.181 137 169 182
-4.9502 0.3589 80.5118 0.658 -0.753 -0.020 146 178 189
-4.8807 0.3795 80.7040 0.671 -0.741 -0.015 140 174 185
-4.7454 0.3873 80.7929 0.657 -0.753 -0.044 143 177 189
-4.7300 0.4534 81.3797 -0.390 -0.464 -0.796 133 165 178
-4.4439 0.4317 81.2287 -0.240 -0.580 -0.778 127 159 172
-4.3319 0.4444 81.3570 0.831 0.022 -0.556 126 158 171
-4.1949 0.4522 81.4453 0.654 -0.042 -0.755 135 164 180
-2.1372 0.3188 80.5590 0.326 -0.941 -0.094 105 136 156
-2.1805 0.3632 80.9457 0.327 -0.941 -0.090 103 134 154
0.1544 0.2714 80.4659 -0.030 -0.954 -0.299 102 135 152
0.2414 0.2894 80.6376 -0.208 -0.926 -0.316 115 146 164
3.1364 -0.1201 77.4269 0.128 -0.262 -0.957 110 141 159
4.3749 -0.1414 77.4148 0.350 -0.634 -0.690 99 130 148
5.3598 -0.1810 77.2050 0.452 -0.739 -0.499 108 140 155
5.7235 -0.1154 77.8373 0.748 -0.589 -0.305 186 219 238
5.8059 -0.0968 78.0141 0.735 -0.602 -0.312 184 215 233
6.0085 -0.1062 77.9597 -0.047 -0.369 -0.928 181 212 230
6.5000 -0.1074 78.0189 -0.285 -0.747 -0.601 181 216 236
6.7310 -0.1239 77.9061 -0.284 -0.744 -0.605 181 216 237
6.9475 -0.1371 77.8205 -0.284 -0.744 -0.605 181 216 236
7.2304 -0.1663 77.6020 -0.042 -0.690 -0.722 183 218 237
7.4542 -0.1816 77.4990 0.582 -0.406 -0.705 184 219 239
13.3057 -0.0415 79.5735 0.404 0.355 -0.843 178 213 232
13.4484 -0.0368 79.6353 0.597 0.373 -0.710 177 212 231
15.1132 0.0354 80.5112 -0.694 -0.516 -0.503 184 219 238
15.9232 -0.1165 79.2832 -0.347 0.322 -0.881 184 219 238
16.5332 -0.0125 80.2901 0.660 -0.139 -0.738 189 222 241
22.7917 0.1641 82.7455 -0.150 -0.555 -0.818 177 202 209
22.9781 0.1519 82.6639 0.178 -0.409 -0.895 180 207 212
23.1307 0.1533 82.6988 0.216 -0.437 -0.873 23 51 57
23.2828 0.1550 82.7355 0.216 -0.437 -0.873 104 131 138
25.8927 0.2426 83.8826 0.465 -0.598 -0.652 98 110 122
30.1871 0.3564 85.5026 0.361 -0.447 -0.819 82 108 122
30.3286 0.3646 85.5953 0.455 -0.391 -0.800 105 129 142
30.4478 0.3863 85.8046 0.795 -0.461 -0.395 97 121 132
32.5909 0.5123 87.2252 0.506 -0.785 -0.357 148 180 190
32.9461 0.5940 87.9988 0.525 -0.794 -0.308 153 183 195
33.1044 0.5932 88.0139 0.311 -0.861 -0.402 148 179 191
33.2890 0.5727 87.8586 -0.072 -0.901 -0.428 143 174 180
33.4498 0.5695 87.8535 0.247 -0.892 -0.378 138 169 170
33.8904 0.5915 88.1110 0.229 -0.870 -0.436 150 185 176
35.3038 0.5845 88.2505 0.759 -0.062 -0.648 166 197 199
35.4539 0.5893 88.3145 0.381 -0.567 -0.730 168 199 202
35.5889 0.6077 88.4965 0.432 -0.018 -0.902 164 197 204
35.7303 0.6206 88.6312 0.190 0.469 -0.862 158 191 202
36.9163 0.6801 89.3272 0.301 -0.551 -0.779 201 234 252
37.2286 0.6799 89.3700 0.482 -0.436 -0.760 200 233 248
37.4788 0.7463 89.9927 0.572 -0.672 -0.470 179 212 227
38.0883 0.7657 90.2518 0.660 -0.426 -0.619 184 210 225
38.2389 0.7729 90.3369 -0.132 -0.644 -0.753 158 181 197
38.5671 0.7549 90.2243 0.758 -0.524 -0.389 134 157 172
38.6777 0.8113 90.7390 0.541 -0.612 -0.578 115 138 152
38.8291 0.8184 90.8232 0.638 -0.672 -0.376 111 138 150
38.9820 0.8237 90.8922 0.211 -0.878 -0.429 139 170 180
39.1407 0.8216 90.8963 0.077 -0.878 -0.472 148 176 187
39.2898 0.8320 91.0095 0.052 -0.917 -0.395 175 203 214
40.7286 0.7852 90.8009 0.505 -0.395 -0.767 112 125 133
43.7350 1.0575 93.6394 0.085 -0.645 -0.759 104 125 130
43.8930 1.0569 93.6562 0.073 -0.636 -0.768 104 125 130
44.2059 1.0656 93.7785 0.422 -0.587 -0.691 101 120 126
44.9890 1.0873 94.0819 -0.157 -0.895 -0.417 127 146 152
45.3117 1.0451 93.7548 0.734 -0.486 -0.474 139 158 162
45.4630 1.0782 94.0686 0.881 -0.265 -0.393 110 129 133
45.6172 1.0982 94.2679 0.867 -0.348 -0.356 97 116 120
45.9227 1.1739 94.9814 0.866 -0.355 -0.353 99 118 122
46.0758 1.2224 95.4326 0.801 -0.302 -0.518 92 111 115
46.2327 1.2441 95.6472 0.711 -0.306 -0.633 96 115 119
48.2953 1.2444 95.9437 -0.327 -0.307 -0.894 96 116 121
48.4537 1.2472 95.9913 -0.313 -0.323 -0.893 97 118 121
48.6138 1.2643 96.1652 -0.106 -0.125 -0.986 91 114 116
49.0969 1.3171 96.7013 0.894 0.303 -0.329 87 110 114
49.4285 1.3911 97.4032 0.849 0.284 -0.446 98 119 124
50.2505 1.4854 98.3553 0.034 -0.059 -0.998 87 106 110
53.4251 1.7471 101.1237 -0.079 -0.658 -0.749 104 125 126
53.5903 1.7520 101.1907 -0.132 -0.653 -0.745 105 125 126
53.7701 1.7826 101.4873 0.215 -0.120 -0.969 106 125 129
54.9069 1.7800 101.6264 0.017 -0.563 -0.826 94 113 118
55.6044 1.8484 102.3311 0.704 -0.379 -0.601 97 129 121
56.1530 1.3147 97.6863 0.385 -0.887 -0.255 116 126 118
56.3265 1.3376 97.9137 0.791 -0.565 -0.236 95 107 98
56.5044 1.3650 98.1816 0.653 -0.689 -0.315 96 107 101
56.6901 1.4009 98.5262 0.534 -0.741 -0.408 98 109 100
58.3638 1.5219 99.8353 0.234 -0.835 -0.498 105 117 100
58.5063 1.5075 99.7289 0.757 -0.482 -0.441 108 120 104
58.9042 1.5908 100.5223 0.730 -0.609 -0.310 116 128 117
59.3139 1.6811 101.3804 0.325 -0.576 -0.750 121 132 125
60.4871 1.6013 100.8416 0.130 -0.672 -0.729 103 117 103
-10.2402 0.8450 82.5609 -0.701 -0.449 -0.554 128 161 176
-9.1471 0.8111 82.4234 0.355 -0.922 0.153 113 146 163
-4.8910 0.4379 79.7858 -0.471 -0.511 -0.719 129 162 178
-4.7200 0.4727 80.1146 0.668 -0.732 -0.132 148 180 191
-4.6563 0.4946 80.3148 0.668 -0.732 -0.132 148 181 190
-4.5265 0.5035 80.4111 0.353 -0.734 -0.580 150 183 192
-2.9039 0.4922 80.5481 -0.721 -0.414 -0.556 170 199 215
-1.5365 0.4236 80.1480 0.436 -0.863 -0.256 102 135 154
-1.1303 0.5198 81.0452 -0.134 -0.972 -0.193 112 143 163
-0.6268 0.4491 80.5021 -0.275 -0.895 -0.350 102 133 153
0.3552 0.3848 80.0841 -0.030 -0.954 -0.299 106 139 156
0.4670 0.3975 80.2110 -0.209 -0.923 -0.324 125 158 175
0.7136 0.3809 80.1013 -0.191 -0.931 -0.312 133 166 183
2.4321 0.0414 77.3897 0.067 -0.296 -0.953 111 144 161
5.1440 -0.0191 77.2559 0.296 -0.206 -0.933 107 139 154
5.5989 -0.0121 77.3829 0.619 -0.604 -0.502 135 166 184
5.7780 0.0219 77.7054 0.748 -0.589 -0.305 184 217 234
5.9156 0.0277 77.7755 0.637 -0.586 -0.501 184 217 234
6.1896 0.0009 77.5823 -0.217 -0.755 -0.619 184 217 234
6.7638 -0.0209 77.4754 -0.049 -0.537 -0.842 187 220 236
7.1673 -0.0408 77.3598 0.141 -0.447 -0.883 191 224 240
13.2808 0.1158 79.6127 0.494 0.314 -0.811 181 217 233
16.6045 0.1145 80.0828 0.603 0.424 -0.675 189 222 239
22.8386 0.2968 82.5773 0.159 -0.386 -0.909 176 198 207
22.9936 0.2973 82.6042 0.159 -0.386 -0.909 172 192 202
23.1485 0.2978 82.6312 0.159 -0.386 -0.909 52 77 85
23.3033 0.2983 82.6581 0.159 -0.386 -0.909 109 140 147
23.4571 0.2993 82.6885 0.171 -0.406 -0.898 91 119 127
23.6112 0.3000 82.7175 0.171 -0.406 -0.898 67 86 97
24.6793 0.3093 82.9531 0.164 -0.585 -0.794 135 148 161
24.8325 0.3103 82.9840 0.164 -0.585 -0.794 96 117 126
24.9888 0.3098 83.0024 -0.034 -0.555 -0.831 64 79 87
25.3351 0.2933 82.9086 -0.208 -0.500 -0.840 86 99 110
25.4816 0.2971 82.9632 -0.059 -0.560 -0.827 90 103 115
25.5245 0.3492 83.4240 0.578 -0.656 -0.484 95 109 118
26.0512 0.3946 83.8963 0.356 -0.235 -0.905 74 86 100
26.1742 0.4105 84.0527 0.089 -0.064 -0.994 57 69 83
26.3507 0.4005 83.9908 -0.313 0.109 -0.944 58 67 82
28.2832 0.3634 83.9475 0.900 -0.165 -0.403 120 144 156
29.3815 0.5283 85.5448 -0.140 -0.691 -0.709 163 187 200
29.5326 0.5310 85.5910 -0.291 -0.648 -0.704 164 187 201
29.7126 0.5169 85.4935 -0.273 -0.672 -0.688 169 195 208
29.8844 0.5073 85.4348 -0.273 -0.672 -0.688 96 122 135
30.0436 0.5049 85.4373 -0.039 -0.713 -0.700 42 68 81
30.2127 0.4965 85.3886 0.576 -0.468 -0.671 59 85 98
30.3413 0.5126 85.5475 0.546 -0.520 -0.657 42 65 79
31.1285 0.6042 86.4605 0.608 -0.116 -0.785 103 126 140
31.2929 0.5988 86.4372 0.396 0.021 -0.918 100 123 137
31.4761 0.5808 86.3067 0.353 0.214 -0.911 101 125 137
31.5574 0.6300 86.7479 0.343 0.186 -0.921 88 110 123
31.7003 0.6389 86.8458 0.238 0.131 -0.962 69 91 104
32.0863 0.5885 86.4621 0.408 -0.688 -0.599 94 116 129
32.2325 0.5947 86.5381 0.421 -0.689 -0.589 128 150 163
32.3674 0.6090 86.6816 0.400 -0.730 -0.555 138 163 175
32.6549 0.6255 86.8674 0.389 -0.746 -0.540 144 177 189
32.9563 0.6324 86.9713 -0.019 0.048 -0.999 137 171 184
33.3312 0.7009 87.6236 -0.021 -0.931 -0.365 154 187 199
35.2078 0.6939 87.8348 0.726 -0.244 -0.643 152 180 184
35.3216 0.7302 88.1678 0.777 -0.118 -0.618 149 177 183
35.4847 0.7235 88.1327 0.332 -0.606 -0.723 150 179 185
36.6413 0.8070 89.0284 -0.014 -0.099 -0.995 197 228 240
36.7949 0.8092 89.0705 0.116 -0.089 -0.989 195 226 239
36.9358 0.8246 89.2251 0.309 -0.509 -0.804 198 229 242
37.2457 0.8268 89.2887 0.484 -0.424 -0.765 202 234 248
37.3866 0.8428 89.4492 -0.319 -0.682 -0.658 203 235 249
37.5219 0.8654 89.6660 0.453 -0.818 -0.353 190 222 236
37.6860 0.8567 89.6137 0.343 -0.720 -0.604 172 204 218
37.8265 0.8743 89.7877 0.528 -0.674 -0.516 184 211 226
38.2665 0.9081 90.1457 -0.083 -0.667 -0.741 166 192 211
38.6975 0.9557 90.6242 0.513 -0.569 -0.643 121 145 162
38.8530 0.9576 90.6627 0.416 -0.571 -0.708 116 140 155
39.0155 0.9502 90.6223 0.108 -0.846 -0.522 140 169 182
39.1698 0.9533 90.6714 0.116 -0.841 -0.528 145 176 186
39.3225 0.9587 90.7404 0.141 -0.865 -0.482 172 202 212
40.3004 0.8980 90.3528 0.018 -0.874 -0.485 82 95 104
40.4572 0.8955 90.3541 0.006 -0.821 -0.571 88 101 110
41.1964 0.9583 91.0088 0.568 -0.359 -0.741 90 106 119
42.0061 1.2148 93.3633 -0.416 -0.861 -0.292 77 97 108
42.1691 1.2057 93.3080 -0.593 -0.782 -0.190 78 98 109
43.7565 1.1890 93.3921 0.325 -0.067 -0.943 109 130 135
44.2220 1.2134 93.6721 0.338 -0.502 -0.796 89 110 115
45.0047 1.2355 93.9791 0.431 -0.611 -0.664 82 101 107
45.1703 1.1928 93.6304 0.783 -0.419 -0.460 85 102 109
45.4741 1.2529 94.1984 0.801 -0.366 -0.474 91 110 114
45.6325 1.2470 94.1703 0.597 -0.645 -0.477 104 123 127
46.7228 1.4378 95.9919 0.370 -0.347 -0.862 94 111 118
46.8824 1.4350 95.9911 0.132 -0.814 -0.566 96 113 120
47.0418 1.4322 95.9893 0.167 -0.815 -0.555 128 145 152
47.2010 1.4310 96.0019 0.181 -0.014 -0.983 126 143 151
47.8361 1.4150 95.9549 0.468 -0.282 -0.837 132 149 159
47.9965 1.4440 96.2307 0.587 -0.423 -0.690 116 133 143
48.6294 1.4266 96.1706 -0.070 -0.185 -0.980 138 157 161
49.1170 1.5055 96.9299 0.894 0.303 -0.329 118 138 142
50.4255 1.6416 98.3066 0.007 -0.449 -0.893 75 94 98
50.9053 1.6379 98.3441 0.214 -0.122 -0.969 71 91 94
51.0631 1.6311 98.3079 0.149 -0.100 -0.984 102 122 126
51.2212 1.6259 98.2849 0.168 -0.034 -0.985 117 137 140
51.3745 1.6080 98.1511 0.505 -0.082 -0.859 111 132 135
53.5739 1.8542 100.6171 -0.263 -0.351 -0.899 109 129 130
54.9527 1.9875 101.9800 0.286 -0.292 -0.913 105 124 128
56.6634 1.5061 98.0295 -0.079 -0.820 -0.567 92 103 95
56.9853 1.5195 98.1933 0.552 -0.697 -0.457 85 95 83
57.1873 1.5730 98.6895 0.511 -0.777 -0.368 87 95 80
59.3244 1.8349 101.2833 0.525 -0.168 -0.834 125 135 123
59.6617 1.8541 101.4993 0.664 -0.216 -0.716 97 109 95
60.6809 1.7772 100.9764 0.275 -0.685 -0.675 119 131 120
-12.2248 1.0383 82.4720 -0.503 -0.781 -0.370 112 140 152
-9.9917 0.9636 82.1591 -0.709 -0.421 -0.566 133 166 181
-4.6884 0.5903 79.7317 0.265 -0.933 -0.245 152 184 197
-4.6320 0.6138 79.9418 0.575 -0.815 -0.078 152 184 195
-4.5509 0.6325 80.1140 0.587 -0.810 -0.010 153 186 195
-4.4939 0.6561 80.3252 0.327 -0.753 -0.571 151 183 194
-4.2045 0.7036 80.7764 0.179 -0.825 -0.537 136 166 177
-1.6539 0.6059 80.3126 0.407 -0.889 -0.209 102 135 154
-1.0930 0.5962 80.3118 0.002 -0.955 -0.297 129 160 180
-0.9114 0.5940 80.3200 0.002 -0.955 -0.297 131 162 182
-0.7545 0.5972 80.3699 -0.011 -0.955 -0.297 114 145 165
-0.5697 0.5942 80.3722 -0.011 -0.955 -0.297 100 131 151
-0.2107 0.5533 80.0734 0.154 -0.965 -0.211 102 133 153
1.9047 0.2001 77.3487 -0.167 -0.637 -0.753 111 144 161
2.2769 0.1904 77.3203 0.495 -0.714 -0.496 134 167 184
3.4863 0.1760 77.3744 -0.069 -0.628 -0.775 128 159 177
5.1412 0.1312 77.2332 0.108 -0.303 -0.947 118 151 166
5.4787 0.1278 77.2534 0.526 -0.526 -0.668 108 141 158
5.7323 0.1443 77.4324 0.525 -0.540 -0.658 193 226 243
5.8598 0.1524 77.5210 0.516 -0.540 -0.665 182 215 232
5.9863 0.1608 77.6122 0.516 -0.540 -0.665 191 224 241
6.3976 0.1393 77.4882 0.002 -0.674 -0.739 189 222 239
7.5507 0.1323 77.5973 0.604 -0.102 -0.790 190 223 238
12.4023 0.2900 79.6681 -0.433 0.078 -0.898 193 229 245
13.2474 0.2760 79.6720 0.531 0.296 -0.794 144 180 196
13.8951 0.4671 81.4108 0.770 0.202 -0.605 147 183 199
14.0012 0.4842 81.5731 0.754 0.196 -0.627 145 180 199
16.3458 0.2462 79.8726 0.767 0.515 -0.383 166 199 216
22.8540 0.4424 82.5181 0.159 -0.386 -0.909 186 215 218
23.0089 0.4428 82.5451 0.159 -0.386 -0.909 168 195 199
23.1638 0.4433 82.5720 0.159 -0.386 -0.909 40 67 71
23.3186 0.4438 82.5990 0.159 -0.386 -0.909 88 117 122
23.4734 0.4443 82.6259 0.159 -0.386 -0.909 72 97 105
23.6280 0.4448 82.6528 0.159 -0.386 -0.909 61 78 90
24.5582 0.4460 82.8006 0.155 -0.664 -0.732 95 105 116
24.7067 0.4490 82.8483 0.068 -0.604 -0.794 128 135 147
24.8636 0.4482 82.8646 0.092 -0.585 -0.806 111 123 132
25.0200 0.4476 82.8827 -0.019 -0.551 -0.834 61 79 85
25.1805 0.4450 82.8841 0.057 -0.600 -0.798 90 108 115
25.3582 0.4344 82.8188 -0.208 -0.500 -0.840 73 90 100
25.6009 0.4658 83.1248 0.670 -0.569 -0.477 108 122 131
25.7229 0.4815 83.2776 0.670 -0.569 -0.477 101 115 124
26.0548 0.5464 83.8839 0.843 -0.369 -0.390 79 91 105
26.1685 0.5670 84.0782 0.442 -0.170 -0.881 59 71 85
27.7308 0.5639 84.2820 0.078 -0.129 -0.989 81 98 106
29.4339 0.6535 85.3032 0.512 -0.671 -0.537 180 206 219
29.7436 0.6542 85.3547 -0.082 -0.794 -0.602 188 214 227
29.9096 0.6478 85.3238 -0.072 -0.799 -0.596 113 139 152
30.0535 0.6546 85.4036 0.014 -0.825 -0.566 52 78 91
30.2228 0.6459 85.3541 0.459 -0.680 -0.572 70 96 109
30.3557 0.6596 85.4908 0.458 -0.679 -0.574 42 65 79
31.1356 0.7571 86.4443 0.622 -0.201 -0.757 111 134 148
31.2806 0.7643 86.5279 0.598 -0.177 -0.782 101 124 138
31.5172 0.7106 86.1010 0.375 -0.134 -0.917 99 123 135
31.5662 0.7821 86.7226 0.306 0.063 -0.950 99 121 134
31.7105 0.7901 86.8131 0.279 0.011 -0.960 99 121 132
31.8846 0.7778 86.7326 -0.561 -0.268 -0.783 105 127 140
32.1148 0.7262 86.3232 0.408 -0.688 -0.599 102 124 137
32.2586 0.7341 86.4121 0.408 -0.688 -0.599 128 150 163
32.3992 0.7444 86.5213 0.330 -0.811 -0.483 196 222 233
32.6987 0.7522 86.6321 0.295 -0.773 -0.562 208 241 249
32.9876 0.7678 86.8095 0.333 -0.044 -0.942 188 221 234
36.5109 0.9453 88.8544 0.007 0.353 -0.936 177 206 213
36.6316 0.9808 89.1775 0.183 -0.926 -0.330 196 225 232
36.8034 0.9649 89.0656 0.321 -0.524 -0.789 208 239 243
36.9535 0.9709 89.1393 0.309 -0.509 -0.804 212 242 246
37.2616 0.9747 89.2175 0.477 -0.397 -0.784 202 235 242
37.4057 0.9874 89.3484 0.481 -0.382 -0.789 200 233 241
37.7058 1.0006 89.5057 0.368 -0.702 -0.610 185 217 226
37.8527 1.0109 89.6159 0.523 -0.681 -0.513 180 209 225
38.2851 1.0534 90.0454 0.084 -0.756 -0.649 178 205 229
38.5921 1.0605 90.1512 0.338 -0.569 -0.749 169 196 220
38.7234 1.0922 90.4434 0.491 -0.668 -0.559 159 185 208
38.8635 1.1138 90.6496 -0.040 -0.370 -0.928 147 173 195
39.0307 1.1001 90.5562 -0.059 -0.348 -0.936 149 175 191
39.1914 1.0946 90.5329 -0.046 -0.343 -0.938 147 176 187
39.3462 1.0968 90.5745 0.206 -0.619 -0.758 176 203 214
40.3248 1.0321 90.1627 0.054 -0.864 -0.501 82 94 106
40.4753 1.0392 90.2460 -0.012 -0.806 -0.592 88 100 112
40.7575 1.0854 90.6847 0.385 -0.409 -0.828 99 112 122
41.2110 1.1082 90.9475 0.568 -0.359 -0.741 83 99 112
43.7610 1.3743 93.6102 -0.138 0.182 -0.974 104 125 130
44.2376 1.3631 93.5843 0.338 -0.502 -0.796 124 145 150
44.3979 1.3522 93.5144 0.361 -0.148 -0.921 107 126 132
45.0193 1.3884 93.9169 0.411 -0.655 -0.635 88 107 113
45.3385 1.3637 93.7519 0.793 -0.391 -0.467 107 126 132
45.6490 1.3864 93.9927 0.665 -0.683 -0.300 104 123 127
46.8979 1.5676 95.7345 0.503 -0.321 -0.802 101 118 125
47.0568 1.5747 95.8192 0.504 -0.313 -0.805 140 157 164
47.2157 1.5812 95.8982 0.729 -0.199 -0.655 138 155 163
47.6928 1.5876 96.0234 0.287 0.220 -0.932 112 129 137
47.8509 1.5714 95.9073 0.132 0.198 -0.971 114 131 139
50.2768 1.7871 98.1192 0.029 -0.964 -0.266 88 106 110
50.4374 1.7880 98.1511 0.061 -0.938 -0.340 93 111 115
50.5999 1.7961 98.2441 0.047 -0.932 -0.359 90 108 112
50.7605 1.7970 98.2762 0.112 -0.921 -0.372 78 96 100
50.9207 1.7971 98.3001 0.185 -0.884 -0.430 72 90 94
51.0888 1.8212 98.5321 0.439 -0.770 -0.463 92 110 114
51.3979 1.7887 98.2986 0.555 -0.098 -0.826 110 129 133
51.5651 1.8090 98.4978 0.464 0.125 -0.877 102 123 124
51.7318 1.8265 98.6729 0.335 0.168 -0.927 98 122 122
52.8620 1.8495 99.0372 0.911 -0.304 -0.280 111 133 131
53.5878 2.0117 100.5385 0.459 -0.674 -0.578 115 135 136
54.9270 2.0853 101.3685 0.468 -0.067 -0.881 97 116 120
55.6591 2.2058 102.5118 0.912 -0.215 -0.350 108 135 133
55.6867 1.3767 95.3888 0.386 -0.564 -0.730 108 112 114
56.0068 1.3980 95.6187 0.284 -0.678 -0.678 120 128 122
57.0002 1.6742 98.1393 0.497 -0.772 -0.396 84 94 82
57.1862 1.7097 98.4724 0.510 -0.612 -0.605 87 95 81
57.3709 1.7429 98.7849 0.688 -0.552 -0.472 87 96 79
58.8773 1.8480 99.9103 0.529 -0.765 -0.367 127 135 120
59.3438 1.9973 101.2629 0.525 -0.168 -0.834 128 136 121
59.8544 2.0302 101.6210 0.857 -0.159 -0.489 107 118 104
60.7103 1.9468 101.0299 0.102 -0.637 -0.764 113 123 112
60.8694 1.9484 101.0673 0.139 -0.625 -0.768 116 126 117
-11.5569 1.0810 81.4879 -0.504 -0.771 -0.390 133 161 173
-8.9207 0.7238 78.8543 0.070 -0.777 -0.626 137 170 187
-4.5090 0.7122 79.4162 0.215 -0.950 -0.225 159 191 205
-4.4588 0.7371 79.6349 0.282 -0.933 -0.225 158 190 201
-4.4459 0.8411 80.5181 0.455 -0.345 -0.821 144 176 187
-1.6386 0.5781 78.7093 -0.761 -0.393 -0.517 110 141 159
-1.5061 0.7319 80.0322 0.375 -0.901 -0.216 105 138 155
-0.9728 0.7276 80.0757 -0.075 -0.947 -0.314 140 171 189
-0.7705 0.7207 80.0479 -0.075 -0.947 -0.314 125 156 174
-0.5687 0.7139 80.0202 -0.075 -0.947 -0.314 106 137 155
-0.4689 0.7295 80.1673 0.113 -0.956 -0.271 108 141 158
1.4617 0.3404 77.1583 0.060 -0.466 -0.883 108 141 158
0.0401 0.6923 79.9281 0.246 -0.754 -0.609 107 140 157
2.4040 0.3499 77.3797 0.631 -0.536 -0.561 110 143 160
4.0650 0.3057 77.2535 0.290 -0.536 -0.793 109 142 157
4.2660 0.2966 77.2069 0.262 -0.614 -0.745 99 132 147
4.4425 0.2932 77.2045 0.182 -0.386 -0.904 98 131 146
4.5757 0.3000 77.2821 -0.028 -0.472 -0.881 98 131 146
4.1381 0.6003 79.7615 -0.367 -0.810 -0.457 102 135 152
4.3846 0.5809 79.6343 -0.570 -0.626 -0.532 143 176 193
5.0697 0.4948 79.0071 -0.432 -0.759 -0.487 158 191 208
5.3172 0.4745 78.8719 -0.434 -0.760 -0.483 158 191 208
6.4597 0.2737 77.3407 0.014 -0.674 -0.738 157 190 207
6.5437 0.2926 77.5138 -0.454 -0.526 -0.719 156 189 204
6.8535 0.2556 77.2466 0.185 -0.722 -0.667 159 192 207
7.0775 0.2397 77.1450 0.582 -0.505 -0.637 139 172 187
7.1977 0.2496 77.2469 0.582 -0.505 -0.637 117 150 165
7.4675 0.2622 77.3940 0.695 -0.283 -0.661 189 222 237
7.5662 0.2777 77.5403 0.642 -0.178 -0.746 190 223 238
13.5975 0.5629 80.8600 0.987 0.072 -0.146 157 190 207
16.0240 0.3984 79.8291 0.610 0.494 -0.620 151 184 201
16.1853 0.3971 79.8415 0.826 0.407 -0.391 151 184 201
16.2837 0.4163 80.0195 0.821 0.413 -0.394 150 183 200
22.7682 0.5647 82.2473 0.280 -0.746 -0.604 188 217 222
22.9467 0.5550 82.1919 0.373 -0.670 -0.642 195 224 229
23.0884 0.5609 82.2631 0.365 -0.662 -0.655 176 203 208
23.2196 0.5714 82.3714 0.401 -0.630 -0.665 34 63 68
23.3698 0.5737 82.4134 0.375 -0.652 -0.659 100 131 136
24.5906 0.5833 82.6775 0.131 -0.664 -0.736 81 94 108
24.7392 0.5862 82.7244 0.125 -0.634 -0.763 116 128 141
24.8877 0.5892 82.7722 0.151 -0.615 -0.774 105 120 131
25.0504 0.5856 82.7656 0.055 -0.605 -0.794 62 80 87
25.3521 0.5892 82.8419 0.131 -0.552 -0.824 64 81 89
25.5320 0.5772 82.7669 -0.080 -0.516 -0.853 75 92 100
26.0636 0.6957 83.8504 0.806 -0.483 -0.342 81 93 107
26.1686 0.7209 84.0802 0.459 -0.188 -0.868 58 70 84
26.3630 0.7017 83.9461 -0.183 0.047 -0.982 49 58 73
26.5445 0.6886 83.8626 -0.207 0.073 -0.976 49 58 73
26.6805 0.6985 83.9667 -0.282 0.106 -0.954 61 70 85
26.8325 0.7003 84.0046 0.153 -0.099 -0.983 91 103 115
27.0082 0.6898 83.9420 0.423 -0.086 -0.902 103 117 128
27.2501 0.7257 84.2824 0.788 -0.504 -0.355 101 115 126
27.4493 0.7026 84.1164 0.170 0.082 -0.982 98 115 125
27.5943 0.7080 84.1840 0.180 0.010 -0.984 96 113 123
29.6520 0.7717 85.0316 0.442 -0.478 -0.759 180 208 220
29.7970 0.7776 85.1037 0.245 -0.537 -0.807 197 225 237
29.9438 0.7826 85.1680 0.254 -0.533 -0.807 115 143 155
30.0774 0.7957 85.2990 0.618 -0.455 -0.641 47 73 86
30.2565 0.7807 85.1988 0.570 -0.616 -0.544 77 103 116
30.9820 0.9131 86.4293 0.885 -0.424 -0.192 92 115 129
31.1247 0.9220 86.5262 0.603 -0.561 -0.568 117 140 154
31.2764 0.9250 86.5742 0.599 -0.406 -0.690 108 132 144
31.5342 0.9622 86.9277 0.117 -0.712 -0.692 93 115 126
31.7072 0.9508 86.8573 0.228 -0.210 -0.951 95 117 128
31.9358 0.9004 86.4641 -0.553 -0.466 -0.690 112 134 147
32.1194 0.8806 86.3236 -0.550 -0.368 -0.749 121 140 154
32.2832 0.8744 86.2954 0.409 -0.681 -0.607 133 153 167
32.4371 0.8751 86.3249 0.328 -0.812 -0.483 182 207 219
32.9141 0.8657 86.3161 0.135 -0.926 -0.352 193 227 239
32.9942 0.9214 86.8009 0.322 -0.041 -0.946 199 232 247
34.0491 0.9456 87.1632 -0.160 -0.499 -0.852 151 178 183
36.3741 1.0901 88.7362 0.005 -0.240 -0.971 129 156 163
36.5255 1.0945 88.7958 -0.105 -0.408 -0.907 134 161 168
36.6806 1.0952 88.8249 0.186 -0.925 -0.333 143 172 176
36.9771 1.1108 89.0013 0.287 -0.913 -0.289 160 189 193
