ply
format ascii 1.0
element vertex 854
property float x
property float y
property float z
property float nx
property float ny
property float nz
property uchar diffuse_red
property uchar diffuse_green
property uchar diffuse_blue
end_header
-5.0862 1.9164 77.4561 0.322 0.180 -0.930 167 187 196
-4.9375 1.8961 77.4583 0.293 0.216 -0.931 168 188 197
-4.4643 2.1249 78.1383 0.614 -0.710 -0.345 168 188 197
-4.3340 1.8269 77.4974 -0.178 -0.695 -0.697 170 188 198
-4.1999 1.7841 77.4433 -0.159 -0.697 -0.700 170 189 196
-4.0572 1.7542 77.4216 -0.315 -0.648 -0.693 170 189 196
-3.9375 1.6907 77.3151 -0.419 -0.623 -0.661 170 189 196
-3.7926 1.6645 77.3026 -0.456 -0.626 -0.632 169 187 197
-3.6580 1.6233 77.2523 -0.481 -0.586 -0.652 169 188 195
-3.0403 2.0383 78.4066 0.222 -0.863 -0.455 170 187 194
-2.7208 2.0202 78.4700 -0.094 -0.931 -0.354 160 175 178
-2.5675 2.0017 78.4778 -0.094 -0.931 -0.354 181 196 199
-0.6342 1.8888 78.8529 0.354 -0.635 -0.687 172 186 187
-1.4590 0.2278 74.7726 -0.426 -0.642 -0.637 183 198 201
-0.8152 0.2238 74.9746 -0.603 -0.447 -0.661 129 144 147
1.0860 1.0955 77.5975 -0.167 -0.259 -0.951 135 153 163
1.3615 1.0222 77.5198 -0.234 -0.098 -0.967 152 170 180
1.5369 0.8371 77.1526 -0.363 -0.678 -0.639 124 142 152
2.5547 1.2052 78.3307 0.551 -0.391 -0.738 125 143 153
4.6305 1.1801 78.9541 -0.600 -0.686 -0.410 156 175 182
6.1761 1.1214 79.3264 -0.120 -0.943 -0.311 124 139 144
6.3121 1.0797 79.2752 -0.447 -0.576 -0.685 133 146 152
14.2551 0.1185 79.6755 -0.533 -0.835 -0.139 201 228 235
24.0183 -0.5744 81.2883 -0.284 -0.780 -0.557 92 108 113
24.7257 -0.5329 81.6155 0.408 -0.546 -0.732 62 76 76
24.9520 -0.5250 81.7077 0.415 -0.540 -0.732 63 76 77
24.9648 -0.7524 81.1902 -0.010 -0.804 -0.595 83 96 96
25.1731 -0.7544 81.2541 -0.611 -0.296 -0.735 75 87 87
26.5676 -0.6940 81.8500 0.056 -0.071 -0.996 90 105 99
26.7405 -0.7168 81.8545 -0.392 0.187 -0.901 85 100 94
26.8833 -0.7556 81.8123 -0.407 0.178 -0.896 83 100 93
27.0450 -0.7843 81.7995 -0.347 0.049 -0.937 87 106 100
27.0701 -0.8848 81.5772 0.092 -0.222 -0.971 86 105 99
27.3004 -0.8774 81.6697 0.255 -0.120 -0.960 85 102 97
27.4874 -0.8928 81.6957 0.271 -0.123 -0.955 84 104 98
28.9151 -0.4943 83.0778 0.281 -0.025 -0.959 114 139 133
29.1952 -0.8027 82.4624 -0.164 -0.367 -0.916 148 173 167
29.3771 -0.8225 82.4766 -0.288 -0.208 -0.935 154 176 173
29.5439 -0.8500 82.4681 -0.356 -0.195 -0.914 140 162 159
29.8259 -0.9307 82.3756 -0.356 -0.195 -0.914 151 173 168
31.5153 -0.9801 82.8164 -0.464 -0.643 -0.610 152 177 172
31.9263 -0.9999 82.9058 0.225 -0.764 -0.604 151 176 172
32.2223 -0.9670 83.0783 0.388 -0.535 -0.751 150 175 171
32.7646 -0.9262 83.3498 0.398 -0.433 -0.809 152 178 175
33.0041 -0.9212 83.4397 0.381 -0.456 -0.804 149 178 174
33.2701 -0.9042 83.5660 0.428 -0.485 -0.763 148 177 173
34.2286 -0.8885 83.9164 0.283 -0.606 -0.744 177 207 205
34.5202 -0.8614 84.0742 0.240 -0.562 -0.792 178 208 206
36.9329 -0.3039 86.1441 0.312 -0.004 -0.950 197 231 230
37.5109 -0.1531 86.6796 0.351 -0.549 -0.759 200 231 232
37.7802 -0.1414 86.7948 0.346 -0.543 -0.765 206 240 241
38.0488 -0.1303 86.9083 0.346 -0.543 -0.765 177 212 214
38.4122 -0.0776 87.1484 0.503 -0.494 -0.710 176 209 215
39.8010 0.2071 88.2568 0.421 -0.832 -0.361 152 182 194
-52.3840 18.7173 100.0257 -0.867 0.118 -0.484 250 250 252
-52.0543 18.4351 99.4890 -0.917 -0.070 -0.392 230 229 233
-45.5310 14.7235 93.1426 -0.574 -0.461 -0.677 188 206 189
-45.3434 14.6492 93.0341 -0.574 -0.461 -0.677 187 206 192
-45.1168 14.4971 92.7608 -0.549 -0.446 -0.707 184 205 193
-44.8504 14.2638 92.3152 -0.185 0.004 -0.983 181 203 185
-41.9789 13.9033 92.4280 -0.500 -0.316 -0.806 147 174 190
-41.7998 13.8399 92.3417 -0.500 -0.316 -0.806 208 235 247
-41.2313 13.5722 91.9159 -0.281 -0.959 -0.038 200 231 234
-39.9541 13.0346 91.1049 -0.514 -0.656 -0.553 162 189 198
-39.6371 12.9965 91.1213 -0.456 -0.755 -0.471 200 227 236
-39.4258 12.8404 90.8338 -0.164 -0.405 -0.900 161 190 200
-39.2666 12.8189 90.8366 -0.190 -0.393 -0.900 150 179 187
-36.9493 11.8102 89.2893 -0.190 -0.841 -0.507 120 148 159
-34.8725 10.9086 87.9079 -0.537 -0.734 -0.417 166 190 193
-33.6477 10.8248 88.1158 -0.590 0.153 -0.793 70 91 94
-32.9506 10.4438 87.4733 -0.599 -0.343 -0.723 152 173 178
-31.5781 8.9607 84.5354 -0.356 -0.314 -0.880 150 168 170
-31.4255 8.9303 84.5157 -0.310 -0.342 -0.887 149 167 169
-31.2635 8.8543 84.3949 -0.227 -0.573 -0.788 151 167 168
-31.1174 8.8557 84.4457 -0.004 -0.467 -0.884 152 166 165
-30.9692 8.8474 84.4751 0.278 -0.604 -0.746 151 167 166
-30.8022 8.7419 84.2886 -0.033 -0.862 -0.505 149 167 167
-28.6692 9.4433 86.5847 0.069 -0.674 -0.735 148 162 162
-27.1701 8.2286 84.3007 0.402 0.426 -0.810 151 166 169
-25.4467 6.9837 82.0207 0.011 0.257 -0.966 215 233 235
-24.1090 6.9520 82.3842 -0.303 -0.870 -0.390 145 158 174
-22.7765 6.2093 81.1230 -0.039 0.194 -0.980 180 197 222
-22.4813 6.1519 81.0884 -0.087 0.186 -0.979 194 211 231
-22.3320 6.1596 81.1546 -0.236 0.406 -0.883 186 205 219
-22.1680 6.4591 81.8916 -0.573 0.270 -0.774 181 203 212
-22.0246 6.3223 81.6262 -0.527 0.254 -0.811 181 204 212
-21.8741 6.3249 81.6810 -0.387 0.351 -0.853 181 204 212
-21.7272 6.2637 81.5892 -0.387 0.351 -0.853 202 225 231
-21.5820 6.1823 81.4508 -0.388 0.351 -0.852 202 224 231
-16.2515 4.4442 79.2203 -0.302 -0.672 -0.676 188 206 210
-16.1121 4.3919 79.1463 -0.297 -0.692 -0.658 193 211 215
-15.3903 4.2369 79.0279 -0.152 -0.765 -0.626 189 203 203
-15.2569 4.1658 78.9090 -0.417 -0.365 -0.832 189 203 203
-15.1186 4.1141 78.8360 -0.053 -0.606 -0.794 179 193 193
-14.9598 4.1361 78.9379 0.452 -0.467 -0.760 152 166 166
-14.8042 4.1454 79.0100 0.055 -0.779 -0.624 130 144 144
-14.6431 4.1727 79.1247 -0.091 -0.686 -0.721 130 144 144
-14.3415 4.1528 79.1775 -0.545 0.023 -0.838 125 137 137
-14.2170 4.0552 78.9954 -0.851 -0.284 -0.442 124 136 136
-12.7117 2.6519 76.2829 -0.119 0.218 -0.969 137 150 155
-12.1726 2.8789 76.9767 0.259 -0.640 -0.723 137 152 157
-11.7117 3.2757 78.0325 0.211 -0.770 -0.602 139 154 159
-11.5123 3.3875 78.3527 0.631 -0.001 -0.775 139 154 159
-11.4191 2.8516 77.1599 -0.158 0.013 -0.987 139 154 159
-11.2419 2.9087 77.3479 -0.317 0.186 -0.930 139 154 159
-10.9385 2.8963 77.4184 -0.365 0.205 -0.908 139 154 159
-10.8128 2.8287 77.3052 -0.355 -0.195 -0.914 139 154 159
-9.0294 4.6850 82.1233 0.087 0.384 -0.919 133 147 150
-8.8726 4.6655 82.1300 0.087 0.384 -0.919 134 148 151
-7.5724 2.7076 78.0846 -0.042 -0.871 -0.490 190 207 214
-7.4195 2.6947 78.1050 -0.037 -0.908 -0.416 190 207 214
-7.2684 2.6782 78.1167 0.104 -0.936 -0.335 189 206 213
-6.9535 2.6673 78.1944 0.124 -0.934 -0.334 191 208 215
-6.8144 2.6286 78.1514 -0.039 -0.903 -0.428 191 208 215
-7.1268 1.7961 76.1494 -0.591 -0.489 -0.642 191 208 215
-6.9998 1.7442 76.0721 -0.591 -0.489 -0.642 191 208 215
-6.7566 1.6233 75.8755 -0.508 -0.390 -0.769 153 172 179
-4.6633 2.1716 77.8091 0.127 -0.337 -0.933 168 188 197
-4.2480 2.3076 78.2548 0.479 -0.834 -0.272 167 187 196
-4.3514 1.9023 77.2961 -0.008 -0.791 -0.611 169 189 198
-4.1938 1.8952 77.3313 -0.159 -0.697 -0.700 170 188 198
-4.0502 1.8668 77.3132 -0.315 -0.648 -0.693 170 188 195
-3.9063 1.8390 77.2966 -0.369 -0.665 -0.649 171 188 196
-3.7743 1.7937 77.2361 -0.409 -0.616 -0.673 170 187 195
-3.6427 1.7480 77.1749 -0.428 -0.601 -0.675 170 188 198
-3.0474 2.1327 78.2468 0.105 -0.935 -0.338 172 188 195
-2.4751 2.0042 78.1400 -0.840 -0.443 -0.314 182 197 200
-2.3857 1.8985 77.9278 -0.844 -0.411 -0.345 179 194 197
-2.3869 1.4467 76.8963 -0.315 -0.756 -0.574 180 195 198
-2.2168 1.4547 76.9700 -0.291 -0.780 -0.554 180 195 198
-1.6177 1.8119 77.9806 0.679 -0.530 -0.508 170 184 185
-1.3952 1.8848 78.2194 0.662 -0.564 -0.493 163 177 178
-1.1661 1.9646 78.4763 -0.209 -0.896 -0.392 159 173 174
-0.0180 1.9165 78.7405 -0.704 -0.643 -0.301 190 205 210
0.0979 1.8492 78.6246 -0.582 -0.615 -0.532 139 154 159
0.2253 1.7966 78.5460 -0.582 -0.615 -0.532 135 150 153
0.0399 1.3647 77.4999 0.343 -0.778 -0.527 129 144 149
0.6923 1.1391 77.1974 0.024 -0.505 -0.863 123 141 151
1.2273 1.1713 77.4453 -0.267 -0.447 -0.854 153 171 181
1.7043 1.3265 77.9551 -0.424 -0.238 -0.874 128 148 157
1.8453 1.2923 77.9230 -0.468 -0.122 -0.875 123 143 152
1.9517 1.2196 77.7917 -0.469 -0.501 -0.728 124 142 152
2.5941 1.3590 78.3192 0.548 -0.412 -0.728 125 143 153
3.6886 0.5115 76.7413 0.094 -0.945 -0.312 129 147 157
3.8663 0.5175 76.8129 -0.639 -0.701 -0.316 156 176 185
4.8371 1.1452 78.5620 -0.464 -0.839 -0.284 132 152 159
5.9305 1.1722 78.9800 -0.161 -0.949 -0.271 116 131 136
6.2860 1.1695 79.0895 -0.418 -0.559 -0.716 132 147 152
6.5229 1.0536 78.9022 -0.680 -0.510 -0.528 129 147 151
6.6462 1.0007 78.8218 -0.623 -0.485 -0.613 183 202 206
6.8910 0.8941 78.6581 -0.551 -0.503 -0.665 199 223 225
7.6142 1.0609 79.2745 -0.009 -0.839 -0.543 199 223 225
7.7012 0.9749 79.1066 0.070 -0.957 -0.280 200 224 226
7.5878 0.7091 78.4629 -0.490 -0.094 -0.867 199 223 225
7.7396 0.6835 78.4538 -0.689 -0.151 -0.709 199 225 226
7.8264 0.6000 78.2916 -0.735 0.136 -0.664 199 225 226
8.6396 0.6780 78.7348 0.045 -0.962 -0.269 201 227 228
22.4178 -0.2876 81.0203 0.509 -0.273 -0.816 192 221 227
23.0691 -0.1492 81.5483 -0.705 -0.640 -0.304 189 218 222
24.0066 -0.4540 81.1583 -0.442 -0.406 -0.800 99 119 125
24.1345 -0.6187 80.8239 -0.312 -0.485 -0.817 70 87 93
24.7667 -0.3821 81.5701 0.278 -0.238 -0.931 62 77 81
24.9546 -0.3956 81.6005 0.286 -0.246 -0.926 63 78 82
25.2958 -0.4421 81.6055 -0.061 -0.297 -0.953 96 111 115
25.2781 -0.5691 81.3098 -0.086 -0.128 -0.988 78 93 96
26.4278 -0.5247 81.7859 0.455 -0.420 -0.785 92 104 102
26.9734 -0.5787 81.8403 -0.278 -0.144 -0.950 69 85 84
27.1403 -0.6048 81.8351 -0.210 -0.229 -0.950 83 99 97
27.0767 -0.7526 81.4770 0.205 -0.401 -0.893 90 106 104
27.3496 -0.7226 81.6344 0.154 -0.118 -0.981 86 102 101
27.5269 -0.7431 81.6453 0.025 -0.257 -0.966 83 102 100
27.7037 -0.7640 81.6554 0.025 -0.257 -0.966 94 115 110
27.8807 -0.7848 81.6654 0.025 -0.257 -0.966 111 134 128
28.1042 -0.7817 81.7454 0.125 -0.120 -0.985 128 151 145
29.1639 -0.3487 83.0790 0.150 -0.126 -0.981 147 170 163
29.2266 -0.6561 82.3979 -0.164 -0.367 -0.916 158 183 179
29.3877 -0.6864 82.3812 -0.164 -0.367 -0.916 163 188 185
29.5625 -0.7098 82.3847 -0.273 -0.161 -0.949 174 196 195
29.7149 -0.7445 82.3552 -0.242 -0.098 -0.965 128 150 148
29.8608 -0.7824 82.3162 -0.354 -0.078 -0.932 127 149 146
30.0016 -0.8228 82.2698 -0.037 0.120 -0.992 129 150 148
30.1253 -0.8716 82.1988 -0.023 0.126 -0.992 147 172 168
31.9791 -0.7333 83.1186 0.343 -0.631 -0.696 151 176 170
32.0804 -0.7936 83.0139 0.158 -0.570 -0.806 150 177 173
32.3481 -0.7742 83.1455 0.140 -0.668 -0.731 151 178 173
32.6754 -0.7268 83.3602 0.194 -0.646 -0.738 150 177 172
32.8341 -0.7599 83.3364 0.312 -0.591 -0.744 152 179 174
33.0676 -0.7578 83.4174 0.346 -0.572 -0.744 152 181 177
34.4942 -0.7384 83.9264 0.249 -0.595 -0.764 151 181 181
38.0958 0.0310 86.8561 0.412 -0.394 -0.822 186 222 220
38.7673 0.1119 87.2597 0.517 -0.494 -0.699 177 207 220
39.8042 0.3512 88.1438 0.529 -0.646 -0.550 169 199 208
-52.4522 19.0140 100.2269 -0.863 0.130 -0.488 246 248 253
-45.4670 14.7770 92.8639 -0.524 -0.307 -0.794 187 208 189
-45.3024 14.7474 92.8499 -0.512 -0.310 -0.801 183 205 189
-45.0722 14.5872 92.5606 -0.228 -0.197 -0.953 180 203 190
-42.6890 14.3217 92.7291 -0.561 -0.662 -0.497 132 160 174
-42.3219 14.1784 92.5224 -0.368 -0.506 -0.780 177 204 221
-40.8948 12.2621 88.6315 -0.050 -0.995 -0.089 200 230 238
-40.1254 13.2720 91.1746 -0.165 -0.700 -0.695 125 152 161
-39.9557 13.2250 91.1228 -0.635 -0.115 -0.764 159 186 195
-39.5973 13.0809 90.9115 -0.626 -0.226 -0.746 182 209 218
-39.4112 12.9895 90.7641 -0.164 -0.405 -0.900 144 172 183
-38.8628 12.7351 90.3639 -0.462 -0.406 -0.789 193 222 230
-33.4761 9.7757 85.3854 -0.585 -0.169 -0.793 63 84 85
-33.5050 11.0650 88.3047 -0.403 0.471 -0.785 130 150 157
-33.3199 10.9296 88.0571 -0.701 0.270 -0.660 137 157 164
-33.1162 10.7138 87.6328 -0.748 -0.039 -0.662 137 157 164
-31.7098 9.1023 84.4275 -0.390 -0.527 -0.755 149 167 171
-31.5574 9.0724 84.4092 -0.365 -0.550 -0.751 149 167 171
-29.3774 9.3337 85.7084 0.037 -0.716 -0.697 135 154 148
-29.0766 9.3422 85.8251 0.025 -0.733 -0.679 141 160 158
-28.9227 9.3236 85.8326 0.134 -0.695 -0.706 140 159 157
-28.0427 9.6174 86.7851 0.776 -0.297 -0.556 143 159 162
-27.4617 8.4439 84.3074 -0.221 0.472 -0.854 170 189 190
-27.3010 8.3340 84.1098 0.507 0.339 -0.792 182 200 202
-25.8770 7.1955 81.9847 0.042 0.106 -0.993 204 223 227
-24.0925 7.0264 82.1784 -0.302 -0.869 -0.391 169 186 202
-21.8601 6.4177 81.5183 -0.272 0.225 -0.936 189 214 226
-16.5250 4.6323 79.1901 -0.729 -0.546 -0.412 194 213 217
-16.2364 4.5679 79.1372 -0.310 -0.690 -0.654 195 213 217
-15.8156 4.4241 78.9469 -0.254 -0.655 -0.712 197 216 218
-15.3805 4.3409 78.8987 -0.152 -0.765 -0.626 196 212 212
-15.2400 4.2964 78.8431 -0.417 -0.365 -0.832 197 211 212
-15.1021 4.2429 78.7661 -0.369 -0.272 -0.889 197 211 212
-14.6305 4.2883 79.0221 0.272 -0.249 -0.929 136 152 152
-14.3265 4.2766 79.0940 -0.607 -0.023 -0.795 123 137 138
-14.2043 4.1719 78.8956 -0.851 -0.284 -0.442 123 137 138
-14.1670 3.3076 76.9445 -0.086 -0.724 -0.685 131 145 146
-13.9981 3.3667 77.1332 -0.067 -0.662 -0.746 135 149 150
-13.0359 2.6642 75.8492 0.421 -0.571 -0.705 141 156 163
-12.0287 2.9408 76.8035 0.284 -0.867 -0.409 141 156 163
-11.5538 3.3690 77.9300 0.660 -0.591 -0.464 143 158 165
-11.5643 2.9572 76.9912 0.002 -0.542 -0.840 143 158 165
-11.4146 2.9487 77.0204 -0.009 -0.528 -0.849 143 158 165
-11.2650 2.9393 77.0475 -0.174 -0.269 -0.947 144 159 164
-11.0387 3.1135 77.5162 -0.606 0.129 -0.785 144 159 164
-10.9110 3.0492 77.4116 -0.618 0.037 -0.785 144 159 164
-10.7834 2.9855 77.3081 -0.618 0.037 -0.785 144 159 164
-9.4729 4.8976 82.0759 -0.709 0.009 -0.705 144 159 164
-9.1256 4.9340 82.2711 -0.105 0.422 -0.900 144 157 163
-8.9708 4.9095 82.2654 0.044 0.380 -0.924 144 157 163
-8.4520 2.9484 77.9788 -0.852 -0.476 -0.218 198 216 220
-8.4522 2.6361 77.2693 -0.017 -0.100 -0.995 200 218 222
-8.1097 2.9961 78.1980 -0.723 -0.588 -0.363 196 214 218
-7.8515 2.8796 78.0169 -0.050 -0.861 -0.507 196 214 218
-7.7005 2.8635 78.0293 -0.050 -0.861 -0.507 196 214 218
-7.4819 2.9734 78.3496 -0.186 -0.968 -0.169 193 212 218
-7.3252 2.9662 78.3841 -0.190 -0.968 -0.162 193 212 218
-5.1741 1.9782 76.8362 0.376 -0.199 -0.905 182 202 211
-4.0703 2.4310 78.2220 0.521 -0.805 -0.285 176 196 205
-4.1811 2.0162 77.2440 -0.183 -0.666 -0.724 175 195 204
-4.0363 1.9896 77.2306 -0.219 -0.681 -0.698 176 196 203
-3.8871 1.9697 77.2335 -0.418 -0.643 -0.642 175 195 202
-3.7666 1.9073 77.1307 -0.438 -0.528 -0.727 170 191 198
-3.6349 1.8619 77.0704 -0.456 -0.514 -0.727 167 189 197
-2.5833 2.1899 78.1558 0.024 -0.935 -0.354 172 188 188
-2.3252 2.0868 78.0053 -0.776 -0.186 -0.603 186 202 202
-2.3737 1.5684 76.8120 -0.353 -0.707 -0.612 185 201 201
-2.0797 1.5225 76.8028 -0.291 -0.780 -0.554 177 193 193
-1.5455 2.0138 78.0918 0.027 -0.699 -0.715 170 186 186
-1.3948 1.9918 78.0906 -0.027 -0.714 -0.700 163 179 179
-1.1669 2.0706 78.3434 -0.151 -0.933 -0.327 159 175 175
-0.2610 2.1472 78.8108 -0.330 -0.757 -0.564 178 193 196
0.0646 1.9167 78.3925 -0.615 -0.612 -0.497 146 161 166
0.1760 1.8446 78.2650 -0.578 -0.676 -0.456 140 155 158
0.0470 1.4806 77.3963 0.314 -0.806 -0.501 133 148 153
3.0172 0.8134 76.8423 0.401 -0.909 -0.109 130 147 157
3.5556 1.1996 77.8939 0.667 -0.406 -0.625 127 144 152
3.4770 0.7567 76.8624 0.066 -0.448 -0.892 127 144 152
3.6322 0.5633 76.4733 0.061 -0.941 -0.333 129 148 155
4.6889 1.2863 78.4577 -0.468 -0.842 -0.269 148 167 174
4.8076 1.2283 78.3645 -0.464 -0.839 -0.284 135 154 161
6.2371 1.2372 78.8475 -0.102 -0.704 -0.703 132 147 152
6.3684 1.1915 78.7863 -0.567 -0.672 -0.476 130 148 152
6.5019 1.1482 78.7309 -0.568 -0.668 -0.481 130 148 152
6.6418 1.1111 78.6921 -0.524 -0.668 -0.529 181 200 204
7.6485 1.0426 78.8624 0.070 -0.957 -0.280 206 230 232
8.2558 0.4581 77.7313 -0.178 0.109 -0.978 201 227 228
16.1916 -1.0825 76.8010 0.145 -0.987 0.065 203 233 235
23.0561 -0.0298 81.4147 -0.691 -0.704 -0.166 189 218 222
24.1116 -0.3866 80.9461 -0.344 -0.593 -0.728 105 124 131
25.0085 -0.2374 81.5752 0.286 -0.246 -0.926 78 93 98
25.3471 -0.2855 81.5757 -0.072 -0.344 -0.936 100 115 120
25.3082 -0.4248 81.2466 -0.083 -0.133 -0.988 87 102 108
25.4852 -0.4443 81.2597 -0.294 -0.162 -0.942 83 97 99
27.3688 -0.5835 81.5533 0.328 -0.214 -0.920 85 103 103
27.6806 -0.5333 81.7682 0.243 -0.700 -0.671 81 99 99
27.9161 -0.5237 81.8663 0.089 -0.795 -0.600 96 116 115
28.1008 -0.5410 81.8869 -0.010 -0.880 -0.475 117 137 135
28.2886 -0.5566 81.9122 -0.010 -0.880 -0.475 142 164 161
28.4478 -0.5873 81.8941 0.053 -0.876 -0.479 152 175 170
29.2792 -0.4985 82.3650 -0.152 -0.394 -0.906 169 191 190
29.4419 -0.5280 82.3505 -0.152 -0.394 -0.906 172 196 198
29.6032 -0.5583 82.3339 -0.152 -0.456 -0.877 202 226 228
29.7619 -0.5899 82.3135 -0.216 -0.046 -0.975 119 140 144
29.8972 -0.6333 82.2588 -0.285 -0.259 -0.923 105 126 129
30.0515 -0.6671 82.2321 -0.191 -0.125 -0.974 108 129 131
30.2062 -0.7006 82.2060 -0.191 -0.125 -0.974 109 133 135
31.5281 -0.1552 83.8729 0.356 -0.586 -0.728 114 139 138
31.9703 -0.7140 82.7467 0.237 -0.475 -0.848 150 176 173
32.3920 -0.6202 83.0963 0.155 -0.771 -0.618 151 178 173
33.1294 -0.5949 83.3926 0.244 -0.810 -0.533 152 181 179
33.4063 -0.5724 83.5333 0.181 -0.813 -0.554 152 181 180
33.6667 -0.5581 83.6501 0.097 -0.840 -0.534 153 182 180
34.4842 -0.6083 83.8008 0.269 -0.673 -0.689 153 181 182
37.8576 0.1733 86.6684 0.412 -0.394 -0.822 204 238 239
38.1415 0.1917 86.8019 0.412 -0.394 -0.822 199 235 232
38.7927 0.2643 87.1777 0.515 -0.496 -0.699 182 211 225
39.0914 0.2878 87.3279 0.555 -0.123 -0.823 183 212 224
39.6461 0.4240 87.8169 0.539 -0.637 -0.551 185 215 224
-48.1785 9.0124 78.5417 -0.880 -0.445 -0.168 99 107 123
-51.5485 18.4841 98.8694 -0.146 0.103 -0.984 241 248 252
-43.0671 14.6702 92.9760 -0.552 -0.794 -0.253 151 182 187
-42.3012 14.3155 92.4206 -0.359 -0.516 -0.778 183 210 227
-42.1307 14.2727 92.3787 -0.564 -0.254 -0.785 131 158 175
-40.8305 12.2888 88.3120 -0.118 -0.993 -0.027 200 230 239
-40.0891 13.3667 90.9872 -0.144 -0.684 -0.715 122 149 158
-39.5842 13.2340 90.8497 -0.630 -0.214 -0.746 178 205 213
-35.3438 11.3789 88.0202 -0.764 -0.493 -0.416 193 220 227
-35.2013 11.4037 88.1221 0.461 -0.761 -0.456 160 187 194
-33.4617 9.9175 85.3219 -0.575 -0.176 -0.799 133 157 157
-31.3812 9.1392 84.2318 -0.295 -0.573 -0.764 150 168 171
-31.2169 9.0497 84.0822 -0.341 -0.638 -0.690 150 167 170
-31.0583 8.9866 83.9907 -0.349 -0.641 -0.684 152 166 165
-30.9004 8.9258 83.9040 -0.356 -0.607 -0.710 152 167 167
-30.7925 9.1283 84.3964 -0.433 -0.810 -0.395 151 166 166
-30.6607 9.2112 84.6263 -0.040 -0.855 -0.517 152 166 166
-30.1603 9.7564 86.0196 -0.525 0.048 -0.850 142 160 159
-29.9845 9.6051 85.7343 -0.451 0.115 -0.885 141 160 156
-29.8141 9.4811 85.5088 -0.389 0.133 -0.912 141 160 157
-29.0514 9.4166 85.6084 0.213 -0.727 -0.653 141 159 159
-28.1710 9.6788 86.4842 0.476 -0.739 -0.477 161 179 183
-26.0359 7.7763 82.8702 -0.658 -0.496 -0.567 206 230 234
-25.8589 7.2902 81.8283 -0.177 -0.420 -0.890 214 236 241
-25.7111 7.2777 81.8475 -0.167 -0.419 -0.892 211 232 237
-25.5637 7.2752 81.8893 -0.069 -0.399 -0.914 199 220 224
-25.2640 7.1686 81.7448 -0.261 -0.533 -0.805 201 221 224
-23.6286 6.9478 81.7718 -0.431 0.274 -0.860 190 215 233
-23.3351 6.5877 81.0522 0.006 -0.045 -0.999 193 219 242
-22.1308 6.8180 81.9601 -0.388 0.111 -0.915 193 222 235
-15.6775 4.4340 78.6468 -0.498 -0.405 -0.767 195 213 213
-15.5344 4.4003 78.6167 -0.483 -0.467 -0.741 197 213 213
-15.3729 4.4366 78.7508 -0.101 -0.680 -0.726 196 212 212
-15.2192 4.4415 78.8111 -0.299 0.024 -0.954 197 213 213
-15.0841 4.3775 78.7099 0.535 -0.360 -0.764 196 212 212
-14.9254 4.3995 78.8106 0.535 -0.360 -0.764 137 153 153
-14.7662 4.4215 78.9117 0.535 -0.360 -0.764 145 161 161
-14.1909 3.3051 76.5730 0.181 -0.436 -0.882 132 148 148
-14.0352 3.3247 76.6674 0.256 -0.429 -0.866 134 150 150
-13.3079 2.8168 75.7532 0.176 -0.609 -0.773 136 153 161
-13.1639 2.8025 75.7672 -0.281 -0.491 -0.824 139 156 164
-12.7326 2.7562 75.8013 0.123 -0.693 -0.710 139 156 164
-8.7676 3.3684 78.4606 -0.795 -0.493 -0.352 142 157 162
-8.6492 3.2850 78.3102 -0.795 -0.493 -0.352 203 221 225
-8.5313 3.2019 78.1603 -0.795 -0.493 -0.352 198 216 220
-7.8482 2.9819 77.8827 0.031 -0.868 -0.496 190 208 212
-4.9385 2.4526 77.6223 0.301 0.168 -0.939 168 188 195
-4.8573 2.3246 77.3590 -0.236 -0.388 -0.891 177 197 204
-4.1789 2.1212 77.1172 -0.195 -0.687 -0.700 179 203 211
-4.0300 2.1011 77.1198 -0.219 -0.681 -0.698 179 202 208
-3.7478 2.0372 77.0662 -0.440 -0.644 -0.625 184 207 213
-2.7656 2.2712 77.9112 0.026 -0.938 -0.346 177 192 194
-2.6035 2.2664 77.9524 0.024 -0.935 -0.354 178 194 194
-2.4193 2.2919 78.0694 -0.774 -0.206 -0.598 195 211 211
-2.3044 2.2206 77.9452 -0.774 -0.206 -0.598 188 204 204
-2.5121 1.7067 76.7166 -0.353 -0.703 -0.617 184 200 200
-2.3671 1.6812 76.7054 -0.375 -0.743 -0.555 185 201 201
-2.0814 1.6242 76.6686 -0.294 -0.757 -0.584 173 189 189
-1.5446 2.1211 77.9645 -0.027 -0.714 -0.700 168 184 184
-1.3884 2.1064 77.9816 -0.026 -0.738 -0.675 161 177 177
-1.0011 2.1743 78.2596 -0.235 -0.962 -0.136 170 186 186
-0.2708 2.2431 78.6502 -0.304 -0.617 -0.726 179 194 197
0.0637 2.0238 78.2619 -0.615 -0.612 -0.497 156 171 176
0.1697 1.9450 78.1180 -0.564 -0.687 -0.459 143 158 161
-0.0127 1.5147 77.0866 0.543 -0.502 -0.674 137 152 157
0.1993 1.5686 77.2766 0.067 -0.757 -0.650 120 135 140
0.3972 1.4024 76.9646 -0.662 -0.377 -0.648 126 143 151
2.4607 0.5100 75.6109 0.297 -0.906 -0.303 119 138 145
6.2314 1.3460 78.7137 -0.094 -0.713 -0.695 134 152 156
6.4886 1.2498 78.5791 -0.563 -0.665 -0.491 134 152 156
6.6213 1.2060 78.5228 -0.522 -0.659 -0.541 165 184 188
7.5878 1.2680 78.9739 -0.259 -0.183 -0.948 202 223 226
14.3033 0.3739 79.1129 -0.869 0.280 -0.408 192 219 226
14.3644 0.2790 78.9179 -0.869 0.280 -0.408 192 219 226
14.4579 0.2082 78.7879 -0.628 0.068 -0.775 192 219 226
14.5688 0.1504 78.6930 -0.628 0.068 -0.775 192 221 227
14.6501 0.0717 78.5412 -0.608 -0.001 -0.794 192 221 227
25.3794 -0.1394 81.5157 -0.057 -0.185 -0.981 102 117 124
25.2900 -0.3073 81.1072 -0.115 -0.130 -0.985 97 114 120
25.4720 -0.3238 81.1284 -0.116 -0.121 -0.986 103 117 119
25.7636 -0.2801 81.3210 0.506 -0.328 -0.798 97 111 111
26.2409 -0.2524 81.5372 0.467 -0.361 -0.807 102 114 112
27.4244 -0.4251 81.5275 0.342 -0.196 -0.919 95 113 115
27.6477 -0.4214 81.6078 0.041 -0.650 -0.758 94 112 114
27.9754 -0.3630 81.8451 0.257 -0.723 -0.642 93 113 114
28.1477 -0.3867 81.8470 0.345 -0.670 -0.657 117 137 136
28.3952 -0.3713 81.9614 0.345 -0.670 -0.657 144 164 163
28.5575 -0.4005 81.9477 0.221 -0.641 -0.735 149 169 167
29.1970 -0.2967 82.3880 -0.127 -0.658 -0.742 156 178 177
29.3081 -0.3529 82.2967 -0.152 -0.394 -0.906 168 189 192
29.4709 -0.3824 82.2823 -0.152 -0.394 -0.906 177 197 204
29.6348 -0.4114 82.2695 -0.158 -0.475 -0.866 198 221 228
29.8344 -0.4224 82.3090 0.175 -0.609 -0.774 128 151 158
29.9242 -0.4888 82.1876 -0.308 -0.299 -0.903 97 120 127
30.0935 -0.5151 82.1827 -0.246 -0.331 -0.911 105 128 135
30.2463 -0.5496 82.1539 -0.246 -0.331 -0.911 100 123 130
31.5502 -0.0104 83.7922 0.352 -0.582 -0.733 92 116 122
30.8705 -0.5710 82.3062 0.261 -0.423 -0.868 99 123 126
31.1361 -0.5502 82.4387 0.404 -0.576 -0.710 103 127 130
32.3206 -0.5217 82.8843 0.143 -0.752 -0.644 150 176 173
33.4725 -0.4070 83.5140 0.069 -0.882 -0.466 151 179 181
33.6838 -0.4158 83.5621 0.069 -0.882 -0.466 152 180 183
39.2231 0.4879 87.3869 0.555 -0.123 -0.823 195 223 235
-47.9901 8.8698 77.9338 -0.880 -0.445 -0.168 102 114 129
-51.5637 18.6940 98.8937 -0.146 0.103 -0.984 230 242 250
-46.8359 16.3250 95.0752 -0.557 -0.774 -0.301 240 252 244
-46.0925 15.1886 92.7562 0.645 -0.206 -0.736 184 203 192
-45.6573 15.2147 92.9540 -0.478 -0.304 -0.824 186 209 197
-45.4690 15.1389 92.8437 -0.514 -0.300 -0.804 186 207 196
-45.0851 14.9711 92.5888 -0.342 0.028 -0.939 136 159 149
-44.9029 14.9056 92.4998 -0.445 -0.031 -0.895 111 135 128
-43.7942 14.4701 91.8742 0.033 -0.092 -0.995 207 235 245
-42.4464 14.4852 92.3391 -0.338 -0.658 -0.673 168 195 214
-42.2724 14.4344 92.2803 -0.310 -0.656 -0.688 181 208 225
-40.6161 13.7372 91.2413 -0.735 -0.387 -0.557 169 200 205
-39.5618 13.3629 90.7362 -0.487 -0.667 -0.565 184 211 219
-38.1955 12.9386 90.2183 0.511 -0.145 -0.848 200 229 233
-35.3680 10.6600 85.9957 -0.813 -0.127 -0.569 195 219 225
-35.3152 11.4772 87.8512 -0.764 -0.493 -0.416 201 226 230
-35.1760 11.5131 87.9765 0.459 -0.765 -0.452 171 196 201
-33.2960 10.0405 85.2642 -0.502 0.049 -0.864 139 160 161
-32.0049 9.5312 84.5311 0.026 -0.904 -0.428 152 169 170
-31.8496 10.1825 86.0460 -0.354 -0.234 -0.906 152 168 169
-30.1501 9.9309 86.0233 -0.525 0.048 -0.850 145 163 163
-29.6448 9.6012 85.4430 -0.374 0.198 -0.906 142 160 161
-28.6093 9.7796 86.1754 0.270 -0.811 -0.519 201 222 227
-28.3064 9.8051 86.3295 0.687 -0.473 -0.552 214 234 240
-27.6631 8.0985 82.6956 0.008 -0.974 -0.228 202 225 230
-22.8695 6.8643 81.4511 0.211 -0.004 -0.978 191 222 243
-15.3518 4.5830 78.7216 -0.279 -0.317 -0.906 196 212 212
-15.2157 4.5222 78.6282 0.285 -0.298 -0.911 196 212 212
-15.0658 4.5133 78.6561 0.526 -0.344 -0.778 196 212 212
-14.9067 4.5365 78.7593 0.535 -0.360 -0.764 137 153 153
-14.7505 4.5476 78.8340 0.494 -0.328 -0.805 144 160 160
-14.5921 4.5654 78.9249 0.334 -0.252 -0.908 136 152 152
-8.8819 3.5554 78.4776 -0.748 -0.219 -0.627 139 154 159
-8.7650 3.4679 78.3182 -0.580 -0.336 -0.742 141 156 161
-8.6349 3.4085 78.2262 -0.735 -0.252 -0.629 203 221 225
-4.7968 2.5211 77.4564 -0.517 -0.430 -0.740 166 186 193
-4.1726 2.2324 77.0064 -0.195 -0.687 -0.700 143 167 174
-4.0236 2.2124 77.0092 -0.219 -0.681 -0.698 143 166 172
-3.8773 2.1884 77.0019 -0.407 -0.651 -0.641 144 167 173
-3.7431 2.1464 76.9504 -0.440 -0.644 -0.625 139 163 168
-3.6134 2.0980 76.8828 -0.487 -0.567 -0.665 138 163 170
-3.2295 2.4202 77.7304 -0.366 -0.667 -0.649 139 164 169
-3.0755 2.4046 77.7445 0.064 -0.693 -0.718 140 163 167
-2.7830 2.3509 77.7173 0.024 -0.935 -0.354 145 160 162
-2.4115 2.4078 77.9639 -0.524 -0.424 -0.739 164 180 180
-2.2861 2.3511 77.8765 -0.774 -0.206 -0.598 154 170 170
-2.5100 1.8130 76.5944 -0.353 -0.703 -0.617 151 167 167
-2.3678 1.7838 76.5742 -0.371 -0.751 -0.547 150 166 166
-2.0830 1.7261 76.5353 -0.299 -0.757 -0.581 158 174 174
-1.3861 2.2156 77.8593 -0.086 -0.901 -0.425 148 164 164
-0.2778 2.3423 78.4987 -0.399 -0.588 -0.703 161 176 179
-0.0898 2.1517 78.1298 -0.606 -0.618 -0.501 176 191 196
0.0421 2.1050 78.0669 -0.609 -0.623 -0.491 142 157 162
0.1311 2.0054 77.8714 -0.568 -0.683 -0.459 143 158 161
0.1940 1.6692 77.1351 0.063 -0.765 -0.641 119 134 139
0.4199 1.5366 76.9090 -0.655 -0.402 -0.640 126 143 151
3.3291 1.3644 77.4514 0.634 -0.445 -0.633 131 150 156
3.5642 1.4305 77.6753 0.434 -0.752 -0.497 128 147 153
5.2621 1.3793 78.1028 -0.217 -0.851 -0.478 126 140 149
6.0426 1.4499 78.5111 -0.104 -0.877 -0.468 126 143 150
6.2321 1.4606 78.5958 -0.094 -0.713 -0.695 137 154 161
7.6349 1.4268 78.9681 -0.236 -0.054 -0.970 162 183 186
14.5782 0.2765 78.5995 -0.617 0.068 -0.784 192 221 227
14.4738 0.0634 78.0867 0.178 -0.221 -0.959 192 221 227
14.6147 0.0285 78.0532 0.238 -0.159 -0.958 192 221 229
14.8021 0.0268 78.1093 0.230 -0.157 -0.960 193 222 230
14.9868 0.0230 78.1597 0.184 -0.238 -0.954 193 222 230
15.2331 0.0626 78.3275 -0.105 -0.495 -0.862 193 222 230
15.3324 -0.0021 78.2136 0.089 -0.206 -0.974 193 222 230
16.6067 0.0813 78.8087 0.294 -0.147 -0.944 190 220 228
18.3363 0.5864 80.4977 0.281 -0.957 -0.068 202 232 234
22.9348 0.2756 81.2684 0.519 -0.566 -0.641 196 225 229
24.6992 -0.1565 80.8602 0.286 -0.443 -0.850 97 112 119
24.9163 -0.1527 80.9381 0.227 -0.404 -0.886 96 111 118
25.0836 -0.1771 80.9367 0.246 -0.358 -0.901 103 120 127
25.2883 -0.1807 80.9940 0.246 -0.358 -0.901 104 121 127
25.4876 -0.1876 81.0423 0.268 -0.328 -0.906 100 114 118
26.9276 -0.1002 81.6993 0.050 0.010 -0.999 49 65 65
27.4354 -0.2903 81.4337 0.469 -0.292 -0.834 104 122 124
27.6549 -0.2884 81.5083 0.130 -0.634 -0.762 109 127 129
27.8815 -0.2830 81.5928 0.077 -0.703 -0.707 93 113 114
28.0180 -0.3253 81.5413 -0.206 -0.862 -0.463 112 132 131
28.2124 -0.3371 81.5768 -0.243 -0.845 -0.476 144 164 163
28.3908 -0.3575 81.5880 -0.252 -0.847 -0.467 144 164 162
28.6965 -0.3118 81.7885 -0.234 -0.858 -0.458 148 168 166
28.9170 -0.3108 81.8612 0.336 -0.688 -0.643 161 181 181
29.6550 -0.2703 82.1883 -0.158 -0.475 -0.866 186 208 219
29.8391 -0.2890 82.2051 0.175 -0.609 -0.774 150 172 184
30.1406 -0.3604 82.1407 -0.236 -0.353 -0.905 75 97 108
30.2764 -0.4035 82.0871 -0.231 -0.344 -0.910 86 110 121
31.4012 -0.3982 82.4587 0.080 -0.562 -0.823 99 124 128
31.8258 -0.4102 82.5674 0.114 -0.561 -0.820 143 172 170
31.9849 -0.4424 82.5458 0.143 -0.528 -0.837 179 208 206
32.2956 -0.4011 82.7380 0.143 -0.752 -0.644 192 221 217
32.7907 -0.3809 82.9416 0.291 -0.784 -0.549 167 195 197
33.0254 -0.3775 83.0243 0.079 -0.636 -0.768 160 188 192
33.3023 -0.3542 83.1652 -0.251 -0.653 -0.715 155 182 188
33.5917 -0.3254 83.3225 0.299 -0.793 -0.531 141 168 174
33.8253 -0.3235 83.4014 0.019 -0.911 -0.412 142 170 174
36.2333 0.3679 85.7267 0.265 -0.756 -0.598 154 180 181
37.5326 0.4151 86.2481 0.202 -0.819 -0.536 139 172 171
39.2371 0.6357 87.2892 0.486 -0.102 -0.868 174 201 208
-48.7597 9.8079 79.4464 -0.874 -0.459 -0.161 0 1 1
-46.9915 16.5126 95.0198 -0.692 -0.313 -0.650 253 254 251
-45.4558 15.2924 92.7754 -0.524 -0.292 -0.800 155 174 174
-45.2771 15.2350 92.7038 -0.511 -0.301 -0.806 149 168 168
-45.0832 15.1468 92.5679 -0.491 -0.249 -0.835 117 137 134
-44.8951 15.0695 92.4544 -0.494 -0.251 -0.833 122 143 144
-43.7766 14.6130 91.7876 -0.172 -0.161 -0.972 206 233 243
-43.0181 13.9431 90.5286 -0.571 -0.796 -0.200 198 229 232
-42.5945 14.6614 92.2714 -0.498 -0.724 -0.478 156 184 198
-42.4265 14.6241 92.2413 -0.551 -0.674 -0.491 174 201 220
-40.8139 12.6044 88.2312 0.089 -0.931 -0.355 197 227 235
-40.5922 13.8639 91.1217 -0.735 -0.387 -0.557 165 195 203
-39.5358 13.4823 90.6029 -0.489 -0.704 -0.515 185 212 221
-37.7628 11.4869 86.6982 -0.728 0.027 -0.685 199 228 234
-35.1597 11.6539 87.8987 0.057 0.034 -0.998 150 173 173
-34.4353 10.6644 85.9134 -0.500 -0.008 -0.866 145 164 162
-33.6001 10.2828 85.3243 -0.600 -0.137 -0.789 153 172 168
-33.4347 10.2090 85.2114 -0.600 -0.137 -0.789 150 169 166
-33.2694 10.1339 85.0958 -0.596 -0.134 -0.792 147 166 163
-33.6066 12.1034 89.3984 0.025 0.154 -0.988 141 160 159
-31.9399 10.1208 85.4886 -0.361 -0.195 -0.912 152 166 165
-30.2960 10.1358 86.0443 0.133 -0.783 -0.607 119 134 134
-30.1364 10.0850 85.9812 -0.517 -0.104 -0.850 105 122 125
-29.6376 9.7966 85.4941 -0.424 0.126 -0.897 125 142 148
-29.4802 9.7528 85.4458 -0.402 0.164 -0.901 129 146 152
-28.2894 9.9414 86.2463 0.797 -0.429 -0.425 194 217 223
-24.0449 7.5618 82.2664 -0.226 0.247 -0.942 188 217 231
-14.7427 4.6463 78.6927 0.139 -0.936 -0.323 145 161 161
-14.5833 4.6679 78.7918 0.132 -0.948 -0.288 137 153 153
-8.7474 3.5982 78.2501 -0.227 -0.090 -0.970 140 155 160
-8.6048 3.5645 78.2199 -0.227 -0.090 -0.970 183 201 205
-8.4713 3.5123 78.1454 -0.357 -0.144 -0.923 184 202 206
-6.2854 2.5490 76.6827 -0.300 -0.639 -0.708 138 157 163
-5.2382 2.4315 76.7524 0.285 -0.153 -0.946 165 185 192
-4.7825 2.6448 77.3746 -0.517 -0.430 -0.740 167 187 194
-4.1616 2.3507 76.9133 -0.229 -0.678 -0.698 190 213 221
-4.0185 2.3219 76.8943 -0.229 -0.678 -0.698 189 212 218
-3.7396 2.2536 76.8300 -0.435 -0.646 -0.628 188 211 217
-3.6053 2.2121 76.7797 -0.487 -0.567 -0.665 186 210 217
-3.0741 2.5103 77.6161 0.075 -0.681 -0.728 188 209 214
-2.9443 2.4601 77.5449 -0.071 -0.823 -0.563 186 204 207
-2.7912 2.4433 77.5558 0.061 -0.853 -0.519 180 196 197
-2.6320 2.4351 77.5881 0.061 -0.853 -0.519 180 196 196
-2.3975 2.5323 77.8803 -0.495 -0.219 -0.841 198 214 214
-2.5086 1.9183 76.4701 -0.338 -0.744 -0.577 197 213 213
-2.3681 1.8869 76.4444 -0.361 -0.744 -0.562 196 212 212
-2.0877 1.8235 76.3915 -0.299 -0.763 -0.574 181 197 197
-1.4029 2.2992 77.6742 -0.093 -0.905 -0.415 167 183 183
-0.2913 2.4330 78.3267 -0.336 -0.537 -0.773 183 198 201
-0.2585 2.2598 77.9493 -0.079 -0.895 -0.440 188 203 208
-0.1187 2.2231 77.9115 0.014 -0.805 -0.593 197 212 217
0.0443 2.2155 77.9464 -0.190 -0.870 -0.455 160 175 180
0.1822 1.7618 76.9742 0.095 -0.779 -0.620 121 136 141
0.4291 1.6547 76.8129 -0.649 -0.412 -0.639 126 143 151
3.2957 1.4389 77.2402 0.386 -0.823 -0.418 135 156 161
3.3938 1.3600 77.0946 -0.841 -0.509 -0.183 127 148 153
3.7029 0.9643 76.3067 -0.268 -0.382 -0.884 134 148 157
5.2458 1.4756 77.9417 -0.081 -0.695 -0.714 126 140 149
6.0419 1.5629 78.3898 -0.026 -0.833 -0.552 121 138 145
6.2622 1.6038 78.5515 -0.307 -0.643 -0.701 137 154 161
5.5926 0.7855 76.5066 0.103 -0.932 -0.349 137 155 159
14.6141 0.4219 78.5576 -0.874 0.184 -0.450 194 221 228
14.6706 0.1874 78.0504 0.243 -0.153 -0.958 198 227 233
14.8974 0.2140 78.1820 0.206 -0.391 -0.897 198 227 233
15.0847 0.2118 78.2368 0.074 -0.454 -0.888 197 226 232
15.2505 0.1941 78.2498 -0.105 -0.495 -0.862 196 225 231
15.4073 0.1699 78.2454 -0.010 -0.414 -0.910 196 225 231
16.3163 0.1349 78.4556 -0.575 0.069 -0.815 190 219 227
16.6625 0.2403 78.8016 0.261 -0.181 -0.948 191 220 228
24.8878 -0.0417 80.7825 0.267 -0.149 -0.952 75 90 97
25.3023 -0.0454 80.9056 0.320 -0.229 -0.919 111 127 133
25.5183 -0.0428 80.9801 0.320 -0.229 -0.919 84 98 102
26.7567 0.0528 81.5874 -0.268 -0.849 -0.456 95 109 109
26.9105 0.0196 81.5620 -0.194 -0.830 -0.522 59 75 75
27.1364 0.0255 81.6469 -0.230 -0.823 -0.520 57 72 75
27.2690 -0.1353 81.3291 -0.208 -0.743 -0.637 75 95 96
27.5405 -0.1052 81.4827 0.112 -0.662 -0.741 101 121 122
27.8894 -0.1495 81.4942 0.066 -0.709 -0.702 102 120 120
28.0081 -0.2012 81.4161 -0.031 -0.661 -0.750 114 133 131
28.1860 -0.2217 81.4268 -0.031 -0.661 -0.750 138 157 155
28.3639 -0.2421 81.4376 -0.031 -0.661 -0.750 135 154 152
28.6225 -0.2206 81.5679 -0.148 -0.817 -0.557 146 165 162
29.6508 -0.1416 82.0714 -0.181 -0.502 -0.846 177 199 210
29.8439 -0.1556 82.1012 0.175 -0.609 -0.774 176 198 211
30.0024 -0.1874 82.0804 -0.302 -0.294 -0.907 61 83 96
30.1807 -0.2092 82.0884 -0.016 -0.664 -0.747 67 89 100
30.3424 -0.2393 82.0722 0.066 -0.723 -0.687 62 86 98
31.5459 0.2547 83.5606 0.379 -0.570 -0.729 160 184 194
30.9271 -0.2802 82.1664 0.094 -0.606 -0.790 99 124 131
31.8176 -0.2821 82.4450 0.150 -0.573 -0.806 141 170 168
31.9748 -0.3152 82.4208 0.236 -0.659 -0.714 182 211 209
32.6384 -0.2118 82.8629 0.406 -0.449 -0.796 197 226 224
32.7982 -0.2443 82.8410 0.195 -0.705 -0.682 199 227 230
33.0298 -0.2421 82.9194 0.062 -0.631 -0.773 206 233 240
33.2974 -0.2230 83.0471 -0.251 -0.653 -0.715 174 201 210
33.5276 -0.2222 83.1221 0.307 -0.789 -0.532 133 160 169
33.7314 -0.2341 83.1600 -0.013 -0.894 -0.448 144 172 178
33.9485 -0.2399 83.2161 0.058 -0.906 -0.419 143 171 174
37.6290 0.5987 86.2627 0.296 -0.608 -0.737 145 174 175
37.8920 0.6087 86.3685 0.298 -0.615 -0.730 147 178 180
38.8892 0.7306 86.9582 0.540 -0.544 -0.643 152 178 184
39.2991 0.8051 87.2551 0.564 -0.622 -0.543 154 179 177
-47.3558 16.8058 95.1337 -0.645 -0.169 -0.745 254 253 251
-47.3031 16.9970 95.5763 -0.539 0.178 -0.823 254 253 251
-46.9768 16.6670 94.9440 -0.613 -0.215 -0.760 253 254 251
-45.0534 15.2663 92.4298 -0.636 -0.565 -0.525 140 159 165
-44.8546 15.1668 92.2708 -0.623 -0.569 -0.537 150 171 176
-43.9263 14.7934 91.7317 -0.730 0.197 -0.655 199 225 238
-43.2819 15.0262 92.4537 -0.590 -0.507 -0.628 187 218 220
-43.1414 15.0506 92.5525 -0.620 -0.427 -0.658 156 187 190
-42.4113 14.7739 92.1662 -0.521 -0.668 -0.531 185 210 229
-40.4584 12.6277 88.0001 0.161 -0.614 -0.773 200 231 234
-40.5702 13.9952 91.0120 -0.739 -0.392 -0.548 164 194 202
-40.0319 13.7807 90.7040 -0.189 -0.726 -0.661 125 152 163
-37.3820 11.4119 86.2617 -0.638 -0.439 -0.633 200 228 231
-35.3078 11.8443 87.8797 -0.054 0.022 -0.998 173 194 192
-35.1545 11.8331 87.9031 0.303 -0.050 -0.952 145 165 163
-34.4032 10.7432 85.7116 -0.683 -0.366 -0.632 145 163 157
-34.2399 10.6823 85.6274 -0.657 -0.364 -0.660 146 163 155
-33.4234 10.3635 85.1747 -0.402 -0.699 -0.591 148 165 159
-32.0490 10.8452 86.6817 0.764 -0.052 -0.643 170 182 178
-30.7466 10.3554 86.0013 -0.257 -0.943 -0.209 101 112 108
-30.4148 10.1828 85.7214 0.192 -0.917 -0.350 80 91 90
-30.2632 10.1772 85.7568 -0.143 -0.940 -0.311 77 91 93
-30.1163 10.2007 85.8554 -0.502 -0.798 -0.332 79 96 100
-29.7908 10.0548 85.6331 -0.518 -0.615 -0.595 71 88 96
-29.6285 9.9815 85.5209 -0.570 -0.102 -0.816 105 122 130
-29.4686 9.9218 85.4384 -0.568 -0.103 -0.816 139 156 164
-15.2143 4.6624 78.2168 -0.012 -0.174 -0.985 210 226 226
-15.0605 4.6696 78.2813 -0.461 -0.243 -0.853 206 222 222
-14.7740 4.6054 78.2286 -0.413 -0.401 -0.817 147 163 163
-14.4292 4.7424 78.6428 0.047 -0.961 -0.274 134 150 150
-10.1885 3.2862 76.7360 -0.393 0.010 -0.919 140 158 162
-10.0475 3.2555 76.7121 -0.399 0.000 -0.917 140 155 160
-9.9137 3.2090 76.6508 -0.387 -0.009 -0.922 140 155 160
-9.6389 3.1329 76.5679 -0.191 0.046 -0.980 140 155 160
-8.7304 3.7273 78.1791 0.116 -0.114 -0.987 138 153 158
-8.5847 3.6998 78.1638 -0.105 0.036 -0.994 152 170 174
-8.4356 3.6791 78.1647 -0.098 0.046 -0.994 175 193 197
-7.7468 3.4645 77.9038 0.191 0.036 -0.981 188 206 210
-7.5066 3.0147 76.9773 0.007 0.057 -0.998 195 214 220
-6.2765 2.6620 76.5795 -0.304 -0.649 -0.698 168 187 193
-6.1430 2.6184 76.5245 -0.216 -0.543 -0.811 184 203 209
-5.1851 2.6172 76.8241 0.296 0.171 -0.940 181 201 208
-4.6311 2.7289 77.2478 0.399 -0.429 -0.810 191 211 218
-4.1509 2.4683 76.8186 -0.250 -0.665 -0.704 182 205 213
-4.0087 2.4382 76.7965 -0.250 -0.665 -0.704 183 203 210
-3.7342 2.3636 76.7169 -0.424 -0.656 -0.625 188 209 216
-3.6007 2.3208 76.6637 -0.430 -0.656 -0.621 174 197 205
-2.9469 2.5600 77.4029 -0.061 -0.823 -0.565 177 195 198
-2.5057 2.0254 76.3509 -0.329 -0.800 -0.502 183 199 199
-2.3668 1.9919 76.3200 -0.331 -0.802 -0.496 183 199 199
-2.0880 1.9266 76.2627 -0.339 -0.770 -0.540 170 186 186
0.0118 1.8646 76.7870 0.527 -0.496 -0.691 147 162 167
0.2873 1.9976 77.1702 0.527 -0.779 -0.339 121 136 141
3.1659 1.9700 78.0171 -0.734 -0.554 -0.393 166 185 191
3.2736 1.8983 77.8913 -0.738 -0.548 -0.395 167 186 192
3.5735 1.1167 76.2443 -0.329 -0.569 -0.754 128 145 153
3.7246 1.0961 76.2462 -0.272 -0.410 -0.871 133 147 156
4.4057 1.0911 76.4500 0.425 -0.091 -0.900 121 135 144
5.2428 1.5851 77.8149 -0.064 -0.677 -0.733 126 140 149
6.2448 1.7009 78.3890 -0.346 -0.688 -0.638 138 155 162
14.7962 0.6745 78.8004 -0.337 -0.060 -0.940 167 194 201
14.5815 0.3788 78.0736 0.128 -0.324 -0.937 169 196 203
14.9269 0.3541 78.1278 0.206 -0.391 -0.897 176 203 210
15.1075 0.3473 78.1694 0.074 -0.454 -0.888 188 215 222
15.2679 0.3257 78.1720 -0.105 -0.495 -0.862 191 218 225
16.2835 0.3660 78.5824 0.112 0.193 -0.975 192 221 227
16.3644 0.2882 78.4345 -0.575 0.069 -0.815 191 220 226
16.8206 0.3364 78.6857 0.129 0.061 -0.990 192 221 226
17.4147 0.3437 78.8897 -0.061 -0.985 -0.160 193 223 223
18.2549 0.6453 79.8267 0.241 -0.969 -0.062 202 230 231
24.9993 0.1487 80.8484 0.268 -0.714 -0.647 72 87 94
25.2067 0.1470 80.9099 0.335 -0.678 -0.654 108 123 130
25.4507 0.1655 81.0283 0.269 -0.702 -0.659 120 135 141
25.8718 0.1641 81.1579 0.040 -0.709 -0.704 76 90 91
26.1017 0.1738 81.2521 0.229 -0.756 -0.613 88 99 101
26.3220 0.1778 81.3305 0.216 -0.768 -0.603 96 108 108
26.5246 0.1717 81.3810 -0.298 -0.857 -0.421 110 122 122
26.6747 0.1367 81.3503 -0.282 -0.847 -0.450 99 113 113
26.8903 0.1375 81.4201 -0.094 -0.896 -0.434 67 83 83
27.2530 -0.0152 81.1943 -0.208 -0.743 -0.637 77 95 97
28.0064 -0.0730 81.3033 -0.031 -0.661 -0.750 115 135 133
28.1950 -0.0877 81.3301 0.047 -0.661 -0.749 118 139 135
28.3826 -0.1030 81.3552 0.033 -0.667 -0.744 122 143 138
28.6161 -0.0943 81.4482 -0.194 -0.781 -0.594 155 176 170
31.9881 0.4972 83.8303 0.475 -0.495 -0.728 135 160 167
30.9463 -0.1392 82.0834 0.084 -0.600 -0.795 98 123 130
31.8013 -0.1580 82.3113 0.147 -0.661 -0.736 140 169 166
31.9453 -0.1976 82.2686 0.226 -0.680 -0.697 162 191 189
32.2463 -0.1601 82.4470 0.139 -0.744 -0.653 181 210 208
32.6567 -0.0700 82.7775 0.407 -0.486 -0.773 191 220 218
32.7589 -0.1304 82.6750 0.218 -0.684 -0.696 196 224 227
33.0121 -0.1176 82.7835 0.062 -0.746 -0.663 202 229 235
33.2771 -0.0994 82.9077 -0.230 -0.707 -0.669 186 213 222
33.4705 -0.1159 82.9318 0.307 -0.789 -0.532 110 137 146
33.6670 -0.1312 82.9599 -0.020 -0.893 -0.450 100 127 134
33.9950 -0.0839 83.1688 0.234 -0.865 -0.445 102 130 134
36.3400 0.5831 85.3950 0.427 -0.290 -0.856 147 173 174
36.9826 0.6609 85.7711 0.368 -0.642 -0.673 146 174 175
37.9055 0.7547 86.2713 0.338 -0.610 -0.717 148 176 179
38.1888 0.7738 86.4034 0.445 -0.620 -0.646 150 180 180
38.5564 0.8310 86.6467 0.494 -0.601 -0.628 151 178 179
38.9172 0.8844 86.8796 0.494 -0.601 -0.628 154 179 179
39.2582 0.9281 87.0847 0.498 -0.596 -0.629 155 179 170
-53.1153 16.9106 93.1366 0.244 0.600 -0.762 46 60 66
-47.2693 16.8242 94.7780 -0.548 -0.196 -0.813 254 253 251
-47.2741 17.1251 95.4438 -0.523 0.156 -0.838 253 253 251
-46.9746 16.8454 94.9175 -0.581 0.097 -0.808 253 254 251
-45.6183 15.6763 92.7500 -0.500 -0.309 -0.809 188 207 218
-45.0142 15.3666 92.2524 -0.651 -0.561 -0.511 154 173 184
-44.4843 15.2015 92.0525 -0.648 -0.157 -0.745 179 206 218
-43.1180 15.1827 92.4393 -0.629 -0.421 -0.654 155 186 188
-42.7392 15.0139 92.1837 -0.294 -0.493 -0.819 129 157 167
-42.4141 14.9650 92.1771 -0.546 -0.574 -0.610 189 215 232
-41.9848 14.6734 91.6650 -0.703 -0.410 -0.581 148 175 192
-40.3809 12.6176 87.6087 0.257 -0.547 -0.797 196 227 230
-37.3414 11.4777 86.0337 -0.330 -0.758 -0.562 207 232 236
-37.2144 11.5300 86.1896 0.183 -0.573 -0.799 182 208 209
-37.1126 11.6590 86.5075 0.044 -0.775 -0.630 149 177 178
-36.6767 11.6672 86.6625 -0.106 -0.660 -0.743 175 201 202
-36.5220 11.6425 86.6561 -0.120 -0.657 -0.745 178 202 206
-36.3608 11.5975 86.6069 -0.297 -0.611 -0.733 186 210 214
-36.2088 11.5810 86.6181 -0.270 -0.634 -0.725 184 208 211
-35.4751 12.1000 87.9991 -0.590 -0.662 -0.463 201 221 215
-34.9931 11.9926 87.9119 0.044 -0.003 -0.999 145 164 160
-34.2159 10.7892 85.4869 -0.687 -0.366 -0.628 146 163 155
-34.0428 10.6903 85.3217 -0.700 -0.358 -0.618 147 164 156
-34.1488 12.2361 88.7167 0.514 -0.662 -0.545 147 164 156
-33.5197 10.3653 84.7651 -0.366 -0.318 -0.875 147 164 156
-33.3570 10.2985 84.6680 -0.379 -0.237 -0.894 150 165 158
-33.2030 10.2659 84.6439 -0.337 -0.225 -0.914 150 165 158
-33.0515 10.2434 84.6415 -0.364 -0.208 -0.908 150 165 160
-32.5639 11.3421 87.2309 -0.692 0.532 -0.488 154 166 162
-31.6009 11.0927 86.9799 0.198 0.388 -0.900 99 110 106
-30.8710 10.4405 85.7622 -0.245 -0.946 -0.213 91 102 98
-30.5447 10.2973 85.5470 0.151 -0.927 -0.342 96 105 101
-30.3906 10.2751 85.5462 0.160 -0.913 -0.374 103 114 113
-29.9398 10.2831 85.7051 -0.427 -0.732 -0.532 94 111 118
-29.7743 10.1915 85.5539 -0.558 -0.595 -0.578 97 114 121
-29.6119 10.1171 85.4399 -0.552 -0.602 -0.577 118 135 142
-29.4578 10.0965 85.4424 -0.211 0.056 -0.976 156 173 180
-16.7163 5.4166 79.0588 0.177 0.037 -0.984 196 217 218
-16.5626 5.4245 79.1246 0.172 0.022 -0.985 190 211 212
-16.4188 5.3873 79.0872 -0.619 -0.391 -0.681 191 211 212
-16.4179 4.7285 77.6264 -0.443 0.366 -0.819 191 211 212
-16.0910 4.8438 77.9845 -0.001 0.121 -0.993 202 222 223
-15.9300 4.8867 78.1301 -0.197 -0.160 -0.967 200 220 221
-15.6420 4.8300 78.0947 -0.153 -0.014 -0.988 201 219 219
-14.9073 4.7426 78.1313 -0.179 -0.189 -0.966 161 177 177
-14.7597 4.7265 78.1418 -0.175 -0.185 -0.967 148 164 164
-14.4813 4.6353 78.0268 -0.583 0.037 -0.812 139 155 155
-12.5318 4.0532 77.3472 0.053 -0.327 -0.944 146 163 171
-12.3885 4.0254 77.3305 0.058 -0.315 -0.947 146 163 171
-12.2558 3.9691 77.2472 -0.270 -0.161 -0.949 147 164 171
-11.3469 3.9300 77.4455 0.371 0.384 -0.846 139 156 163
-9.8876 3.3564 76.6309 -0.393 0.013 -0.919 146 161 166
-9.7527 3.3126 76.5762 -0.368 0.025 -0.930 146 161 166
-9.6101 3.2857 76.5612 -0.174 0.048 -0.983 146 161 166
-8.7059 3.8722 78.1454 0.126 -0.110 -0.986 145 160 165
-8.5605 3.8439 78.1282 -0.084 0.022 -0.996 184 202 206
-8.4142 3.8174 78.1152 -0.084 0.022 -0.996 215 233 237
-7.4721 3.1753 76.9866 0.007 0.057 -0.998 192 211 217
-6.2686 2.7733 76.4725 -0.304 -0.649 -0.698 169 188 194
-6.1306 2.7375 76.4363 -0.225 -0.552 -0.803 182 201 207
-5.9874 2.7106 76.4216 -0.231 -0.541 -0.809 181 200 206
-4.5817 2.6529 76.7343 0.220 -0.439 -0.871 176 196 203
-4.3707 2.7300 76.9716 0.599 -0.695 -0.397 177 197 204
-3.3046 2.8620 77.5984 0.222 -0.842 -0.492 174 197 205
-3.1579 2.8357 77.5862 0.215 -0.852 -0.477 183 206 212
-2.9234 2.6975 77.3533 -0.144 -0.673 -0.726 175 194 197
-2.5112 2.1207 76.2034 -0.307 -0.791 -0.530 182 198 198
-2.0043 2.5965 77.4173 0.334 -0.809 -0.483 182 198 198
-1.5684 2.5117 77.3660 -0.339 -0.767 -0.544 176 192 192
-0.8964 2.2997 77.1066 0.300 -0.725 -0.620 171 187 187
-0.2895 2.4348 77.5965 0.240 -0.880 -0.409 185 200 205
0.1082 2.0905 76.9577 -0.130 -0.912 -0.390 153 168 173
0.2675 2.0803 76.9849 0.609 -0.634 -0.478 122 137 142
0.5753 2.0458 77.0050 -0.638 -0.696 -0.331 124 141 149
1.4102 2.2343 77.6848 0.265 -0.531 -0.805 121 138 146
1.8159 1.7189 76.6689 0.171 -0.954 -0.246 131 150 157
3.0577 2.1526 78.0201 -0.601 -0.687 -0.408 131 150 157
3.1802 2.0965 77.9341 -0.601 -0.687 -0.408 162 181 187
3.1728 1.5262 76.6671 0.170 -0.915 -0.366 130 149 155
3.3504 1.5332 76.7383 -0.734 -0.665 -0.134 128 149 154
3.5281 1.1780 76.0063 -0.017 -0.730 -0.683 135 152 160
4.3909 1.1861 76.2947 0.082 -0.486 -0.870 127 141 150
4.5203 1.1428 76.2392 -0.227 -0.360 -0.905 122 136 145
4.6836 0.7904 75.5089 -0.316 -0.555 -0.770 117 134 141
4.8205 0.7567 75.4771 -0.316 -0.555 -0.770 108 125 132
6.7750 1.3011 77.2973 -0.488 -0.743 -0.458 195 215 216
6.8709 1.2249 77.1584 0.189 -0.944 -0.270 200 220 221
7.8432 1.6313 78.3645 -0.195 0.051 -0.980 196 216 217
14.8408 0.8269 78.7747 -0.337 -0.060 -0.940 155 182 189
14.6268 0.5306 78.0504 0.111 -0.305 -0.946 164 191 198
16.3670 0.5447 78.6273 0.112 0.193 -0.975 159 187 191
16.4082 0.4388 78.4053 -0.654 0.045 -0.755 160 187 194
17.2495 0.4850 78.7715 0.227 -0.193 -0.954 174 203 201
17.4341 0.4781 78.8142 0.233 -0.101 -0.967 193 221 222
24.7615 0.2599 80.6277 0.287 -0.693 -0.662 77 92 97
25.0004 0.2766 80.7397 0.264 -0.710 -0.653 72 85 91
25.2104 0.2765 80.8052 0.323 -0.682 -0.657 106 119 125
25.4428 0.2887 80.9052 0.293 -0.643 -0.707 132 145 152
25.6669 0.2960 80.9916 0.293 -0.643 -0.707 76 90 94
25.8630 0.2871 81.0335 0.040 -0.709 -0.704 78 92 93
26.0764 0.2879 81.1020 0.229 -0.756 -0.613 86 98 98
26.4800 0.2756 81.2014 -0.298 -0.857 -0.421 103 115 115
26.6709 0.2632 81.2336 -0.133 -0.927 -0.350 101 115 115
27.9923 0.3970 81.9449 -0.450 -0.869 -0.206 97 115 117
27.8540 0.0898 81.2202 -0.039 -0.868 -0.496 106 126 126
28.8591 0.0487 81.4442 0.182 -0.532 -0.827 163 183 181
30.8514 0.3962 82.8394 0.596 -0.600 -0.533 77 100 108
30.9732 0.0056 82.0114 0.090 -0.580 -0.809 103 128 135
31.8569 0.0014 82.2792 0.045 -0.707 -0.705 139 168 165
32.0150 -0.0312 82.2563 0.010 -0.704 -0.711 152 181 179
32.2574 -0.0224 82.3519 0.021 -0.785 -0.619 186 215 213
32.6946 0.0815 82.7195 0.400 -0.463 -0.791 194 223 221
32.7572 0.0016 82.5619 0.192 -0.690 -0.698 202 230 232
33.0145 0.0166 82.6759 0.065 -0.762 -0.645 199 227 231
33.2886 0.0395 82.8126 -0.268 -0.688 -0.675 208 235 242
33.4341 -0.0001 82.7704 0.242 -0.809 -0.535 135 162 169
33.6023 -0.0287 82.7596 -0.020 -0.893 -0.450 112 140 145
33.9070 0.0080 82.9365 0.260 -0.802 -0.539 116 143 149
34.7591 0.0854 83.3755 0.163 -0.861 -0.481 98 124 125
36.3710 0.7356 85.3227 0.379 -0.268 -0.886 124 150 149
36.5931 0.7286 85.3768 0.444 -0.253 -0.859 136 162 161
37.9025 0.8930 86.1522 0.338 -0.610 -0.717 145 175 177
38.1732 0.9066 86.2672 0.498 -0.561 -0.661 151 181 181
38.5253 0.9572 86.4897 0.498 -0.561 -0.661 150 178 179
38.8701 1.0038 86.7012 0.473 -0.558 -0.682 154 178 178
39.1666 1.0278 86.8474 0.452 -0.578 -0.680 156 179 170
-53.2250 17.2488 93.4390 0.228 0.663 -0.713 52 69 74
-49.5150 16.7100 93.4055 -0.947 0.033 -0.321 254 255 251
-47.1939 17.1550 95.1108 -0.622 0.110 -0.775 252 253 251
-46.9806 17.0399 94.9233 -0.622 0.110 -0.775 251 254 252
-44.5158 15.1368 91.4906 -0.819 -0.416 -0.395 187 214 227
-44.3489 15.0996 91.4605 -0.607 -0.734 -0.304 187 216 227
-44.4065 15.5338 92.4009 -0.469 0.113 -0.876 188 218 225
