ply
format ascii 1.0
element vertex 874
property float x
property float y
property float z
property float nx
property float ny
property float nz
property uchar diffuse_red
property uchar diffuse_green
property uchar diffuse_blue
end_header
-55.2200 62.8574 96.9344 0.038 0.489 -0.871 96 93 79
-54.7611 63.1281 97.6346 -0.230 0.467 -0.854 101 92 83
-54.4004 63.1860 97.7933 -0.789 0.532 -0.308 91 82 75
-53.9643 62.4026 95.8261 -0.613 0.594 -0.521 47 25 27
-52.6686 60.6002 91.3104 -0.759 0.013 -0.651 62 42 48
-52.3750 60.5522 91.1988 -0.528 0.337 -0.780 94 90 91
-52.2194 60.5430 91.1808 -0.357 0.300 -0.885 144 147 145
-51.9091 60.5219 91.1379 -0.062 0.306 -0.950 143 156 144
-49.7016 60.1477 90.2654 0.268 0.380 -0.885 134 145 141
-49.7805 59.7878 89.3525 -0.117 0.284 -0.952 133 144 140
-48.0237 58.3956 85.8897 -0.605 0.742 -0.290 123 132 127
-46.6495 57.6842 84.1366 -0.938 -0.302 -0.173 119 131 120
-25.4873 50.8450 67.5477 0.302 0.383 -0.873 141 145 131
-25.4516 50.6725 67.1126 -0.496 0.075 -0.865 136 140 126
-25.2911 50.6609 67.0885 -0.454 0.090 -0.887 137 140 129
-25.1278 50.6505 67.0679 -0.467 0.085 -0.880 137 140 129
-24.3339 50.5854 66.9299 -0.672 -0.032 -0.740 143 145 134
-24.0393 50.4539 66.6072 -0.880 -0.276 -0.386 144 146 135
-21.9327 49.9332 65.3608 -0.341 -0.053 -0.938 101 98 89
-21.5346 50.0310 65.6216 -0.293 -0.209 -0.933 113 110 101
-21.4819 49.8785 65.2375 -0.278 -0.154 -0.948 105 105 93
-20.8548 49.8164 65.1016 -0.774 0.453 -0.442 134 134 122
-20.1019 49.8095 65.1095 -0.556 0.496 -0.667 147 147 137
-20.0091 49.7644 64.9985 -0.556 0.496 -0.667 126 126 118
-19.6667 49.6583 64.7416 -0.147 0.058 -0.987 110 110 102
-19.5376 49.6296 64.6735 -0.291 -0.136 -0.947 106 106 98
-19.3361 49.6329 64.6887 -0.466 0.189 -0.864 104 104 96
-19.2298 49.5942 64.5941 -0.433 0.155 -0.888 128 128 120
-19.0942 49.5683 64.5332 -0.347 0.060 -0.936 112 112 104
-17.7952 49.3678 64.0697 -0.323 0.448 -0.834 74 74 66
-16.9652 49.3830 64.1362 -0.770 -0.576 -0.274 72 69 62
-16.7574 49.3864 64.1517 -0.767 -0.591 -0.251 75 75 67
-16.6465 49.3493 64.0617 -0.713 -0.600 -0.363 76 76 68
-16.5388 49.3110 63.9684 -0.686 -0.616 -0.387 76 76 68
-16.0986 49.1622 63.6067 0.283 -0.244 -0.928 92 92 84
-14.3007 49.0684 63.4299 0.017 -0.132 -0.991 76 73 64
-13.8337 49.0899 63.5002 -0.272 -0.168 -0.947 84 81 72
-13.3726 49.0277 63.3582 -0.278 -0.161 -0.947 66 66 58
-12.9409 49.0335 63.3875 -0.065 -0.095 -0.993 56 55 50
-12.5197 49.0345 63.4042 0.077 -0.043 -0.996 55 54 49
-12.4202 48.9925 63.3013 0.183 -0.327 -0.927 61 60 55
-12.1567 49.0126 63.3610 0.257 -0.269 -0.928 68 67 62
-11.9530 49.0099 63.3609 0.093 -0.021 -0.995 69 68 63
-11.7849 48.6002 62.3302 -0.595 -0.098 -0.798 47 43 40
-11.6869 48.5586 62.2284 -0.595 -0.111 -0.796 39 36 31
-10.6171 48.7950 62.8624 0.406 -0.099 -0.909 35 32 27
-9.4071 48.6094 62.4336 0.104 -0.059 -0.993 54 51 42
-7.7469 48.4244 62.0213 -0.536 0.074 -0.841 66 63 56
-7.6123 48.3947 61.9508 -0.510 -0.134 -0.850 79 76 67
-7.4165 48.3859 61.9351 -0.156 -0.127 -0.980 57 55 43
-7.0128 48.3719 61.9134 -0.022 -0.080 -0.997 83 81 68
-6.8614 48.3477 61.8572 0.143 -0.055 -0.988 88 86 74
-6.4183 48.2710 61.6782 -0.908 -0.415 -0.056 116 116 104
-5.2142 48.2211 61.5923 0.306 -0.134 -0.943 63 63 54
-5.0173 48.2110 61.5735 0.262 -0.227 -0.938 66 66 58
-4.8192 48.2012 61.5553 -0.098 0.440 -0.893 69 68 63
-4.5969 48.1991 61.5575 0.291 0.242 -0.925 67 67 59
-4.4737 48.1648 61.4748 0.076 0.415 -0.907 63 63 53
-4.2330 48.1683 61.4919 0.046 0.380 -0.924 63 63 53
-3.4353 48.0542 61.2300 -0.183 0.405 -0.896 95 96 88
-2.7092 47.9165 60.9061 0.057 -0.405 -0.913 71 73 60
-1.7513 47.9219 60.9520 0.121 -0.422 -0.898 70 71 59
-1.2820 47.9931 61.1480 -0.811 -0.351 -0.468 60 61 45
-1.1959 47.9467 61.0334 -0.811 -0.351 -0.468 51 52 34
-1.1098 47.9004 60.9191 -0.811 -0.351 -0.468 46 47 30
1.1335 47.9216 61.0482 0.237 0.247 -0.940 97 99 83
2.8806 48.1439 61.6695 -0.012 0.825 -0.566 75 75 65
3.1779 48.1576 61.7140 -0.276 0.703 -0.655 70 70 60
3.3765 48.1424 61.6822 -0.303 0.736 -0.605 65 65 54
3.5521 48.1204 61.6325 -0.092 0.729 -0.679 71 73 62
3.6712 48.0821 61.5397 -0.178 0.776 -0.605 68 70 59
3.2270 47.5267 60.1197 -0.009 -0.151 -0.988 39 40 31
3.7834 47.6127 60.3559 0.311 -0.257 -0.915 43 44 36
5.4623 47.9403 61.2413 0.269 0.465 -0.843 43 44 37
6.8301 48.1766 61.8851 0.435 0.235 -0.869 34 35 29
8.2338 48.3457 62.3601 0.162 0.718 -0.677 30 31 25
8.7679 48.4191 62.5635 0.179 0.710 -0.681 30 31 25
10.1067 48.6372 63.1604 -0.524 0.542 -0.657 42 42 34
10.5054 48.6715 63.2606 -0.567 0.594 -0.571 42 42 34
-52.1633 60.7673 91.3115 -0.436 0.329 -0.838 114 115 115
-51.7123 60.7099 91.1810 -0.411 0.555 -0.723 142 156 141
-51.5322 60.7393 91.2608 -0.507 0.032 -0.861 142 156 139
-50.8841 59.7147 88.7006 -0.674 0.672 -0.307 89 108 89
-47.8172 58.7998 86.4919 -0.601 0.740 -0.301 129 139 131
-46.6045 58.0697 84.6910 0.364 0.075 -0.928 112 125 106
-46.3433 58.1906 85.0036 0.233 0.238 -0.943 118 130 118
-46.1483 58.2291 85.1068 0.237 0.250 -0.939 125 136 130
-45.8668 58.3713 85.4736 0.219 -0.040 -0.975 130 141 137
-24.0286 50.8770 67.2800 -0.367 0.226 -0.902 146 148 137
-23.9436 50.2685 65.7503 -0.520 -0.144 -0.842 90 90 80
-23.7767 50.2598 65.7337 -0.494 0.143 -0.858 89 89 79
-21.5452 50.1629 65.5590 -0.046 0.191 -0.980 121 118 109
-21.4782 50.1053 65.4160 -0.180 0.288 -0.940 104 101 92
-20.4111 49.8938 64.9166 -0.367 -0.032 -0.930 128 128 118
-19.9341 49.9358 65.0373 -0.432 0.571 -0.698 123 123 113
-19.9534 49.8401 64.7958 0.330 0.006 -0.944 88 88 80
-19.6541 49.8879 64.9254 0.217 0.105 -0.971 89 89 79
-19.5846 49.8324 64.7879 -0.115 0.122 -0.986 102 102 92
-19.2320 49.8168 64.7596 -0.365 0.388 -0.846 101 101 93
-19.0794 49.7983 64.7177 -0.408 0.429 -0.806 113 113 105
-18.9688 49.7612 64.6277 -0.362 0.426 -0.829 94 91 84
-18.8528 49.7265 64.5441 -0.419 0.346 -0.839 83 80 73
-18.0783 49.6377 64.3445 -0.117 0.338 -0.934 104 101 94
-17.5399 49.6149 64.3038 -0.140 -0.034 -0.990 80 80 72
-16.8353 49.6608 64.4414 0.300 -0.529 -0.794 83 83 75
-16.6515 49.6541 64.4301 0.268 -0.346 -0.899 81 81 73
-16.4407 49.5746 64.2365 -0.991 -0.000 -0.135 89 89 81
-16.5057 49.4641 63.9562 -0.716 -0.610 -0.340 90 90 82
-15.1203 49.2889 63.5583 -0.267 0.076 -0.961 78 77 72
-14.9318 49.2830 63.5491 -0.420 0.277 -0.864 72 71 66
-14.6999 49.2943 63.5848 -0.862 -0.158 -0.482 66 63 56
-14.2506 49.2289 63.4341 -0.071 -0.044 -0.997 76 73 64
-13.8664 49.2183 63.4194 -0.100 -0.116 -0.988 98 96 84
-13.1476 49.1759 63.3351 -0.067 -0.114 -0.991 63 63 55
-11.7737 48.9027 62.6898 -0.811 0.018 -0.585 56 52 49
-11.6641 48.8649 62.5982 -0.288 -0.240 -0.927 50 46 43
-11.6247 48.8011 62.4387 -0.653 0.408 -0.638 43 39 36
-11.4958 48.7708 62.3662 -0.140 0.087 -0.986 42 38 35
-11.2425 48.7862 62.4131 -0.050 0.064 -0.997 43 40 35
-11.0566 48.7767 62.3948 -0.218 -0.107 -0.970 40 37 32
-10.8736 48.7659 62.3733 -0.228 -0.102 -0.968 40 37 32
-10.1508 48.7181 62.2756 -0.065 -0.012 -0.998 42 39 32
-9.6258 48.7523 62.3780 0.075 -0.135 -0.988 80 77 68
-9.3726 48.7656 62.4193 0.066 -0.131 -0.989 68 65 56
-9.5255 48.5570 61.8892 -0.710 -0.394 -0.583 89 86 77
-9.4077 48.5222 61.8053 -0.703 -0.315 -0.638 112 109 100
-9.2276 48.5095 61.7788 -0.091 -0.421 -0.903 74 71 64
-8.2326 48.4769 61.7278 -0.070 -0.114 -0.991 83 78 75
-8.0188 48.4751 61.7298 -0.161 -0.093 -0.983 80 75 70
-7.6582 48.5236 61.8632 -0.585 -0.155 -0.796 73 69 61
-7.4136 48.5317 61.8915 -0.095 -0.282 -0.955 73 69 59
-6.4519 48.5562 61.9830 -0.434 -0.330 -0.838 88 86 74
-6.3637 48.4348 61.6801 -0.960 -0.195 -0.200 118 118 106
-6.2672 48.3921 61.5754 -0.771 -0.435 -0.466 115 115 103
-5.2527 48.3548 61.5131 0.295 -0.237 -0.926 73 73 63
-4.9164 48.3907 61.6141 0.197 -0.232 -0.953 70 70 62
-4.6628 48.3991 61.6432 0.120 -0.155 -0.981 64 64 56
-4.1333 48.3478 61.5304 -0.657 -0.226 -0.719 87 87 77
-3.9536 48.2573 61.3082 -0.850 0.207 -0.483 97 98 92
-3.5790 48.2296 61.2500 -0.476 0.592 -0.650 89 90 84
-3.4834 48.1863 61.1441 0.063 0.268 -0.961 101 102 96
-3.2276 48.1941 61.1715 -0.003 0.207 -0.978 107 108 100
-2.7117 48.0634 60.8585 -0.685 -0.249 -0.684 80 82 69
-2.5442 48.0428 60.8118 -0.055 -0.503 -0.863 78 80 67
-2.1962 48.0784 60.9122 0.147 -0.388 -0.910 80 82 71
-1.2675 48.1469 61.1138 -0.734 -0.479 -0.481 91 91 79
-1.1703 48.1038 61.0082 -0.734 -0.479 -0.481 70 70 56
-1.0748 48.0602 60.9014 -0.934 -0.183 -0.308 39 40 26
-0.8028 47.9256 60.5709 -0.290 0.169 -0.942 37 37 25
3.1530 47.9424 60.7364 -0.873 0.470 -0.129 47 47 37
3.3613 47.7167 60.1745 0.077 0.054 -0.996 33 34 26
3.8424 47.7821 60.3542 0.336 0.172 -0.926 39 40 34
4.5865 47.9210 60.7274 0.322 0.283 -0.903 31 32 26
7.0461 48.4678 62.1809 0.335 0.481 -0.810 31 32 26
7.4946 48.5200 62.3263 0.414 0.324 -0.851 37 38 32
-63.5904 66.7444 105.5353 -0.268 0.801 -0.535 90 92 70
-61.9497 63.8132 98.2330 0.055 0.431 -0.901 101 96 74
-54.2540 63.4036 97.4267 -0.917 0.385 -0.101 104 95 79
-51.9926 60.9121 91.2446 -0.754 0.481 -0.448 124 131 115
-51.6597 60.9273 91.2923 -0.654 0.360 -0.665 142 156 141
-51.5201 60.8897 91.2020 -0.837 -0.423 -0.348 143 157 142
-51.3180 60.6893 90.7054 -0.761 -0.489 -0.425 117 134 119
-50.7800 60.0057 89.0069 -0.718 0.633 -0.290 103 122 102
-50.7010 59.6336 88.0762 -0.512 0.742 -0.432 91 107 94
-47.7686 58.7822 86.0256 -0.007 -0.134 -0.991 135 146 138
-45.5826 58.6499 85.7564 0.208 -0.041 -0.977 134 140 137
-24.2857 50.8820 66.8910 -0.930 -0.209 -0.301 147 148 140
-24.2890 50.7861 66.6504 -0.936 0.063 -0.346 138 138 130
-24.2494 50.7125 66.4669 -0.938 0.080 -0.338 142 142 134
-23.9754 50.3873 65.6596 -0.486 -0.028 -0.874 86 86 76
-21.5319 50.3059 65.5256 -0.232 0.277 -0.932 112 109 100
-20.5218 50.1556 65.1776 -0.284 0.250 -0.925 105 102 93
-20.3421 50.1502 65.1692 -0.495 0.318 -0.808 105 102 93
-19.8763 50.0996 65.0558 -0.475 0.521 -0.710 111 111 101
-19.5824 50.0580 64.9598 0.217 0.105 -0.971 106 106 96
-19.4675 50.0226 64.8745 -0.164 0.429 -0.888 101 101 91
-19.3246 49.9999 64.8216 -0.148 0.410 -0.900 101 101 91
-19.0093 49.9674 64.7491 -0.386 0.429 -0.817 94 91 84
-18.8983 49.9303 64.6594 -0.382 0.397 -0.835 76 73 66
-18.7694 49.9013 64.5903 -0.407 0.354 -0.842 72 69 62
-18.6821 49.8539 64.4739 -0.050 0.193 -0.980 90 87 80
-17.6550 49.7891 64.3409 -0.214 0.019 -0.977 87 87 79
-17.4800 49.7794 64.3217 -0.199 -0.046 -0.979 87 87 79
-17.2843 49.7785 64.3251 0.073 -0.299 -0.951 115 115 107
-17.0386 49.7987 64.3827 0.100 -0.322 -0.941 112 112 104
-16.8802 49.7815 64.3441 0.300 -0.529 -0.794 100 100 92
-16.6681 49.7869 64.3637 0.308 -0.496 -0.812 94 94 86
-16.7660 49.6614 64.0464 -0.876 -0.278 -0.393 101 101 93
-16.4356 49.7165 64.1939 -0.990 -0.001 -0.140 102 102 94
-16.5971 49.5652 63.8098 -0.826 -0.380 -0.416 103 103 95
-16.5858 49.4867 63.6135 0.131 -0.220 -0.967 98 98 90
-15.0537 49.4559 63.5802 -0.174 0.098 -0.980 75 74 69
-14.8126 49.4713 63.6258 -0.766 -0.074 -0.639 71 70 65
-14.6041 49.4733 63.6367 -0.438 0.106 -0.892 63 60 55
-14.5469 49.4143 63.4905 -0.342 0.203 -0.918 66 63 56
-14.5072 49.3487 63.3270 -0.921 -0.095 -0.377 72 69 60
-14.1819 49.3969 63.4572 -0.095 -0.032 -0.995 75 72 63
-13.9005 49.4272 63.5413 -0.156 -0.515 -0.843 80 78 66
-13.8474 49.3668 63.3914 -0.162 -0.474 -0.865 108 106 94
-13.3261 49.3286 63.3105 -0.119 -0.257 -0.959 87 87 79
-12.4392 49.3500 63.3897 0.113 -0.111 -0.987 61 60 55
-12.4308 49.2728 63.1963 -0.031 -0.156 -0.987 94 93 88
-11.9433 49.1392 62.8753 -0.722 0.091 -0.686 62 58 55
-11.8203 49.1063 62.7963 -0.754 0.073 -0.653 56 52 49
-11.3763 48.9570 62.4348 -0.007 0.055 -0.998 40 36 33
-11.1547 48.9609 62.4509 -0.025 0.053 -0.998 35 32 27
-11.0117 48.9354 62.3912 -0.234 0.005 -0.972 39 36 31
-10.8281 48.9250 62.3702 -0.279 -0.007 -0.960 40 37 32
-10.7255 48.8846 62.2719 -0.068 0.013 -0.998 52 49 44
-10.2385 48.9851 62.5378 -0.506 -0.818 -0.275 64 61 56
-10.0553 48.8957 62.3190 0.063 -0.088 -0.994 52 49 42
-9.3805 48.9065 62.3654 0.117 -0.072 -0.991 57 54 45
-9.3360 48.6906 61.8253 -0.481 -0.176 -0.859 88 85 76
-8.7417 48.6712 61.7938 -0.219 0.025 -0.975 55 55 47
-8.0058 48.6236 61.6955 -0.230 0.517 -0.825 77 74 69
-6.3422 48.6633 61.8429 -0.910 -0.013 -0.414 100 100 89
-5.7525 48.4846 61.4117 0.315 -0.300 -0.901 84 84 73
-5.2390 48.5056 61.4790 0.295 -0.237 -0.926 84 84 72
-4.8961 48.5441 61.5855 0.273 -0.254 -0.928 79 79 69
-4.5722 48.5760 61.6746 0.179 -0.273 -0.945 72 72 62
-4.1745 48.6316 61.8256 0.040 -0.397 -0.917 83 83 73
-4.0307 48.6036 61.7594 0.142 -0.318 -0.938 95 95 84
-3.8463 48.5887 61.7275 0.374 -0.440 -0.816 84 84 73
-2.6972 48.2156 60.8248 -0.690 -0.241 -0.683 84 86 73
-2.6073 48.1706 60.7147 -0.055 -0.490 -0.870 78 82 68
-1.4346 48.2443 60.9331 -0.051 -0.353 -0.934 92 92 81
-1.1608 48.2560 60.9701 -0.098 -0.309 -0.946 71 71 59
0.9224 48.3067 61.1571 0.348 0.259 -0.901 34 35 27
3.4281 48.1027 60.7174 -0.936 0.272 -0.224 48 48 38
3.4688 48.0425 60.5678 -0.924 0.297 -0.241 35 35 25
3.4874 47.9048 60.2231 0.058 -0.031 -0.998 32 33 25
4.0040 47.9809 60.4287 0.303 0.239 -0.923 33 34 26
4.5227 48.0569 60.6341 0.325 0.210 -0.922 29 30 24
18.2353 49.6267 64.9633 0.463 0.204 -0.862 24 25 20
-63.8032 68.1333 108.5278 -0.141 0.004 -0.990 93 93 82
-63.5083 67.2014 106.2092 -0.274 0.799 -0.536 90 92 68
-61.7241 64.1609 98.6660 -0.871 -0.482 0.089 99 92 73
-57.3888 60.5263 89.7068 -0.957 -0.275 0.091 96 89 71
-54.3689 62.6334 95.0461 -0.916 0.397 -0.065 41 28 14
-51.9518 61.1104 91.3075 -0.795 -0.334 -0.506 91 96 70
-51.8198 61.0602 91.1857 -0.859 -0.141 -0.492 127 141 121
-51.4470 60.8731 90.7285 -0.786 -0.491 -0.376 144 161 144
-51.3234 60.8105 90.5755 -0.761 -0.489 -0.425 108 125 108
-49.6884 60.3210 89.3964 -0.397 0.085 -0.914 138 149 140
-47.5982 58.9255 85.9676 -0.296 0.363 -0.883 133 147 135
-46.1881 57.8576 83.3387 -0.748 0.648 -0.143 134 141 135
-44.7274 57.1259 81.5506 -0.883 0.366 -0.293 136 147 135
-24.2881 51.0167 66.8367 -0.941 -0.200 -0.272 139 139 131
-20.4777 50.3133 65.1807 -0.370 0.221 -0.902 116 113 104
-20.2651 50.3232 65.2110 -0.503 0.276 -0.819 108 105 96
-19.9187 50.3059 65.1770 -0.571 0.414 -0.709 114 114 104
-19.7818 50.2805 65.1171 -0.601 0.457 -0.656 100 100 90
-19.6301 50.1741 64.8556 0.285 -0.169 -0.943 108 108 98
-19.4407 50.1725 64.8566 -0.003 0.110 -0.994 102 102 92
-19.4106 50.0990 64.6738 -0.298 0.208 -0.931 100 100 90
-19.1610 50.1243 64.7436 -0.556 0.389 -0.735 102 102 92
-18.9809 50.1181 64.7329 -0.533 0.412 -0.739 76 73 66
-18.4556 50.0059 64.4665 0.002 0.067 -0.998 96 93 86
-18.2149 50.0259 64.5227 -0.153 -0.102 -0.983 107 104 97
-18.0075 50.0309 64.5407 -0.329 -0.137 -0.934 117 114 107
-17.6055 49.9492 64.3473 -0.212 -0.016 -0.977 89 89 81
-17.4486 49.9319 64.3081 -0.199 -0.046 -0.979 100 100 92
-17.0127 49.9492 64.3628 -0.175 0.382 -0.908 109 109 101
-16.6025 49.9545 64.3868 0.271 -0.262 -0.926 93 93 85
-14.6539 49.5937 63.5374 -0.506 0.141 -0.851 68 65 60
-14.0166 49.6039 63.5795 -0.221 0.480 -0.849 79 76 67
-13.8516 49.5879 63.5438 -0.103 -0.045 -0.994 83 80 71
-13.7734 49.5372 63.4195 -0.784 0.219 -0.581 95 92 83
-13.4654 49.4963 63.3254 -0.142 -0.309 -0.940 108 105 96
-13.2844 49.4864 63.3053 -0.110 -0.131 -0.985 85 85 77
-12.5826 49.4367 63.1997 0.154 -0.843 -0.515 83 82 77
-12.3535 49.4447 63.2258 0.120 -0.840 -0.529 100 99 94
-11.6761 49.4635 63.2904 0.337 -0.618 -0.711 71 67 64
-11.0093 49.0785 62.3470 -0.261 0.303 -0.917 58 55 50
-10.8421 49.0621 62.3104 -0.285 0.328 -0.901 70 67 62
-10.6472 49.0558 62.2997 -0.145 0.140 -0.979 84 81 76
-10.4486 49.0508 62.2924 -0.118 0.105 -0.987 87 84 79
-10.2881 49.0315 62.2485 -0.204 0.110 -0.973 68 65 58
-9.9870 49.0637 62.3367 0.065 -0.079 -0.995 64 61 52
-9.7955 49.0555 62.3212 0.063 -0.088 -0.994 78 75 66
-9.7488 48.9944 62.1701 -0.584 0.182 -0.791 71 69 57
-9.5904 48.9741 62.1235 -0.258 0.234 -0.937 51 48 39
-9.4338 48.9531 62.0751 -0.258 0.234 -0.937 72 69 60
-9.3314 48.8352 61.7834 -0.488 -0.137 -0.862 90 90 80
-7.9790 48.7769 61.6736 -0.094 0.333 -0.938 65 65 57
-7.2072 48.8165 61.7925 -0.070 0.141 -0.987 108 108 101
-6.9630 48.8246 61.8191 0.005 0.067 -0.998 90 90 84
-6.5365 48.8187 61.8157 -0.536 -0.100 -0.838 86 86 78
-5.6089 48.6785 61.4902 0.422 -0.274 -0.864 89 90 82
-5.4814 48.6459 61.4121 0.254 -0.291 -0.922 100 100 92
-5.1752 48.6731 61.4879 0.254 -0.291 -0.922 96 97 84
-4.8648 48.7012 61.5663 0.222 -0.228 -0.948 104 102 89
-4.4437 48.7657 61.7382 -0.067 -0.338 -0.939 112 110 98
-3.9845 48.7665 61.7524 0.173 -0.401 -0.900 90 88 75
-3.8504 48.6600 61.4901 -0.807 0.032 -0.590 65 65 55
-3.6584 48.6478 61.4647 -0.439 0.145 -0.887 63 62 57
-3.6003 48.5919 61.3266 -0.400 -0.221 -0.889 60 61 56
-3.4039 48.5810 61.3046 -0.380 -0.265 -0.886 57 58 53
-3.3416 48.5267 61.1706 -0.143 -0.086 -0.986 49 50 45
-3.1490 48.5145 61.1451 -0.362 0.101 -0.927 56 57 51
-2.8417 48.3908 60.8445 -0.574 -0.009 -0.819 83 86 75
-2.5085 48.3494 60.7499 -0.082 -0.044 -0.996 85 89 74
-1.7691 48.3619 60.8006 0.036 -0.121 -0.992 79 81 70
-1.4365 48.3926 60.8858 -0.103 -0.103 -0.989 87 87 75
-1.1360 48.4128 60.9442 -0.611 0.290 -0.737 75 75 63
-0.9970 48.3826 60.8724 -0.640 0.322 -0.698 48 45 36
1.5655 48.5793 61.4306 0.347 0.223 -0.911 33 34 26
2.1443 48.6801 61.6976 0.316 0.189 -0.930 29 32 23
3.5795 48.7390 61.8823 -0.683 0.237 -0.691 28 29 24
4.4135 48.9116 62.3350 -0.070 0.667 -0.742 29 30 24
3.3748 48.3851 60.9934 -0.539 0.519 -0.663 31 31 21
3.5063 48.2784 60.7304 -0.507 0.653 -0.563 33 33 23
3.7398 48.2738 60.7252 -0.342 0.682 -0.646 33 33 23
3.7473 48.2038 60.5506 -0.344 0.665 -0.663 29 30 22
3.6011 48.0898 60.2623 0.072 -0.060 -0.996 29 30 22
6.4065 47.5342 58.9488 0.456 -0.033 -0.889 24 25 19
8.0857 47.8476 59.7752 0.452 -0.169 -0.876 28 29 23
8.9039 47.9967 60.1689 0.452 -0.169 -0.876 22 24 19
9.7359 48.1483 60.5693 0.452 -0.169 -0.876 23 25 20
-64.9757 61.2300 90.8628 -0.126 -0.038 -0.991 97 101 75
-63.3907 67.8213 107.2823 -0.905 0.078 -0.419 91 95 70
-62.9042 67.7781 107.1864 -0.440 0.687 -0.578 92 87 65
-64.2128 61.5120 91.5818 0.430 -0.366 -0.825 96 88 69
-61.9935 63.8497 97.4446 -0.896 -0.428 0.122 98 90 71
-61.7873 64.0362 97.9130 -0.901 -0.426 0.085 97 90 71
-61.5224 64.4203 98.8740 -0.691 -0.722 -0.022 102 95 76
-63.7686 54.5917 74.3929 0.330 0.242 -0.912 104 99 77
-57.4744 60.4449 89.0900 -0.985 -0.146 0.092 89 82 64
-54.5666 61.7241 92.3385 -0.908 0.412 -0.074 54 27 25
-52.6920 61.3521 91.4587 -0.883 -0.426 0.196 116 113 88
-52.1376 61.1975 91.0877 -0.298 -0.631 -0.716 86 87 61
-51.8008 61.2217 91.1559 -0.829 -0.311 -0.464 119 135 111
-51.6552 61.1945 91.0917 -0.876 -0.350 -0.331 137 155 133
-51.5353 61.1245 90.9205 -0.875 -0.345 -0.340 136 153 134
-51.4543 60.9908 90.5901 -0.786 -0.491 -0.376 134 153 134
-51.3302 60.9292 90.4401 -0.762 -0.489 -0.425 115 134 115
-51.1637 60.9372 90.4639 -0.915 -0.229 -0.332 99 117 91
-51.0478 60.8628 90.2818 -0.789 -0.492 -0.368 82 102 67
-49.5186 59.2839 86.3940 -0.711 0.610 -0.348 147 158 150
-47.7068 59.1279 86.0496 -0.045 -0.255 -0.966 134 145 138
-47.5556 59.1138 86.0180 -0.513 0.203 -0.834 134 147 136
-46.1306 58.8529 85.4034 -0.468 -0.881 -0.065 109 121 109
-45.8584 58.5848 84.7438 -0.966 -0.250 0.065 134 140 137
-44.6492 57.5262 82.1414 -0.893 0.239 -0.380 130 142 122
-23.9337 50.8631 66.0746 -0.447 0.009 -0.894 74 74 66
-22.8289 50.8605 66.0944 0.058 0.480 -0.875 135 133 121
-22.1371 51.1106 66.7326 -0.448 0.754 -0.481 126 124 112
-21.6257 50.6247 65.5371 -0.431 0.659 -0.616 105 102 93
-21.4502 50.6184 65.5256 -0.247 0.315 -0.916 102 99 90
-21.2631 50.6175 65.5278 -0.115 0.405 -0.907 113 110 101
-20.1224 50.7962 65.9991 -0.955 -0.226 -0.191 130 127 120
-19.8779 50.4625 65.1756 -0.866 -0.358 -0.349 119 119 109
-19.8538 50.2972 64.7653 0.511 -0.295 -0.808 118 118 108
-19.1903 50.4241 65.0967 0.259 0.102 -0.961 112 112 102
-19.1170 50.3696 64.9628 -0.154 0.563 -0.812 108 108 98
-18.9058 50.3774 64.9873 -0.168 0.577 -0.799 91 91 81
-18.6644 50.3112 64.8285 -0.656 0.546 -0.522 76 73 66
-18.5647 50.1820 64.5098 -0.151 0.241 -0.959 69 66 59
-18.3906 50.1729 64.4912 -0.585 0.302 -0.753 80 77 70
-18.2320 50.1568 64.4550 -0.773 0.152 -0.616 132 129 122
-17.8806 50.1393 64.4200 -0.229 -0.033 -0.973 111 111 103
-17.5749 50.1013 64.3329 -0.022 0.221 -0.975 84 84 76
-14.7659 49.7712 63.5792 -0.793 -0.083 -0.604 82 81 76
-14.6884 49.7201 63.4542 -0.804 0.015 -0.594 84 81 75
-13.8076 49.6646 63.3372 -0.723 0.271 -0.636 86 83 74
-13.3700 49.7574 63.5782 -0.507 0.404 -0.762 93 90 81
-13.4647 49.6378 63.2788 -0.142 -0.309 -0.940 82 79 71
-13.2586 49.6380 63.2841 -0.115 -0.055 -0.992 87 84 78
-11.0620 49.2799 62.4465 -0.215 0.350 -0.912 74 72 66
-10.9177 49.2550 62.3879 -0.249 0.334 -0.909 92 90 84
-10.7540 49.2372 62.3477 -0.279 0.316 -0.907 104 102 96
-10.6234 49.2071 62.2759 -0.120 0.386 -0.914 103 101 95
-10.4174 49.2049 62.2754 -0.172 0.366 -0.915 102 100 94
-10.2189 49.1997 62.2673 -0.100 0.245 -0.964 78 75 68
-9.8002 49.1970 62.2703 0.070 0.156 -0.985 73 70 61
-6.9527 49.0501 61.9732 0.201 -0.182 -0.963 83 85 81
-7.0247 48.9482 61.7182 -0.686 -0.255 -0.682 81 83 80
-6.5734 48.7233 61.1699 -0.224 -0.215 -0.951 106 107 102
-5.5260 48.7768 61.3278 0.286 -0.276 -0.918 107 108 101
-5.1754 48.8192 61.4417 0.254 -0.291 -0.922 91 90 76
-4.8423 48.8554 61.5394 0.213 -0.210 -0.954 115 113 100
-4.4733 48.9031 61.6668 -0.060 -0.337 -0.940 144 142 129
-4.0088 48.9062 61.6855 0.173 -0.401 -0.900 90 88 73
-3.5556 48.8292 61.5050 -0.453 0.147 -0.879 50 49 44
-3.3728 48.7388 61.2847 -0.284 0.192 -0.940 47 48 43
-3.2080 48.7176 61.2359 -0.274 0.194 -0.942 50 51 46
-3.0276 48.7014 61.2000 -0.470 0.250 -0.846 58 59 53
-2.4768 48.5071 60.7302 -0.149 0.570 -0.808 92 96 80
-1.4295 48.5436 60.8457 0.057 -0.115 -0.992 87 87 75
-1.1263 48.5650 60.9062 -0.154 -0.073 -0.985 90 90 78
0.2589 48.6268 61.0927 0.019 -0.279 -0.960 39 39 31
1.4898 48.7085 61.3252 -0.168 -0.741 -0.651 30 33 22
1.7836 48.7239 61.3704 -0.082 -0.737 -0.671 29 32 22
2.2700 48.6495 61.1971 -0.106 -0.719 -0.687 28 29 24
4.8868 49.0586 62.2762 -0.267 0.782 -0.563 30 30 18
4.4850 48.7916 61.6031 -0.053 0.835 -0.547 34 34 24
4.6007 48.7518 61.5069 -0.071 0.834 -0.547 33 33 25
4.7495 48.7217 61.4357 -0.074 0.834 -0.547 32 32 24
5.2949 48.7333 61.4775 0.214 0.596 -0.774 29 30 22
6.4980 47.7819 59.1415 0.370 -0.087 -0.925 28 30 25
8.1069 48.0797 59.9200 0.413 -0.317 -0.854 24 27 20
9.4914 48.3123 60.5312 0.438 -0.297 -0.848 29 32 25
9.7692 48.3157 60.5461 0.211 -0.343 -0.915 28 30 25
10.1425 48.3444 60.6264 0.195 -0.338 -0.921 26 28 23
11.0458 48.5144 61.0705 -0.005 -0.745 -0.667 24 26 21
11.7863 48.6398 61.3997 -0.077 -0.613 -0.786 26 28 23
11.7053 48.5459 61.1644 0.201 -0.194 -0.960 28 29 23
18.0662 50.0040 64.9397 0.491 0.109 -0.865 33 34 29
-63.8891 68.6841 108.9330 -0.336 -0.772 -0.539 77 76 71
-65.2146 61.4805 91.0791 -0.134 0.034 -0.990 95 95 85
-65.0844 61.4396 90.9808 -0.085 -0.012 -0.996 110 110 93
-64.9482 61.4277 90.9542 -0.076 -0.022 -0.997 105 107 82
-62.9680 68.3143 108.0377 -0.407 0.579 -0.706 85 85 61
-62.8331 68.1754 107.6968 -0.464 0.729 -0.503 81 78 58
-62.0370 63.7892 96.8600 -0.901 -0.418 0.120 98 90 71
-63.7318 54.7886 74.5516 0.339 0.264 -0.903 105 98 79
-63.6077 54.8103 74.6080 0.344 0.249 -0.905 102 95 76
-60.3199 55.1997 75.6419 -0.744 -0.629 -0.223 84 81 64
-54.0934 63.4432 96.1740 -0.895 0.437 -0.092 86 78 61
-54.2394 62.8204 94.6296 -0.896 0.435 -0.093 45 29 19
-52.1395 61.3228 90.9690 -0.325 -0.618 -0.716 93 95 68
-51.9308 61.4045 91.1754 -0.317 -0.735 -0.600 84 93 62
-51.5167 61.5573 91.5624 -0.833 0.429 -0.349 130 147 127
-51.5367 61.2518 90.8061 -0.863 -0.300 -0.407 127 146 127
-51.4387 61.1461 90.5466 -0.787 -0.286 -0.547 124 143 123
-51.3172 61.0802 90.3862 -0.777 -0.292 -0.558 128 145 126
-51.1480 61.0928 90.4210 -0.887 -0.101 -0.450 107 122 101
-51.0367 61.0108 90.2203 -0.887 -0.101 -0.450 74 93 60
-47.9700 59.1233 85.6155 0.489 0.228 -0.842 137 149 139
-47.6991 59.2700 85.9843 -0.042 -0.266 -0.963 136 148 138
-47.3737 59.2721 85.9963 -0.275 -0.007 -0.961 127 139 121
-47.2253 59.2537 85.9541 -0.275 -0.007 -0.961 110 125 98
-46.4389 58.4034 83.8668 -0.622 -0.783 0.004 110 122 107
-44.6864 57.7998 82.4106 -0.843 0.311 -0.438 113 128 96
-44.6042 57.7092 82.1882 -0.843 0.311 -0.438 131 144 118
-24.1443 51.4592 67.1605 -0.976 -0.209 0.057 142 144 133
-21.9452 51.3439 66.9223 -0.454 0.752 -0.479 104 102 90
-21.7197 51.1749 66.5090 -0.666 0.626 -0.405 109 106 97
-21.4427 50.9410 65.9362 -0.656 0.709 -0.258 111 108 99
-20.0574 50.6951 65.3573 -0.964 -0.251 -0.087 106 103 94
-19.4199 50.5457 65.0012 0.571 -0.394 -0.720 108 108 98
-19.0079 50.5575 65.0393 -0.151 0.491 -0.858 82 82 72
-18.6251 50.5551 65.0415 -0.088 0.608 -0.789 95 92 85
-18.5637 50.4950 64.8942 -0.656 0.546 -0.522 89 86 79
-18.4214 50.3842 64.6230 -0.643 0.185 -0.743 76 73 66
-18.2845 50.3584 64.5622 -0.744 0.193 -0.639 92 89 82
-18.1767 50.3197 64.4685 -0.771 0.111 -0.627 135 132 125
-17.8522 50.2905 64.4032 -0.325 -0.126 -0.937 99 96 89
-17.7116 50.2662 64.3461 -0.041 -0.087 -0.995 86 83 76
-17.5471 50.2524 64.3154 -0.248 -0.109 -0.963 85 85 77
-16.3966 49.9830 63.6735 -0.119 0.508 -0.853 102 102 94
-14.6720 49.8671 63.4238 -0.275 -0.459 -0.845 100 100 91
-14.4806 49.6979 63.0091 -0.956 0.040 -0.292 94 94 86
-13.4800 49.7729 63.2160 -0.144 -0.314 -0.938 79 79 71
-13.2242 49.7931 63.2714 -0.115 -0.055 -0.992 91 91 83
-10.9722 49.4561 62.4859 -0.333 0.399 -0.854 78 79 69
-10.8333 49.4291 62.4219 -0.236 0.295 -0.926 94 96 86
-10.6759 49.4089 62.3754 -0.236 0.295 -0.926 102 104 93
-10.3350 49.3782 62.3067 -0.138 0.395 -0.908 105 107 96
-10.1228 49.3782 62.3113 -0.107 0.246 -0.963 87 88 77
-9.9397 49.3673 62.2882 -0.107 0.246 -0.963 91 91 81
-9.7580 49.3557 62.2633 0.045 0.140 -0.989 70 70 58
-9.3621 49.3440 62.2429 -0.071 0.158 -0.985 65 65 53
-8.9990 49.3983 62.3852 0.100 -0.172 -0.980 69 69 57
-8.7637 49.4055 62.4080 0.100 -0.172 -0.980 76 76 64
-8.8798 49.2068 61.9137 0.000 0.354 -0.935 90 92 79
-7.2518 49.0136 61.4705 -0.653 0.255 -0.713 76 76 74
-6.6250 49.0788 61.6454 -0.578 -0.166 -0.799 75 75 73
-6.5704 48.8688 61.1268 -0.337 0.126 -0.933 93 94 88
-4.7914 49.0192 61.5370 0.285 -0.102 -0.953 112 110 98
-4.4347 49.0632 61.6536 0.106 -0.233 -0.967 130 128 116
-3.8843 49.0953 61.7449 0.281 -0.210 -0.937 87 85 72
-3.6794 49.0876 61.7300 0.263 -0.242 -0.934 73 71 58
-3.6969 49.0058 61.5274 -0.835 0.040 -0.549 59 59 50
-3.4316 49.0179 61.5630 -0.463 0.132 -0.876 53 52 47
-3.4205 48.9460 61.3853 -0.362 0.360 -0.860 52 53 48
-3.4130 48.8732 61.2052 -0.770 0.179 -0.613 51 52 47
-3.1613 48.8806 61.2289 -0.719 0.311 -0.621 50 51 46
-2.8295 48.8388 61.1326 -0.626 0.438 -0.646 87 90 83
-0.9491 48.6959 60.8193 -0.499 0.441 -0.745 74 74 64
-0.2586 48.6904 60.8204 0.063 -0.006 -0.998 51 52 44
0.2584 48.7772 61.0464 -0.059 -0.242 -0.968 47 48 40
0.3352 48.7270 60.9239 -0.232 -0.488 -0.842 42 42 34
0.5454 48.7181 60.9064 -0.019 -0.309 -0.951 34 35 27
1.1305 48.7504 60.9988 -0.122 -0.459 -0.880 31 32 24
1.3358 48.7395 60.9760 -0.122 -0.459 -0.880 30 31 23
4.9177 49.1494 62.0671 -0.078 0.814 -0.576 31 31 19
5.0898 49.1257 62.0121 -0.042 0.811 -0.584 34 34 24
5.2859 49.1089 61.9748 -0.042 0.811 -0.584 33 33 23
5.5282 49.1057 61.9720 -0.038 0.809 -0.586 34 31 22
5.1718 48.9269 61.5220 0.045 0.652 -0.757 32 29 20
5.4266 48.9275 61.5289 0.234 0.526 -0.818 32 30 23
5.4161 48.8507 61.3386 0.222 0.518 -0.826 31 29 21
5.8991 48.9173 61.5138 0.230 0.516 -0.825 30 27 20
5.9297 48.6330 60.8110 -0.374 0.533 -0.759 19 19 9
6.8379 48.6735 60.9305 -0.033 0.276 -0.961 31 31 21
8.7225 48.3326 60.1274 0.423 -0.359 -0.832 42 44 39
9.5887 48.4969 60.5525 0.352 -0.627 -0.695 52 54 49
9.7678 48.4737 60.4988 0.231 -0.565 -0.792 40 42 37
10.0749 48.4850 60.5334 0.226 -0.582 -0.781 32 34 29
10.6893 48.5787 60.7785 -0.025 -0.823 -0.567 32 34 29
-65.1930 61.6515 91.1039 -0.129 0.053 -0.990 88 88 78
-65.0561 61.6423 91.0837 -0.016 0.045 -0.999 105 106 90
-64.9175 61.6403 91.0814 -0.016 0.045 -0.999 107 109 86
-62.0856 63.7094 96.2329 -0.912 -0.396 0.106 93 86 67
-60.6641 56.3037 78.0141 -0.866 -0.462 0.192 78 76 61
-51.9639 61.4766 90.9245 -0.860 -0.271 -0.431 83 90 58
-51.4579 61.7868 91.6983 -0.854 0.417 -0.311 115 132 112
-51.3542 61.6873 91.4553 -0.828 0.456 -0.327 119 138 119
-51.2942 61.2477 90.3732 -0.080 0.299 -0.951 127 144 126
-51.0001 61.2002 90.2618 -0.694 0.448 -0.563 78 98 65
-49.6424 60.7858 89.2667 -0.157 0.492 -0.856 142 154 140
-48.1415 59.4572 86.0220 -0.731 0.556 -0.394 143 155 141
-47.8813 59.3736 85.8209 0.569 0.180 -0.802 142 154 144
-47.3120 59.4858 86.1081 -0.311 -0.245 -0.918 129 140 122
-47.1723 59.4558 86.0369 -0.200 -0.257 -0.945 116 129 103
-47.0174 59.4455 86.0145 -0.838 -0.105 -0.536 94 109 75
-45.3262 58.3183 83.2694 -0.269 -0.370 -0.889 132 143 125
-44.6874 57.9310 82.3275 -0.969 0.123 -0.216 117 132 102
-39.8240 54.6107 74.2395 0.394 0.594 -0.701 148 158 149
-24.0499 51.7423 67.4724 -0.979 -0.200 0.039 142 144 133
-24.1419 51.5969 67.1124 -0.968 -0.243 0.063 142 144 133
-22.7006 51.2909 66.3860 0.004 0.545 -0.838 97 95 83
-21.7699 51.2879 66.3964 -0.642 -0.608 -0.467 103 100 91
-21.5427 51.3070 66.4477 -0.071 0.376 -0.924 105 102 93
-21.8098 51.0829 65.8904 0.574 -0.051 -0.817 103 100 91
-21.0845 51.2530 66.3234 0.524 0.262 -0.811 122 119 110
-21.2415 50.9017 65.4548 -0.671 0.700 -0.243 126 123 114
-20.8360 50.8244 65.2721 0.105 -0.382 -0.918 129 126 117
-20.6323 50.8312 65.2926 0.105 -0.382 -0.918 129 126 117
-20.5414 50.7843 65.1788 -0.600 -0.011 -0.800 126 123 114
-20.1546 50.7872 65.1935 -0.934 -0.325 -0.147 112 109 100
-19.2019 50.9633 65.6453 0.095 0.633 -0.769 97 97 89
-19.3401 50.8095 65.2638 -0.178 0.393 -0.902 98 98 90
-19.0902 50.8358 65.3334 -0.084 0.414 -0.907 83 83 74
-19.1294 50.7287 65.0689 -0.348 0.076 -0.934 98 98 89
-19.0016 50.6988 64.9974 -0.304 0.043 -0.952 106 106 98
-18.8164 50.6950 64.9918 -0.351 0.088 -0.932 91 91 83
-18.6335 50.6901 64.9830 -0.454 0.201 -0.868 88 85 78
-18.5541 50.6380 64.8562 -0.609 0.237 -0.757 83 80 73
-18.4716 50.5875 64.7334 -0.652 0.208 -0.730 76 73 66
-18.4185 50.5239 64.5777 -0.331 0.006 -0.944 71 68 61
-18.2441 50.5150 64.5590 -0.775 0.107 -0.622 109 106 99
-18.1367 50.4760 64.4649 -0.775 0.089 -0.626 133 130 123
-18.0804 50.4143 64.3140 -0.771 0.056 -0.634 122 119 112
-17.7271 50.4846 64.4940 0.088 -0.053 -0.995 99 96 89
-17.6696 50.4234 64.3444 -0.344 -0.102 -0.934 100 100 92
-17.5076 50.4085 64.3107 -0.327 -0.106 -0.939 104 104 96
-17.3180 50.4056 64.3073 -0.130 0.052 -0.990 87 87 79
-14.8872 50.0017 63.3582 -0.214 -0.467 -0.858 83 83 75
-14.6961 49.9974 63.3514 -0.267 -0.457 -0.848 94 94 84
-14.5357 49.9804 63.3125 -0.906 -0.147 -0.398 109 109 101
-14.4408 49.9365 63.2060 -0.868 -0.178 -0.464 131 131 123
-13.9739 49.8791 63.0735 0.316 0.133 -0.939 89 89 81
-13.6679 49.9205 63.1814 -0.621 0.120 -0.774 90 90 82
-13.4684 49.9186 63.1805 -0.176 -0.298 -0.938 92 92 84
-13.4174 49.8570 63.0297 -0.653 0.143 -0.744 95 95 87
-11.5872 49.8452 63.0354 0.154 -0.209 -0.966 72 69 64
-10.9994 49.6681 62.6104 -0.215 0.287 -0.933 78 80 69
-10.8801 49.6335 62.5274 -0.237 0.336 -0.912 82 84 73
-10.7362 49.6083 62.4680 -0.234 0.342 -0.910 91 93 82
-10.5798 49.5877 62.4202 -0.274 0.353 -0.895 93 95 84
-10.2369 49.5577 62.3528 -0.182 0.395 -0.901 105 107 96
-9.7019 49.4407 62.0747 -0.238 0.421 -0.875 75 73 61
-9.3480 49.4927 62.2096 -0.109 0.346 -0.932 74 74 62
-9.3016 49.2744 61.6726 -0.199 0.383 -0.902 88 90 77
-7.4418 49.4003 62.0181 -0.161 0.465 -0.870 74 75 67
-7.1183 49.3597 61.9243 0.082 0.240 -0.967 87 87 85
-6.3338 49.2486 61.6657 -0.228 -0.629 -0.743 89 89 87
-6.4409 49.1345 61.3824 -0.445 -0.484 -0.754 91 92 87
-6.3809 49.0789 61.2464 -0.627 -0.281 -0.727 80 81 75
-4.4288 49.2123 61.6125 -0.630 -0.120 -0.767 96 94 82
-3.9600 49.2177 61.6345 0.213 -0.282 -0.935 74 72 59
-3.7391 49.2155 61.6333 0.211 -0.392 -0.896 74 72 59
-3.5495 49.2027 61.6053 -0.814 0.129 -0.566 61 61 52
-3.3660 49.1118 61.3849 -0.794 0.128 -0.594 52 53 48
-3.3684 49.0353 61.1965 -0.770 0.179 -0.613 50 51 46
-2.5758 49.0697 61.2963 0.063 -0.083 -0.995 90 93 86
-2.1350 48.9126 60.9177 -0.117 0.614 -0.781 121 125 111
-1.8181 48.9401 60.9914 0.197 0.231 -0.953 115 119 105
-1.2903 48.9599 61.0503 0.138 0.295 -0.945 97 99 88
-0.8674 48.9454 61.0224 0.100 0.249 -0.963 95 95 85
-0.7246 48.9161 60.9531 -0.477 0.448 -0.756 85 85 75
-0.6124 48.8772 60.8593 -0.477 0.448 -0.756 83 83 73
-0.5075 48.8360 60.7598 -0.130 0.220 -0.967 74 75 67
-0.2060 48.8566 60.8163 -0.128 0.396 -0.909 67 68 60
0.2572 48.7792 60.6344 0.156 0.028 -0.987 43 43 35
0.8344 48.8103 60.7220 -0.082 0.146 -0.986 31 32 24
1.3396 48.8920 60.9330 -0.360 -0.320 -0.876 29 30 22
1.4453 48.8505 60.8328 -0.773 -0.443 -0.453 28 29 23
1.0196 48.6467 60.3225 -0.906 0.033 -0.421 27 28 22
1.8094 48.8142 60.7503 -0.204 -0.211 -0.956 30 31 23
3.0219 49.1089 61.4992 0.360 -0.741 -0.567 30 31 23
6.8947 49.2149 61.8342 -0.626 -0.331 -0.706 37 34 27
6.9913 49.1685 61.7217 -0.633 -0.339 -0.696 35 35 25
6.4790 48.8733 60.9846 -0.823 0.516 -0.236 34 34 24
7.4627 49.0082 61.3356 -0.333 -0.919 -0.211 38 38 28
8.3680 48.9709 61.2610 0.132 -0.660 -0.740 31 32 24
7.6033 48.3951 59.8278 0.297 -0.410 -0.863 30 29 24
7.7286 48.3584 59.7399 0.433 -0.396 -0.810 32 33 27
9.6554 48.6013 60.3748 0.231 -0.565 -0.792 51 53 48
10.0043 48.6244 60.4384 0.228 -0.568 -0.791 47 49 44
10.9323 48.7317 60.7206 -0.066 -0.750 -0.658 34 36 31
-65.0330 61.8199 91.1237 0.053 -0.059 -0.997 92 93 78
-62.6993 68.9363 108.6199 -0.447 0.732 -0.514 79 78 57
-61.8720 64.0254 96.5867 -0.861 -0.504 0.066 90 83 64
-53.9257 63.7055 95.9344 -0.852 0.505 -0.135 103 89 78
-50.9300 61.4447 90.4381 -0.572 0.466 -0.674 99 119 87
-50.0407 60.8037 88.8805 -0.048 0.367 -0.929 102 116 101
-49.5806 61.0112 89.3974 -0.162 0.490 -0.857 140 153 137
-48.0391 59.7285 86.2764 -0.777 0.532 -0.336 149 161 147
-48.0768 59.4573 85.6105 0.516 0.186 -0.836 149 161 147
-47.6593 59.5868 85.9350 0.249 0.343 -0.906 151 161 152
-47.4688 59.6253 86.0326 -0.471 -0.128 -0.873 144 154 143
-47.3022 59.6313 86.0502 -0.455 -0.185 -0.871 136 147 129
-47.1613 59.6028 85.9827 -0.455 -0.185 -0.871 119 131 105
-45.4835 58.4560 83.1974 -0.522 0.088 -0.848 151 163 150
-45.3778 58.3895 83.0360 -0.463 0.142 -0.875 140 153 135
-44.7292 58.0154 82.1291 -0.986 0.140 -0.095 117 133 107
-44.6477 57.7412 81.4578 -0.973 0.183 -0.138 137 149 137
-39.8870 55.1079 75.0774 -0.226 -0.185 -0.956 150 160 149
-23.1264 51.5894 66.7253 -0.122 0.297 -0.947 92 92 84
-20.8089 52.1919 68.2419 0.348 0.628 -0.696 92 90 78
-21.7457 51.2514 65.9191 0.573 -0.049 -0.818 106 103 94
-20.6191 51.0654 65.4816 -0.034 -0.158 -0.987 128 125 116
-19.6735 50.9715 65.2670 -0.226 0.528 -0.818 89 89 81
-19.4634 50.9800 65.2914 -0.212 0.501 -0.839 90 90 82
-19.2801 50.9758 65.2842 -0.240 0.414 -0.878 92 91 86
-19.0348 51.0002 65.3481 -0.114 0.384 -0.916 101 100 94
-18.7811 50.9387 65.2015 -0.489 -0.483 -0.726 110 110 102
-18.6131 50.9269 65.1753 -0.447 -0.494 -0.746 122 122 114
-18.4973 50.8910 65.0892 -0.505 -0.526 -0.685 104 101 94
-18.4914 50.8051 64.8786 -0.621 0.255 -0.741 102 99 92
-18.4803 50.7220 64.6748 -0.275 -0.060 -0.960 101 98 91
-18.3609 50.6883 64.5941 -0.322 -0.011 -0.947 81 78 71
-18.1668 50.6883 64.5973 -0.259 0.130 -0.957 117 114 107
-18.0187 50.6674 64.5486 -0.319 0.080 -0.944 140 137 130
-17.8986 50.6339 64.4685 -0.296 0.010 -0.955 115 115 107
-17.6583 50.6542 64.5221 0.087 -0.037 -0.995 106 106 98
-17.1859 50.6898 64.6175 0.212 0.043 -0.976 114 114 106
-17.3096 50.5483 64.2682 -0.089 -0.262 -0.961 106 107 99
-16.9624 50.6147 64.4370 -0.043 -0.247 -0.968 89 90 82
-16.0183 50.2534 63.5662 -0.739 -0.008 -0.674 93 94 86
-14.9063 50.1337 63.2911 -0.214 -0.467 -0.858 100 101 93
-14.7233 50.1263 63.2760 -0.258 -0.456 -0.852 100 101 93
-14.5850 50.1002 63.2144 -0.923 -0.199 -0.330 90 91 83
-14.4506 50.0726 63.1488 -0.883 -0.194 -0.427 117 118 110
-13.3359 50.0307 63.0646 -0.679 0.174 -0.713 90 90 82
-12.5180 50.1116 63.2768 0.063 -0.548 -0.834 90 90 82
-12.9848 49.8438 62.6121 -0.661 -0.296 -0.690 92 92 84
-11.3744 50.0709 63.1959 0.445 -0.147 -0.883 78 75 68
-11.4714 49.9515 62.9015 -0.247 0.349 -0.904 84 81 74
-10.9933 50.0560 63.1658 -0.211 -0.143 -0.967 95 92 85
-10.7019 50.0874 63.2476 -0.919 0.193 -0.343 95 92 85
-10.6772 50.0155 63.0716 -0.885 0.253 -0.390 93 93 85
-10.6052 49.9621 62.9418 -0.865 0.328 -0.379 86 88 77
-10.5350 49.9081 62.8106 -0.824 0.361 -0.436 86 88 77
-10.2706 49.9285 62.8649 0.077 0.020 -0.997 86 88 77
-10.0411 49.9352 62.8852 0.087 0.017 -0.996 84 86 75
-10.1346 49.7392 62.4028 -0.222 0.487 -0.845 106 108 97
-9.9560 49.7267 62.3752 -0.162 0.479 -0.863 100 102 91
-9.7550 49.7225 62.3683 -0.140 0.477 -0.868 116 116 106
-9.5970 49.6227 62.1260 -0.240 0.419 -0.875 87 85 73
-9.0615 49.7425 62.4289 -0.120 0.407 -0.906 92 90 78
-8.1528 49.6020 62.0992 0.257 -0.159 -0.953 105 109 95
-7.2363 49.5406 61.9641 -0.240 0.488 -0.839 89 90 85
-6.9372 49.4136 61.6574 -0.624 0.325 -0.711 81 81 81
-6.3443 49.2364 61.2325 -0.449 -0.483 -0.751 88 89 83
-4.6412 49.3637 61.5733 0.093 -0.024 -0.995 95 93 80
-4.4716 49.3449 61.5298 -0.731 0.064 -0.679 95 93 80
-4.4410 49.2788 61.3682 -0.734 0.051 -0.677 80 78 65
-4.1650 49.1437 61.0415 -0.408 0.286 -0.867 61 61 52
-3.5292 49.2811 61.3890 -0.252 -0.297 -0.921 53 54 48
-3.4500 49.2314 61.2687 -0.212 -0.141 -0.967 52 53 48
-3.2952 49.2072 61.2116 -0.662 0.262 -0.703 55 56 51
-2.8357 49.2080 61.2213 -0.132 0.034 -0.991 60 61 56
-0.6050 49.1037 61.0028 -0.196 0.323 -0.926 84 86 75
-0.4834 49.0676 60.9162 -0.480 0.458 -0.749 80 82 71
-0.3366 49.0396 60.8498 -0.181 0.278 -0.943 74 76 65
-0.0240 49.0638 60.9145 -0.105 0.410 -0.906 72 74 63
1.2737 49.0230 60.8359 -0.620 -0.326 -0.713 52 54 43
1.3526 48.9732 60.7152 -0.772 -0.449 -0.451 34 35 27
1.0613 48.8097 60.3091 -0.903 0.164 -0.397 29 30 22
5.7591 49.3377 61.6826 0.253 0.582 -0.773 45 38 32
6.8900 49.5212 62.1517 0.198 0.649 -0.734 52 45 39
6.8241 49.0555 61.0081 0.279 -0.788 -0.549 45 43 34
9.1165 49.1197 61.2038 0.387 -0.177 -0.905 34 35 29
9.6336 48.7533 60.3136 0.313 -0.442 -0.841 62 64 59
-60.5387 61.6986 90.4970 -0.008 -0.001 -1.000 91 87 60
-56.6779 67.5605 104.8702 0.229 -0.810 -0.540 82 76 62
-58.7642 59.5510 85.2770 0.442 0.732 -0.519 84 85 71
-53.8174 63.7206 95.5321 -0.914 0.382 -0.134 85 68 60
-53.7254 62.9348 93.6140 -0.907 0.377 -0.187 57 26 26
-51.9719 61.7193 90.6703 -0.126 0.762 -0.635 70 72 45
-50.8964 61.6298 90.4670 -0.647 0.409 -0.643 107 125 96
-47.6060 59.7902 86.0209 0.004 0.361 -0.932 153 163 155
-47.4479 59.7854 86.0113 -0.479 -0.129 -0.868 149 159 149
-47.2520 59.8304 86.1240 -0.831 -0.045 -0.554 143 154 139
-47.1633 59.7326 85.8865 -0.490 -0.156 -0.858 124 137 112
-45.4596 58.6166 83.1850 -0.516 0.073 -0.854 133 145 132
-45.3549 58.5487 83.0205 -0.465 0.129 -0.876 142 155 138
-42.9045 53.2136 70.0245 -0.452 -0.027 -0.892 148 160 150
-39.8942 55.2313 74.9959 -0.209 -0.186 -0.960 146 157 143
-38.8096 55.4718 75.5989 0.081 0.630 -0.772 138 149 135
-23.3268 51.7180 66.6517 0.080 0.297 -0.951 83 82 77
-23.0474 51.7670 66.7753 -0.117 0.292 -0.949 87 86 81
-22.2212 51.4306 65.9655 -0.437 -0.774 -0.458 83 80 71
-22.1021 51.3969 65.8849 -0.438 -0.758 -0.483 88 85 76
-21.9373 51.3861 65.8607 -0.436 -0.801 -0.410 94 92 80
-21.1265 51.4157 65.9448 -0.564 0.344 -0.751 105 103 91
-21.1054 51.3336 65.7445 -0.552 0.384 -0.740 112 110 98
-20.6686 51.3622 65.8207 -0.740 0.569 -0.360 134 132 120
-20.5523 51.2351 65.5117 0.060 -0.477 -0.877 127 125 113
-19.9798 51.1453 65.3006 -0.559 0.435 -0.706 112 112 102
-19.6163 51.1365 65.2845 -0.206 0.120 -0.971 106 105 100
-19.4743 51.1132 65.2295 -0.400 0.167 -0.901 99 98 93
-19.3270 51.0924 65.1807 -0.602 0.258 -0.756 116 115 111
-19.0093 51.0612 65.1091 -0.318 0.055 -0.946 109 108 103
-18.8419 51.0494 65.0827 -0.272 0.001 -0.962 115 114 109
-18.6445 51.0514 65.0903 0.012 -0.206 -0.978 119 118 113
-18.4977 51.0298 65.0398 -0.482 -0.508 -0.713 111 111 103
-18.4585 50.8703 64.6508 -0.213 -0.345 -0.914 115 112 105
-17.1712 50.8359 64.5851 0.249 0.001 -0.968 108 109 101
-16.9522 50.7587 64.3997 -0.043 -0.247 -0.968 90 91 83
-16.7025 50.6953 64.2483 -0.434 0.480 -0.762 97 98 90
-14.8439 50.2996 63.3084 -0.231 -0.202 -0.952 110 112 101
-14.6811 50.2838 63.2722 -0.231 -0.202 -0.952 111 112 104
-13.3664 50.2420 63.1889 -0.073 0.488 -0.870 83 84 78
-12.5381 50.2456 63.2095 0.059 -0.552 -0.832 83 83 75
-12.7684 49.9078 62.3813 0.093 -0.309 -0.946 89 86 79
-11.5685 50.0559 62.7602 0.246 -0.658 -0.712 93 90 83
-10.7806 50.2823 63.3245 -0.179 0.253 -0.951 95 92 85
-10.5933 50.2733 63.3051 -0.882 0.251 -0.400 100 97 90
-10.5426 50.2112 63.1540 -0.882 0.251 -0.400 104 104 96
-10.4941 50.1484 63.0013 -0.870 0.289 -0.400 97 99 88
-10.3724 50.1140 62.9190 -0.850 0.302 -0.432 91 93 82
-10.0858 50.1429 62.9938 -0.053 -0.042 -0.998 80 82 71
-9.9502 50.1137 62.9245 0.060 -0.676 -0.734 81 83 72
-10.0307 50.0021 62.6507 -0.036 0.515 -0.857 94 96 85
-10.0619 49.9098 62.4247 -0.309 0.371 -0.876 100 102 91
-8.4726 49.7870 62.1477 -0.254 -0.661 -0.706 122 126 112
-8.4368 49.7211 61.9871 0.233 -0.165 -0.958 114 118 104
-8.1327 49.7537 62.0711 0.251 -0.153 -0.956 105 111 97
-7.5570 49.8058 62.2066 -0.293 0.473 -0.831 92 96 82
-7.3531 49.8009 62.1975 -0.335 0.017 -0.942 71 74 63
-7.2365 49.7642 62.1096 -0.320 0.098 -0.942 87 90 81
-7.0734 49.7443 62.0634 -0.305 0.171 -0.937 98 99 94
-6.8951 49.7299 62.0306 0.086 0.191 -0.978 93 93 91
-6.8706 49.6603 61.8610 -0.556 0.358 -0.750 71 71 69
-6.8288 49.5971 61.7073 -0.746 0.264 -0.612 67 67 65
-6.7713 49.4622 61.3786 -0.421 0.375 -0.826 66 67 62
-6.4272 49.2754 60.9272 -0.360 -0.009 -0.933 87 88 82
-6.2871 49.2478 60.8619 -0.579 -0.102 -0.809 86 87 81
-6.1832 49.2076 60.7653 -0.551 -0.228 -0.803 97 97 89
-4.7805 49.5397 61.5964 0.026 -0.053 -0.998 95 93 81
-4.5559 49.5399 61.6000 0.124 -0.028 -0.992 95 93 80
-4.4484 49.4997 61.5035 -0.817 -0.001 -0.576 95 93 80
-3.4998 49.4385 61.3676 -0.253 -0.312 -0.916 52 53 47
-3.3590 49.4095 61.2987 -0.175 -0.204 -0.963 53 54 49
-3.2450 49.3715 61.2075 -0.746 0.177 -0.642 58 59 54
-3.0716 49.3533 61.1657 -0.760 0.178 -0.625 58 59 54
-2.8214 49.3607 61.1872 -0.024 -0.115 -0.993 64 67 60
-2.4366 49.4124 61.3190 0.007 -0.101 -0.995 97 100 93
-0.1689 49.3179 61.1207 -0.151 0.442 -0.884 68 71 60
0.2505 49.1514 60.7198 -0.084 0.297 -0.951 46 46 36
0.4910 49.1526 60.7263 0.038 0.063 -0.997 36 36 26
1.2256 49.1591 60.7527 -0.236 -0.323 -0.916 85 87 76
1.3523 49.1241 60.6691 -0.779 -0.493 -0.388 55 55 45
1.5068 49.0238 60.4261 -0.794 -0.424 -0.436 46 46 36
6.6715 49.7659 62.3128 0.245 0.630 -0.737 52 45 39
7.0944 49.2164 60.9766 0.021 -0.958 -0.287 57 58 50
9.1485 49.2875 61.1796 0.388 -0.602 -0.698 41 42 36
7.8862 48.7132 59.7589 0.337 0.126 -0.933 38 39 33
8.4458 48.7978 59.9735 0.326 0.144 -0.934 42 43 37
9.0102 48.8830 60.1896 0.380 0.146 -0.913 62 65 58
9.6097 48.9046 60.2509 0.105 0.279 -0.954 62 64 59
-64.0270 57.8714 80.7468 -0.084 0.643 -0.761 89 81 62
-60.4956 62.8133 92.8078 0.273 -0.056 -0.960 98 94 69
-60.3066 62.9335 93.1024 0.206 -0.242 -0.948 92 88 63
-60.0496 63.2521 93.8804 0.580 -0.073 -0.811 91 87 62
-53.6594 64.1665 96.1807 -0.810 0.565 -0.159 100 89 77
-53.8707 63.0928 93.5670 -0.811 0.560 -0.167 50 30 23
-52.1811 61.7614 90.3493 0.294 0.531 -0.795 69 62 44
-51.9928 61.8111 90.4723 0.001 0.800 -0.600 66 64 45
-51.7455 61.9610 90.8399 -0.050 0.803 -0.594 65 76 54
-50.9036 62.0159 90.9835 -0.708 0.620 -0.338 106 120 100
-50.7239 61.7770 90.4046 0.045 0.041 -0.998 106 126 87
-47.5655 59.9768 86.0644 0.077 -0.007 -0.997 148 158 150
-47.3157 60.0952 86.3552 -0.871 -0.048 -0.489 149 159 151
-47.2094 60.0198 86.1731 -0.871 -0.048 -0.489 149 159 146
-47.1085 59.9376 85.9746 -0.896 -0.085 -0.435 137 149 127
-45.7337 59.4047 84.6949 -0.910 0.381 -0.163 116 130 112
-45.7189 59.2217 84.2500 -0.937 0.330 -0.116 126 141 122
-45.6098 59.1561 84.0917 -0.991 0.128 -0.030 160 173 156
-45.5502 59.0306 83.7873 -0.748 0.448 -0.490 152 164 150
-45.4321 58.7816 83.1832 -0.524 0.067 -0.849 114 126 112
-45.3446 58.6930 82.9687 -0.578 -0.057 -0.814 125 139 121
-45.1603 58.7200 83.0366 -0.154 -0.284 -0.947 141 156 136
-23.9701 51.7095 66.2406 -0.221 -0.834 -0.506 100 97 92
-23.2439 51.8978 66.7072 0.060 0.295 -0.953 82 81 77
-22.9649 51.9468 66.8298 -0.110 0.312 -0.944 77 74 69
-23.2651 51.6951 66.2141 -0.940 0.279 -0.196 75 72 65
-21.1492 51.5421 65.8673 -0.603 0.249 -0.758 106 104 91
-21.0483 51.4066 65.5390 -0.572 0.406 -0.713 115 113 101
-20.9295 51.3727 65.4579 -0.883 -0.025 -0.469 118 118 106
-20.3838 51.3626 65.4398 0.046 0.354 -0.934 98 99 85
-19.9309 51.3064 65.3087 -0.462 0.493 -0.737 122 122 112
-19.4734 51.3425 65.4018 -0.524 0.226 -0.822 115 114 109
-19.3786 51.2966 65.2915 -0.602 0.258 -0.756 114 113 109
-18.9963 51.2057 65.0749 -0.343 0.052 -0.938 98 97 93
-18.8524 51.1831 65.0216 -0.322 0.049 -0.945 99 98 94
-18.5602 51.1397 64.9197 -0.511 -0.472 -0.718 122 121 116
-17.5872 50.8763 64.2907 -0.107 -0.436 -0.894 101 102 94
-17.1332 50.9924 64.5785 0.113 -0.214 -0.970 101 102 94
-17.1309 50.9058 64.3679 0.062 0.001 -0.998 99 100 92
-14.7224 50.4064 63.1822 -0.105 -0.332 -0.937 102 103 95
-14.5626 50.3895 63.1429 -0.102 -0.222 -0.970 97 98 90
-13.6842 50.5031 63.4297 -0.016 0.557 -0.830 87 88 82
-13.3160 50.4037 63.1925 -0.338 0.558 -0.758 71 72 66
-12.4560 50.1732 62.6421 0.365 0.336 -0.868 86 83 76
-11.5278 50.2960 62.9520 0.498 -0.457 -0.737 101 98 91
-10.0456 50.3023 62.9850 -0.053 -0.042 -0.998 88 90 79
-10.0827 50.0449 62.3586 -0.037 -0.283 -0.958 92 94 83
-9.1652 49.9915 62.2396 -0.672 -0.282 -0.685 101 99 87
-7.5184 49.9650 62.1949 -0.268 -0.523 -0.809 91 94 83
-7.3416 49.9503 62.1613 -0.288 -0.531 -0.797 83 86 75
-7.1783 49.9306 62.1153 -0.288 -0.531 -0.797 106 107 99
-7.0153 49.9107 62.0690 -0.281 0.037 -0.959 111 112 106
-6.8083 49.9066 62.0615 -0.643 -0.208 -0.737 96 97 91
-6.7250 49.8579 61.9440 -0.885 -0.201 -0.420 68 69 64
-4.8490 49.7402 61.6802 0.023 -0.021 -1.000 104 104 95
-4.6650 49.6491 61.4608 -0.699 0.126 -0.703 96 94 81
-3.1950 49.5359 61.2032 -0.265 -0.472 -0.841 65 68 61
-3.0235 49.5172 61.1597 -0.265 -0.472 -0.841 79 82 75
-2.4255 49.5646 61.2822 0.025 -0.186 -0.982 106 109 100
0.2947 49.3154 60.7088 -0.122 0.256 -0.959 60 60 50
1.0494 49.3295 60.7520 -0.223 -0.329 -0.918 105 105 95
1.2337 49.3126 60.7131 -0.223 -0.329 -0.918 112 112 102
1.3257 49.2668 60.6028 -0.768 -0.323 -0.553 78 78 68
1.4026 49.2163 60.4811 -0.800 -0.298 -0.520 60 60 50
5.1352 49.2405 60.5845 -0.589 0.159 -0.792 65 58 52
5.3784 49.2388 60.5832 -0.200 -0.279 -0.939 66 62 56
5.3183 49.1473 60.3601 -0.136 -0.401 -0.906 66 65 56
7.3206 49.3647 60.9129 -0.516 -0.749 -0.415 55 58 49
9.3619 49.0659 60.2105 0.125 0.151 -0.981 63 64 58
9.8269 49.1229 60.3547 0.106 0.321 -0.941 63 64 59
10.2619 49.1710 60.4768 0.162 0.363 -0.918 70 71 65
10.7838 49.2426 60.6573 0.139 0.393 -0.909 61 62 56
11.1461 49.2695 60.7272 0.295 0.164 -0.941 54 55 49
-64.0040 58.0339 80.7909 -0.468 0.693 -0.548 96 88 69
-60.2848 63.1018 93.0993 0.297 0.116 -0.948 92 87 65
-56.7862 67.5259 103.8468 0.314 0.648 -0.693 68 62 46
-53.7220 66.6322 101.7122 -0.922 -0.315 0.224 101 92 83
-53.6900 63.5774 94.3150 -0.804 0.571 -0.168 48 32 22
-50.6958 61.9533 90.4109 0.039 0.038 -0.998 116 132 95
-49.2124 61.4709 89.2572 -0.731 0.405 -0.550 135 146 131
-47.6323 60.2378 86.2862 -0.103 0.419 -0.902 144 156 145
-47.5074 60.1875 86.1655 -0.095 0.173 -0.980 141 153 143
-47.3051 60.2419 86.2993 -0.857 0.032 -0.515 142 152 142
-46.0045 60.0208 85.7765 0.102 0.518 -0.849 89 110 79
-45.6511 60.2608 86.3610 0.196 0.583 -0.789 97 116 86
-45.6696 59.4155 84.3138 -0.953 0.282 -0.108 111 124 107
-45.4896 59.2371 83.8837 -0.748 0.448 -0.490 157 169 155
-45.3820 58.9741 83.2479 -0.527 0.095 -0.845 142 154 140
-45.2957 58.8835 83.0293 -0.892 -0.194 -0.408 128 141 123
-45.0737 58.9555 83.2058 -0.252 0.254 -0.934 138 153 133
-44.6336 58.1506 81.2607 -0.949 0.302 -0.088 132 146 131
-24.2970 52.3535 67.4190 -0.757 -0.628 0.180 147 149 138
-24.0719 51.7908 66.0586 -0.249 -0.828 -0.502 97 93 90
-23.5633 51.8667 66.2472 -0.160 -0.012 -0.987 83 79 76
-22.6688 52.0451 66.6879 -0.240 0.707 -0.666 68 63 57
-22.5481 52.0115 66.6077 -0.234 0.709 -0.666 69 65 56
-21.7225 51.8619 66.2535 -0.314 0.735 -0.601 86 84 72
-21.6230 51.8177 66.1473 -0.314 0.735 -0.601 92 90 77
