ply
format ascii 1.0
element vertex 887
property float x
property float y
property float z
property float nx
property float ny
property float nz
property uchar diffuse_red
property uchar diffuse_green
property uchar diffuse_blue
end_header
17.5449 30.8176 60.5585 0.522 -0.472 -0.710 110 113 92
17.6845 30.8148 60.6047 0.480 -0.470 -0.741 111 114 93
18.6289 30.7234 60.7457 0.136 -0.276 -0.951 147 148 130
18.7875 30.7069 60.7667 0.037 -0.259 -0.965 134 137 118
19.5698 30.6303 60.8812 0.181 -0.327 -0.927 114 121 98
19.7814 30.5757 60.8322 0.158 -0.241 -0.958 111 116 94
20.1757 30.5809 60.9935 0.433 -0.129 -0.892 117 124 101
20.2952 30.5911 61.0628 0.382 -0.120 -0.916 107 116 91
20.5428 30.6054 61.1904 0.470 -0.085 -0.878 97 113 78
32.5490 29.9910 64.2770 0.469 -0.641 -0.607 138 128 117
32.9101 30.0136 64.4670 0.277 0.069 -0.958 140 126 110
35.4132 30.2057 65.8672 0.937 -0.314 0.151 75 91 79
39.3142 29.9602 66.7619 0.836 -0.316 -0.449 26 25 21
40.7025 29.7933 66.8921 0.088 -0.668 -0.739 67 64 57
40.8390 29.7784 66.9086 0.092 -0.670 -0.737 60 55 49
41.2541 29.7251 66.9395 0.042 -0.528 -0.848 76 69 66
42.9397 30.5356 69.4927 0.251 -0.427 -0.869 68 76 58
45.5188 29.8525 68.8529 -0.143 -0.028 -0.989 58 84 37
46.3897 30.0590 69.6704 -0.468 -0.346 -0.813 43 76 46
51.2597 32.4712 77.2132 0.654 -0.076 -0.752 69 79 66
51.0853 33.2608 79.0137 0.938 -0.318 0.134 54 64 51
51.0651 33.6660 79.9638 0.980 -0.164 0.109 57 67 54
57.7648 31.5748 77.5536 -0.103 -0.130 -0.986 101 100 82
59.5494 29.1579 72.5153 0.252 0.126 -0.960 107 112 92
61.9519 31.5353 79.0434 0.195 -0.211 -0.958 119 128 111
-10.8281 36.0043 61.6605 -0.189 -0.237 -0.953 62 74 70
-6.1895 34.8107 60.6077 0.260 -0.475 -0.841 51 57 53
-6.0248 34.8068 60.6609 0.260 -0.475 -0.841 129 135 131
-5.6314 34.7663 60.7144 0.177 -0.232 -0.957 60 65 59
-5.3783 34.7172 60.6946 0.036 -0.249 -0.968 59 64 58
-3.2820 34.1185 60.0794 0.260 -0.403 -0.877 79 91 84
-3.1194 34.1138 60.1298 0.260 -0.403 -0.877 64 77 68
4.6644 32.5783 59.4626 0.169 -0.711 -0.682 22 24 21
6.2441 32.3395 59.4986 -0.074 -0.017 -0.997 16 18 15
10.3533 31.8502 59.9026 0.520 -0.291 -0.803 96 98 85
10.3972 31.9091 60.0577 0.463 -0.182 -0.867 97 99 86
11.7932 31.5702 59.7885 0.244 -0.170 -0.955 91 93 79
12.6379 31.5647 60.0954 0.329 -0.345 -0.879 99 101 88
17.6923 30.9543 60.5719 0.074 -0.233 -0.970 109 112 91
18.3201 30.8947 60.6694 0.088 -0.277 -0.957 120 123 104
18.4802 30.8774 60.6891 0.088 -0.277 -0.957 175 178 159
18.6521 30.8518 60.6939 0.086 -0.405 -0.910 136 139 120
18.8399 30.8149 60.6781 0.022 -0.407 -0.913 127 130 111
19.6379 30.7262 60.7716 0.256 -0.072 -0.964 118 128 104
19.7812 30.7196 60.8102 0.256 -0.072 -0.964 120 129 104
20.5643 30.7339 61.1403 0.431 -0.147 -0.891 88 108 73
20.9540 30.5489 60.8524 0.440 0.018 -0.898 100 119 88
20.8977 30.6861 61.1539 -0.028 -0.042 -0.999 100 119 87
23.1431 30.1996 60.8590 0.271 -0.567 -0.778 52 54 40
23.2758 30.1983 60.9061 0.271 -0.567 -0.778 100 102 88
23.6228 30.2331 61.1194 0.038 -0.554 -0.832 123 121 106
23.7263 30.2542 61.2081 0.223 -0.423 -0.878 117 116 98
32.4958 30.0611 64.0725 0.762 -0.324 -0.560 88 81 66
32.5955 30.0885 64.1747 0.599 -0.510 -0.617 103 94 79
32.8016 30.1374 64.3677 0.532 -0.566 -0.630 103 94 79
32.8993 30.1672 64.4749 0.277 0.069 -0.958 115 105 88
34.8403 30.0104 64.8405 -0.050 -0.670 -0.741 117 120 110
35.4295 30.3329 65.8222 0.961 -0.239 0.137 73 90 81
35.5970 30.4292 66.1123 -0.143 -0.227 -0.963 71 87 76
40.4764 29.9070 66.7300 0.226 -0.695 -0.682 43 42 38
40.7347 29.8963 66.8027 0.088 -0.668 -0.739 57 56 51
40.8711 29.8813 66.8190 0.092 -0.670 -0.737 45 42 37
41.1078 29.8986 66.9492 0.156 -0.574 -0.804 67 64 59
41.2639 29.8570 66.9105 0.001 -0.470 -0.883 63 58 54
43.4865 31.0175 70.4819 0.741 0.172 -0.649 72 89 56
51.0971 33.7623 79.8200 0.980 -0.164 0.109 84 90 82
55.9025 33.0954 80.0695 0.525 0.655 -0.543 92 105 98
56.4349 34.2782 83.0539 0.881 0.415 -0.226 89 92 80
61.8249 31.8542 79.3903 0.462 -0.032 -0.886 131 138 123
62.4815 31.4551 78.6998 0.268 -0.584 -0.766 124 127 117
63.7103 32.5650 81.7762 -0.567 0.340 -0.750 109 111 98
63.8406 32.4778 81.6204 -0.573 0.336 -0.748 115 117 106
63.9697 32.4464 81.5955 -0.576 0.320 -0.752 115 117 106
64.9910 32.1453 81.2736 0.840 -0.160 -0.519 97 101 84
65.1195 32.2034 81.4587 0.643 -0.344 -0.684 94 98 81
65.2475 32.2294 81.5685 0.634 -0.352 -0.688 101 108 92
66.7084 33.1140 84.2025 0.455 0.105 -0.884 116 124 109
-7.4208 35.1969 60.6323 -0.154 -0.307 -0.939 111 124 117
-5.9831 34.9480 60.5941 0.260 -0.475 -0.841 82 91 86
-5.8084 34.9389 60.6389 0.307 -0.506 -0.806 78 85 78
-5.6416 34.9337 60.6900 0.303 -0.516 -0.801 57 64 57
-3.4146 34.2669 59.9718 0.260 -0.403 -0.877 63 73 65
-3.0893 34.2573 60.0727 0.260 -0.403 -0.877 74 85 77
1.5100 33.2563 59.4706 -0.261 -0.728 -0.634 27 29 26
4.5104 32.8990 59.7705 0.171 -0.615 -0.770 23 25 22
5.2033 32.7543 59.6939 0.034 -0.575 -0.817 45 47 44
5.3837 32.7343 59.7154 0.034 -0.575 -0.817 65 67 64
5.5739 32.7085 59.7272 0.047 -0.580 -0.813 97 99 96
5.7985 32.6630 59.7056 0.144 -0.260 -0.955 21 23 20
6.0621 32.5948 59.6458 0.178 -0.115 -0.977 19 21 18
10.3676 31.9903 59.8611 0.520 -0.291 -0.803 81 83 70
10.4546 32.0232 59.9709 0.386 -0.396 -0.833 85 87 74
12.6824 31.6842 60.0210 0.311 -0.060 -0.949 86 88 75
14.0408 31.4368 59.9562 0.129 -0.409 -0.904 133 140 122
14.2312 31.4030 59.9490 0.390 -0.533 -0.751 108 115 97
14.5162 31.3965 60.0419 0.103 -0.415 -0.904 125 129 114
14.6773 31.3812 60.0670 0.114 -0.394 -0.912 97 101 86
14.9528 31.3806 60.1700 0.191 -0.225 -0.955 127 131 116
16.1452 31.2261 60.2599 0.339 -0.610 -0.716 124 127 108
18.2989 31.0541 60.6729 0.157 -0.498 -0.853 92 95 76
18.4914 31.0142 60.6524 0.095 -0.570 -0.816 124 127 108
18.8553 30.9484 60.6361 0.039 -0.562 -0.826 127 130 109
18.9400 30.9833 60.7500 0.109 -0.081 -0.991 124 129 107
19.3755 30.8661 60.6405 0.530 -0.187 -0.827 135 143 120
20.3144 30.8652 60.9940 0.254 -0.249 -0.935 82 95 69
20.3923 30.9055 61.1179 0.350 -0.175 -0.920 89 105 74
20.5653 30.8772 61.1172 0.431 -0.147 -0.891 82 102 67
20.9604 30.6874 60.8224 0.406 0.047 -0.912 85 104 71
23.7721 30.3611 61.1231 0.236 -0.458 -0.857 127 128 110
32.5074 30.1924 64.0371 0.586 -0.486 -0.648 64 57 41
32.6239 30.2035 64.1072 0.599 -0.510 -0.617 118 111 95
32.7424 30.2127 64.1736 0.783 -0.313 -0.538 137 128 113
32.8236 30.2587 64.3121 0.722 -0.252 -0.645 137 128 113
32.8956 30.3142 64.4693 0.299 0.029 -0.954 117 110 92
33.0267 30.3113 64.5123 0.266 0.059 -0.962 131 122 107
35.5975 30.4343 65.7742 0.645 -0.646 -0.408 73 90 80
35.6952 30.4674 65.8886 0.110 -0.650 -0.752 72 89 78
35.8241 30.4663 65.9351 0.110 -0.640 -0.760 52 67 50
39.3294 30.2316 66.7132 0.916 -0.281 -0.287 31 30 26
39.5686 30.0905 66.4733 0.142 -0.352 -0.925 30 29 25
40.3796 30.0153 66.6043 0.165 -0.614 -0.772 34 35 30
40.5286 29.9843 66.5883 0.215 -0.685 -0.696 50 49 45
40.6612 29.9741 66.6147 0.641 -0.575 -0.509 51 50 46
40.7479 30.0240 66.7643 0.144 -0.576 -0.804 43 42 38
41.0816 30.0784 67.0182 0.735 -0.045 -0.677 65 62 57
42.0123 31.0676 69.6874 0.582 0.061 -0.811 84 84 76
42.2578 31.0845 69.8199 0.571 0.037 -0.820 81 83 70
42.3753 31.1007 69.9024 0.571 0.037 -0.820 83 85 72
42.4996 31.1071 69.9643 0.525 0.037 -0.850 81 86 72
47.0217 36.4978 84.3022 0.979 0.044 -0.201 73 75 71
55.8778 33.3909 80.3807 0.524 0.653 -0.548 97 110 104
60.7884 32.3059 79.6999 -0.081 0.353 -0.932 70 72 58
63.7220 32.8128 81.9983 -0.597 0.292 -0.747 111 113 102
64.2405 32.5367 81.5480 0.141 -0.763 -0.630 104 106 93
64.3688 32.5310 81.5834 0.141 -0.763 -0.630 104 106 93
65.1332 32.3452 81.4377 0.647 -0.359 -0.673 104 108 93
65.2611 32.3658 81.5344 0.624 -0.355 -0.696 110 116 102
-14.6415 37.3151 62.4177 -0.270 -0.347 -0.898 72 91 85
-14.2609 37.2120 62.3218 -0.235 -0.208 -0.949 67 86 80
-13.5456 37.0268 62.1613 -0.250 -0.206 -0.946 77 96 90
-7.1281 35.2925 60.5515 -0.151 -0.319 -0.936 126 138 134
-6.1203 35.1004 60.4858 0.211 -0.500 -0.840 59 68 63
-5.9174 35.0768 60.5078 0.328 -0.581 -0.745 68 77 72
4.2980 33.0894 59.7484 0.171 -0.246 -0.954 24 26 23
4.4973 33.0594 59.7539 0.144 -0.251 -0.957 23 25 22
10.1447 32.1033 59.6664 0.453 -0.292 -0.843 54 55 49
10.4108 32.1127 59.7893 0.430 -0.292 -0.854 83 85 72
11.4834 31.8843 59.6636 0.334 -0.188 -0.924 98 100 88
14.1219 31.5309 59.8402 0.197 -0.434 -0.879 111 115 100
14.5713 31.5069 59.9546 0.340 -0.295 -0.893 141 145 130
14.6550 31.5418 60.0677 0.540 -0.048 -0.840 111 115 100
14.9318 31.5405 60.1696 0.248 -0.253 -0.935 132 136 121
17.5902 31.2213 60.4335 -0.034 -0.718 -0.696 118 121 100
18.9316 31.1337 60.7380 0.119 -0.144 -0.982 109 114 92
19.1964 31.0419 60.6243 0.240 -0.226 -0.944 97 102 80
19.3902 30.9997 60.5994 0.633 -0.172 -0.755 115 123 100
20.4021 31.0426 61.0832 0.381 -0.157 -0.911 77 93 62
21.7864 30.8092 61.0640 0.098 -0.053 -0.994 81 94 66
23.8013 30.4805 61.0616 0.305 -0.488 -0.818 107 108 90
32.4013 30.3138 63.9339 0.193 -0.401 -0.896 73 66 50
32.4945 30.3476 64.0482 0.321 -0.497 -0.806 48 41 25
32.6251 30.3450 64.0917 0.653 -0.233 -0.721 126 119 103
33.0160 30.4653 64.5203 0.280 0.047 -0.959 111 104 88
36.7795 30.1134 65.1270 0.457 -0.689 -0.562 55 64 45
37.3976 29.8396 64.7230 0.676 -0.435 -0.594 53 62 43
39.6822 30.2503 66.5467 0.064 -0.321 -0.945 23 22 18
40.4058 30.1262 66.5317 0.111 -0.614 -0.782 45 45 43
40.8691 30.0097 66.4359 0.255 -0.771 -0.583 37 36 32
41.0487 30.2678 67.1058 0.750 -0.046 -0.660 55 52 47
47.6354 30.5134 70.1758 0.923 -0.193 -0.333 49 64 25
53.2995 32.8423 77.7524 0.081 -0.859 -0.506 85 90 84
53.3868 32.9798 78.1063 0.409 -0.676 -0.612 85 91 87
60.5309 32.5666 79.8517 -0.408 -0.497 -0.766 97 98 84
60.6674 32.4979 79.7434 -0.435 -0.493 -0.753 86 87 73
60.7953 32.5039 79.8059 -0.179 0.419 -0.890 72 74 60
61.4340 35.7914 87.7120 0.069 -0.734 -0.675 121 128 112
64.2542 32.6432 81.4422 0.357 0.244 -0.902 98 100 89
64.3824 32.6560 81.5206 0.340 0.237 -0.910 95 97 86
65.1477 32.5159 81.4842 0.461 -0.395 -0.795 111 115 102
65.2748 32.5048 81.5066 0.221 -0.451 -0.865 113 116 105
67.4919 33.1081 83.7535 0.699 -0.309 -0.645 72 78 73
-15.0191 37.5893 62.4739 -0.305 -0.251 -0.919 80 99 93
-14.6125 37.4735 62.3598 -0.275 -0.374 -0.886 61 80 76
-14.2651 37.3862 62.2889 -0.275 -0.374 -0.886 94 113 109
-13.9154 37.2973 62.2153 -0.213 -0.263 -0.941 106 125 121
-13.6016 37.2254 62.1677 -0.212 -0.261 -0.942 57 76 70
-7.1069 35.4450 60.5012 -0.113 -0.208 -0.972 130 145 142
10.2177 32.2075 59.5641 0.297 0.029 -0.954 86 87 82
11.3354 32.0372 59.5933 0.286 -0.349 -0.892 92 93 86
11.4788 32.0349 59.6423 0.285 -0.334 -0.899 94 95 88
11.8027 32.0070 59.7004 0.243 -0.406 -0.881 89 90 84
14.3101 31.6442 59.8103 0.313 -0.303 -0.900 95 99 84
14.4542 31.6398 59.8548 0.346 -0.292 -0.891 99 103 88
16.0213 31.4177 59.9342 0.593 -0.196 -0.781 99 102 85
18.8611 31.2331 60.5836 0.020 -0.503 -0.864 126 129 110
18.9397 31.2726 60.7051 0.102 -0.144 -0.984 122 125 105
19.1658 31.2077 60.6404 0.541 -0.462 -0.702 92 97 75
19.4250 31.1190 60.5328 0.602 -0.177 -0.779 92 100 77
19.6051 31.0860 60.5247 0.285 -0.564 -0.775 123 133 110
19.6853 31.1243 60.6441 0.533 -0.355 -0.768 121 133 112
19.7714 31.1586 60.7563 0.201 -0.224 -0.954 97 109 87
19.9190 31.1488 60.7896 0.201 -0.224 -0.954 53 63 39
25.7102 30.3472 61.1273 0.245 -0.227 -0.943 85 86 68
26.0832 30.6783 62.0373 0.738 -0.391 -0.550 125 121 110
32.6341 30.4790 64.0613 0.536 -0.561 -0.630 93 86 70
32.9980 30.6269 64.5426 0.328 0.208 -0.921 111 102 87
33.2108 30.5418 64.4260 -0.440 -0.359 -0.823 131 122 107
33.3412 30.5394 64.4698 -0.427 -0.289 -0.857 62 55 39
35.6591 30.6564 65.6209 0.603 -0.741 -0.296 78 95 87
35.7564 30.6898 65.7356 0.603 -0.741 -0.296 77 94 85
35.8528 30.7247 65.8531 -0.347 -0.630 -0.695 66 80 66
36.7416 30.2992 65.2030 0.037 -0.425 -0.904 48 57 38
37.3070 29.9427 64.5902 0.633 -0.247 -0.734 59 66 48
37.4274 29.9474 64.6469 0.668 -0.460 -0.586 41 50 30
37.5358 29.9659 64.7311 0.177 0.172 -0.969 16 23 9
40.2747 30.2788 66.4967 0.044 -0.118 -0.992 50 50 48
40.4142 30.2599 66.5059 0.582 -0.265 -0.769 40 39 37
40.5516 30.2438 66.5204 0.466 -0.342 -0.816 41 40 38
41.0841 30.3662 67.0066 0.942 -0.249 -0.225 48 44 41
53.3169 33.3775 78.6374 0.019 -0.841 -0.540 89 96 89
53.4490 33.3817 78.6972 0.032 -0.834 -0.551 96 102 98
55.6297 34.2438 81.5254 0.359 0.725 -0.587 112 124 122
61.2135 38.9388 94.5395 0.759 0.591 -0.273 130 137 121
61.9134 33.3636 81.8679 0.029 0.863 -0.504 137 141 126
62.0541 33.2197 81.5872 0.061 0.844 -0.532 134 138 123
63.0831 33.5931 82.8444 0.592 0.148 -0.792 91 94 75
63.7496 33.0801 81.9070 -0.618 -0.234 -0.751 113 115 104
65.1618 32.6726 81.4974 0.358 -0.562 -0.746 111 114 105
65.2896 32.6812 81.5656 0.418 -0.484 -0.769 112 115 106
-14.9988 37.7525 62.4226 -0.305 -0.251 -0.919 76 95 91
-13.5381 37.3657 62.0841 -0.226 -0.300 -0.927 90 107 101
-10.2746 36.3199 60.9081 -0.158 -0.354 -0.922 96 109 100
-5.6802 35.3598 60.4360 0.148 -0.385 -0.911 53 64 60
-5.4424 35.3177 60.4290 0.100 -0.373 -0.922 65 76 72
-5.2302 35.2886 60.4425 0.123 -0.340 -0.932 53 64 60
5.4955 32.9601 59.1387 0.472 -0.069 -0.879 21 23 20
11.1849 32.1918 59.5255 0.101 -0.301 -0.948 121 122 118
11.3526 32.1744 59.5489 0.101 -0.301 -0.948 114 115 112
11.4853 32.1787 59.6093 0.121 -0.590 -0.798 124 124 121
11.9782 32.1320 59.6887 0.463 -0.337 -0.820 110 110 106
12.0891 32.1499 59.7722 0.579 -0.208 -0.788 80 81 73
12.6447 32.1509 59.9855 0.411 -0.056 -0.910 62 64 51
12.7003 32.2043 60.1301 0.334 -0.363 -0.870 103 105 94
18.9680 31.3971 60.6468 0.112 -0.411 -0.905 127 130 112
19.1343 31.3746 60.6579 0.150 -0.485 -0.862 95 100 80
19.4482 31.2464 60.4809 0.563 -0.419 -0.713 100 107 87
19.5807 31.2474 60.5336 0.445 -0.427 -0.787 100 108 87
19.6651 31.2829 60.6477 0.423 -0.278 -0.863 97 108 87
20.0308 31.3091 60.8470 0.165 -0.285 -0.944 68 78 53
20.7567 31.1693 60.8001 0.013 -0.113 -0.993 92 108 75
20.9225 31.1454 60.8078 0.344 0.015 -0.939 109 126 93
31.1469 29.9792 61.9984 0.500 -0.526 -0.688 58 61 40
32.9997 30.7689 64.5265 0.345 0.153 -0.926 120 108 94
35.6608 30.7992 65.6074 0.650 0.168 -0.741 79 96 88
36.7434 30.4405 65.1902 -0.031 -0.317 -0.948 40 49 32
37.4311 30.0851 64.6303 0.638 -0.498 -0.587 35 44 23
37.5441 30.0984 64.7041 0.161 0.168 -0.973 22 29 12
40.8548 30.3177 66.4683 0.188 0.287 -0.939 40 39 35
42.9575 32.0464 71.2603 0.979 0.196 -0.061 68 85 53
44.7170 30.8888 69.2549 0.018 0.594 -0.804 52 76 40
45.0798 30.7062 68.9709 -0.255 -0.374 -0.891 52 77 36
46.0470 31.1966 70.4712 0.161 -0.897 -0.412 42 68 39
46.1758 31.1926 70.5107 -0.077 -0.535 -0.842 38 67 39
46.9506 35.6498 81.1009 0.396 0.427 -0.813 96 98 95
50.7943 33.8495 78.4028 -0.455 -0.353 -0.818 98 101 94
55.8828 35.1055 83.2371 0.270 0.752 -0.601 131 141 135
59.9654 32.4408 78.6329 -0.029 -0.379 -0.925 100 102 88
62.1854 33.5631 82.0688 0.063 0.832 -0.552 129 133 119
65.0459 32.7168 81.2006 0.375 -0.623 -0.687 111 114 105
65.6860 32.8227 81.6884 -0.344 0.179 -0.922 93 99 86
68.4186 33.3474 83.9385 0.556 -0.084 -0.827 108 120 111
-14.9525 37.9030 62.3518 -0.305 -0.335 -0.891 79 98 92
-14.5061 37.7667 62.2082 -0.333 -0.356 -0.873 87 106 102
-5.2442 35.4578 60.4212 0.268 -0.565 -0.781 41 53 49
-5.0625 35.4444 60.4595 0.460 -0.383 -0.801 50 62 58
-4.8038 35.3906 60.4341 0.141 -0.439 -0.887 60 72 68
2.8353 33.3041 58.5415 0.636 0.474 -0.609 23 25 20
10.7875 32.3261 59.3167 0.219 -0.302 -0.928 67 67 67
12.2260 32.2993 59.8020 0.619 -0.265 -0.740 75 77 66
12.5901 32.3337 60.0196 0.360 -0.241 -0.901 83 85 72
16.0803 31.6684 59.8171 0.667 0.127 -0.734 87 95 74
21.0492 31.2938 60.8452 0.339 0.014 -0.941 80 95 66
33.0176 30.8947 64.4789 0.254 -0.195 -0.947 108 99 84
33.2475 30.7914 64.3288 -0.452 -0.379 -0.807 106 97 82
34.7453 30.2912 63.7482 -0.441 0.263 -0.858 87 95 80
35.6179 30.9916 65.6905 0.668 0.093 -0.738 79 96 88
35.7891 30.9434 65.6449 0.335 -0.215 -0.917 80 96 87
35.9176 30.9427 65.6920 0.335 -0.215 -0.917 68 82 69
36.5117 30.7035 65.3680 -0.406 0.118 -0.906 55 67 47
39.1546 30.8747 66.7666 0.623 0.460 -0.633 39 38 34
39.2407 30.9260 66.9173 0.633 0.468 -0.617 35 34 30
43.6393 31.3449 69.5532 -0.161 -0.536 -0.829 74 91 55
44.9812 30.8131 68.8406 -0.261 -0.233 -0.937 51 75 38
45.0981 30.8262 68.9152 -0.255 -0.374 -0.891 50 75 34
61.3280 38.1933 92.0269 0.848 0.482 -0.223 121 125 110
62.1932 33.8003 82.2547 0.040 0.843 -0.537 129 133 119
65.3127 32.8080 81.1593 0.787 -0.467 -0.404 106 109 102
66.4501 32.7378 81.4305 0.800 -0.207 -0.563 99 110 93
68.4387 33.5370 84.0242 0.545 -0.102 -0.832 111 123 112
-14.9805 38.0899 62.3363 -0.284 -0.311 -0.907 67 86 80
-14.5324 37.9521 62.1917 -0.265 -0.286 -0.921 83 102 96
-13.5746 37.7266 62.0400 -0.175 -0.195 -0.965 87 104 98
-13.2695 37.6578 61.9986 -0.175 -0.195 -0.965 75 92 86
-9.6298 36.4906 60.7124 0.131 -0.251 -0.959 79 91 89
-9.0144 36.3415 60.6053 -0.034 0.044 -0.998 68 80 78
-5.5521 35.6176 60.2662 0.009 -0.103 -0.995 45 58 51
-5.0595 35.5231 60.2374 0.339 -0.502 -0.796 42 54 50
-4.8245 35.5632 60.4187 0.373 -0.601 -0.706 66 78 76
2.5843 33.5150 58.5504 0.622 0.436 -0.650 27 29 24
2.7158 33.5231 58.6190 0.681 0.401 -0.613 27 29 24
10.7869 32.4745 59.2909 0.212 -0.289 -0.934 46 46 46
11.1962 32.4807 59.4610 0.198 -0.136 -0.971 79 79 81
12.2386 32.4391 59.7625 0.619 -0.265 -0.740 86 87 78
16.0582 31.8286 59.8189 0.657 -0.195 -0.728 100 109 88
16.1825 31.8365 59.8843 0.658 -0.205 -0.725 91 101 80
19.2695 31.5666 60.4417 0.179 -0.276 -0.944 83 84 72
21.2530 31.3847 60.7803 0.299 -0.462 -0.835 47 57 33
21.3497 31.4118 60.8792 0.050 -0.318 -0.947 51 61 37
21.9795 31.3372 60.9480 0.050 -0.374 -0.926 82 81 66
22.1491 31.3089 60.9479 0.039 -0.365 -0.930 112 110 97
36.2953 30.2444 63.8957 0.187 -0.258 -0.948 80 95 88
39.1733 31.1581 67.0826 0.654 0.358 -0.667 34 33 27
44.9841 30.9581 68.8367 -0.270 -0.239 -0.933 44 69 30
45.1086 30.9588 68.8857 -0.185 -0.159 -0.970 44 69 29
44.3835 32.3728 71.8463 0.692 -0.586 -0.422 48 73 33
55.6723 33.5900 78.9294 -0.107 -0.489 -0.866 92 103 97
57.3452 34.4554 81.5468 0.144 0.827 -0.544 113 114 96
60.0401 35.5417 85.0592 0.994 -0.109 -0.033 91 92 78
61.4980 32.9742 79.7371 0.618 0.081 -0.782 113 117 102
62.3462 33.8088 81.9704 0.000 0.845 -0.535 100 106 94
65.5906 33.2252 81.8696 -0.070 -0.708 -0.702 98 102 93
65.8428 33.1385 81.7671 -0.262 0.165 -0.951 95 106 92
-14.9785 38.2621 62.2984 -0.281 -0.200 -0.938 61 80 74
-14.5187 38.1180 62.1453 -0.259 -0.284 -0.923 80 99 93
-14.2899 38.0876 62.1631 -0.125 -0.133 -0.983 82 99 93
-13.5827 37.9023 62.0103 -0.206 -0.235 -0.950 62 79 73
-13.2711 37.8299 61.9641 -0.175 -0.195 -0.965 51 68 62
-12.9942 37.7744 61.9433 -0.208 -0.251 -0.945 59 76 70
-12.1647 37.4424 61.5027 -0.224 -0.213 -0.951 45 60 55
-11.7950 37.3394 61.4088 -0.239 -0.217 -0.947 56 71 66
-11.4573 37.2520 61.3383 -0.099 -0.272 -0.957 49 64 59
-9.7780 36.7318 60.7928 -0.286 -0.282 -0.916 59 71 71
-9.3250 36.5834 60.6274 -0.038 0.032 -0.999 63 75 76
-5.1593 35.7373 60.2864 0.322 0.131 -0.938 44 56 52
2.9919 33.6846 58.7148 0.204 0.513 -0.833 24 26 23
7.5981 32.4355 57.6236 -0.462 0.344 -0.817 14 16 13
5.8413 33.5501 59.4939 -0.147 0.188 -0.971 16 18 15
12.2455 32.5826 59.7293 0.628 -0.277 -0.727 85 86 77
15.7185 32.0196 59.7696 0.531 -0.291 -0.796 98 107 86
15.8278 32.0378 59.8527 0.540 -0.294 -0.789 120 129 108
15.9827 32.0251 59.8829 0.654 -0.205 -0.728 99 111 89
16.1465 32.0063 59.9024 0.558 -0.206 -0.804 86 98 76
17.3169 31.8542 60.0017 -0.058 -0.186 -0.981 120 124 109
17.4985 31.8218 59.9971 -0.058 -0.186 -0.981 120 124 109
17.7340 31.8460 60.1419 0.081 -0.122 -0.989 87 89 76
21.2365 31.5407 60.7808 0.219 -0.353 -0.910 26 34 14
21.5375 31.5141 60.8348 0.142 -0.289 -0.947 58 62 45
21.9917 31.4714 60.9105 0.088 -0.285 -0.954 91 87 75
22.1652 31.4399 60.9049 0.098 -0.309 -0.946 87 83 71
22.8425 31.4273 61.1342 0.218 -0.227 -0.949 138 138 128
23.1339 31.4059 61.1966 0.535 -0.080 -0.841 127 130 119
35.9928 30.7223 64.5379 0.052 -0.536 -0.843 76 92 82
36.3947 30.9807 65.2799 -0.499 -0.263 -0.826 52 67 42
36.5263 30.9752 65.3174 -0.531 -0.403 -0.746 42 56 31
45.0020 31.0786 68.7823 -0.354 -0.351 -0.867 47 72 33
47.6754 30.9661 69.5444 0.652 -0.589 -0.477 50 74 26
52.8309 32.4134 74.8064 -0.032 -0.136 -0.990 97 109 102
56.5237 32.9578 77.4538 -0.675 -0.052 -0.736 92 94 84
57.0283 34.2441 80.5770 0.063 0.515 -0.855 94 92 77
61.5018 33.2256 79.9607 0.797 -0.005 -0.603 109 113 98
62.4745 34.2595 82.6871 -0.022 0.834 -0.551 95 99 90
65.7341 33.4058 81.9837 -0.193 -0.406 -0.893 102 111 98
66.2468 33.4102 82.1892 0.730 0.415 -0.543 90 101 86
67.6956 33.8479 83.7383 0.344 0.013 -0.939 97 106 98
-14.9252 38.4091 62.2226 -0.309 -0.089 -0.947 67 86 80
-14.6506 38.3561 62.2072 -0.199 -0.041 -0.979 73 89 86
-13.6690 37.9515 61.6637 -0.108 -0.125 -0.986 67 83 80
-13.0382 37.8021 61.5655 -0.201 -0.179 -0.963 74 89 83
-13.2728 38.0021 61.9296 -0.175 -0.195 -0.965 48 63 58
-11.9531 37.5881 61.4939 -0.163 -0.281 -0.946 44 59 54
-9.4847 36.8307 60.7170 -0.013 0.165 -0.986 62 73 77
-8.0324 36.6599 60.8835 0.087 0.116 -0.989 119 135 137
-4.4811 35.8698 60.4456 0.115 -0.173 -0.978 60 69 74
-1.7672 35.1539 59.8566 0.174 -0.513 -0.840 58 64 60
-1.6758 35.1870 59.9666 0.187 -0.476 -0.859 55 61 57
-1.4785 35.1624 59.9859 0.205 -0.483 -0.851 57 63 59
12.0277 32.6916 59.5319 0.569 -0.332 -0.752 96 96 96
14.1914 32.4545 59.8193 0.255 -0.557 -0.790 123 125 112
15.8577 32.1631 59.7938 0.618 -0.162 -0.769 99 108 85
17.4848 31.9762 59.9903 -0.025 -0.293 -0.956 106 110 93
21.1047 31.6837 60.7071 0.243 -0.334 -0.911 33 36 21
21.2670 31.6615 60.7188 0.238 -0.358 -0.903 34 37 23
21.3967 31.6639 60.7736 0.233 -0.348 -0.908 71 72 59
21.5682 31.6345 60.7724 0.141 -0.292 -0.946 85 83 71
22.0098 31.6011 60.8649 -0.001 -0.326 -0.945 146 139 129
22.7251 31.5593 61.0430 0.387 -0.240 -0.890 138 135 123
22.9998 31.5510 61.1288 0.300 -0.243 -0.923 159 158 146
26.8703 30.8375 60.9864 0.304 0.113 -0.946 60 60 48
36.5324 31.1125 65.2948 -0.553 -0.436 -0.710 39 55 29
36.8090 31.0857 65.3394 0.426 0.089 -0.900 40 56 30
38.5497 31.2769 66.4370 0.122 -0.106 -0.987 39 40 26
38.8463 31.2228 66.4274 0.075 -0.092 -0.993 40 42 28
40.2720 31.1748 66.8623 -0.207 0.040 -0.978 46 48 38
41.8210 31.4778 68.1403 0.040 -0.093 -0.995 67 60 52
43.1692 31.9357 69.6930 -0.020 -0.790 -0.612 68 87 56
43.2900 31.9470 69.7646 0.082 -0.277 -0.957 75 94 60
43.4133 31.9544 69.8285 -0.065 -0.361 -0.930 66 86 51
47.7521 31.2095 69.7934 0.639 -0.684 -0.353 61 83 36
48.5293 31.3946 70.5097 -0.343 -0.559 -0.755 83 93 71
52.4607 32.1908 73.8150 -0.120 0.189 -0.975 87 99 93
52.8397 32.5596 74.7961 -0.024 -0.122 -0.992 100 112 108
53.2311 32.5353 74.8902 -0.124 -0.408 -0.904 117 128 124
57.0039 34.5694 80.9429 0.185 0.720 -0.668 94 92 77
61.5078 33.4530 80.1282 0.689 0.176 -0.703 103 107 92
65.3551 33.2713 81.1830 0.735 -0.078 -0.674 94 100 88
65.4828 33.2858 81.2647 0.282 -0.343 -0.896 99 105 95
66.2654 33.6348 82.3548 0.745 0.359 -0.562 82 93 80
68.0671 33.7056 83.2025 0.732 0.072 -0.678 107 119 117
68.1995 33.7430 83.3378 0.920 -0.104 -0.377 97 108 103
-14.5672 38.4043 61.9210 -0.262 -0.140 -0.955 78 97 91
-14.1130 38.2613 61.7714 -0.204 -0.163 -0.965 64 81 75
-13.7975 38.1869 61.7237 -0.194 -0.156 -0.968 60 75 70
-12.7983 37.9351 61.5366 -0.170 -0.255 -0.952 52 67 62
-12.5324 37.8843 61.5233 -0.168 -0.285 -0.944 54 69 66
-12.2490 37.8243 61.4961 -0.062 -0.544 -0.837 47 62 59
-11.9133 37.7376 61.4284 -0.159 -0.266 -0.951 53 68 63
-9.5116 37.0107 60.7037 0.097 0.157 -0.983 65 76 80
-8.2126 36.8360 60.8051 0.100 0.098 -0.990 127 144 150
-8.1107 36.8661 60.9118 0.267 0.130 -0.955 109 124 127
-7.8686 36.8231 60.9071 0.149 0.134 -0.980 111 127 126
-1.8882 35.2956 59.7405 0.093 -0.445 -0.890 49 56 49
-1.4345 35.2969 59.9167 0.266 -0.422 -0.867 50 56 52
-1.3630 35.3412 60.0441 0.189 -0.433 -0.881 48 54 50
5.5729 34.0137 59.6937 0.105 -0.093 -0.990 15 17 16
11.9388 32.7181 59.1980 0.067 -0.600 -0.798 31 31 31
12.0031 32.8553 59.5324 0.154 -0.197 -0.968 66 66 65
13.1099 32.7682 59.7581 0.316 -0.135 -0.939 90 92 78
13.2498 32.7674 59.8096 0.394 -0.157 -0.906 73 75 62
14.5132 32.5704 59.8470 0.548 -0.385 -0.743 94 98 83
21.1527 31.7912 60.6219 0.166 -0.392 -0.905 47 48 34
21.3255 31.7610 60.6196 0.220 -0.382 -0.898 51 51 39
21.4525 31.7653 60.6778 0.198 -0.336 -0.921 65 65 55
21.6029 31.7518 60.7047 0.146 -0.279 -0.949 67 64 55
21.7550 31.7368 60.7289 0.142 -0.279 -0.950 61 57 48
22.0340 31.7260 60.8110 0.099 -0.251 -0.963 89 80 71
22.1903 31.7075 60.8289 0.114 -0.277 -0.954 93 84 75
26.9144 31.0499 61.1470 0.079 -0.569 -0.818 66 68 54
35.6480 31.1114 64.6196 0.672 0.155 -0.724 75 90 83
35.9078 31.1036 64.7010 0.069 -0.655 -0.753 73 89 79
35.5124 31.6921 65.8791 0.836 -0.315 -0.450 73 89 79
35.9705 31.4634 65.5376 0.778 -0.186 -0.600 47 62 41
36.6273 31.4416 65.7389 0.503 0.163 -0.849 36 52 26
38.7180 31.3709 66.3774 0.331 -0.125 -0.935 50 52 38
38.8512 31.3625 66.4093 0.371 -0.126 -0.920 44 46 32
40.0554 31.4417 67.0478 -0.171 -0.165 -0.971 51 53 40
41.8161 31.6338 68.1536 -0.024 -0.194 -0.981 74 67 58
41.8987 31.6978 68.3297 0.738 -0.093 -0.668 80 74 61
43.1473 32.1221 69.7644 -0.045 -0.429 -0.902 58 77 47
43.2197 32.2094 69.9891 -0.127 -0.409 -0.904 58 77 43
43.3511 32.2049 70.0290 -0.069 -0.468 -0.881 56 73 39
47.5707 31.2347 69.4489 0.607 -0.634 -0.479 38 64 19
47.8003 31.2694 69.6148 0.638 -0.667 -0.385 65 87 38
48.6080 31.6452 70.7717 -0.318 -0.691 -0.649 91 100 82
52.1702 32.8123 74.7670 -0.135 -0.015 -0.991 87 97 91
52.3151 32.7662 74.7182 -0.257 0.016 -0.966 87 100 93
52.6080 32.6621 74.5948 -0.202 -0.063 -0.977 108 120 116
53.1143 32.6757 74.8188 0.647 -0.374 -0.664 117 129 125
53.2334 32.7015 74.9227 -0.066 -0.368 -0.927 123 135 131
60.1297 36.8033 86.8173 0.926 0.313 -0.212 87 85 72
63.2922 34.6416 83.1430 0.036 0.866 -0.498 122 124 111
66.2810 33.8030 82.3900 0.681 0.358 -0.639 85 93 81
68.0854 33.8834 83.2604 0.243 0.266 -0.933 111 124 117
68.2668 34.3585 84.4026 0.858 -0.011 -0.513 104 115 107
-13.7028 38.3110 61.6173 -0.169 -0.299 -0.939 50 65 60
-12.9809 38.1145 61.4514 -0.051 -0.005 -0.999 58 73 66
-12.7004 38.0562 61.4274 0.013 0.047 -0.999 62 77 74
-12.2511 37.9953 61.4623 0.033 0.035 -0.999 66 80 80
-12.0126 37.9577 61.4687 0.033 0.035 -0.999 63 77 75
-9.5119 37.1772 60.6696 -0.061 -0.009 -0.998 60 71 75
-8.7346 37.1069 60.8085 0.256 -0.667 -0.699 48 63 70
-8.5755 37.1074 60.8704 0.158 -0.651 -0.743 39 56 63
-8.3378 37.0669 60.8701 0.222 -0.682 -0.697 116 133 140
-8.2198 37.0888 60.9644 0.685 -0.014 -0.728 98 113 117
-1.7796 35.3948 59.6168 -0.105 -0.634 -0.767 49 56 49
-1.8489 35.5162 59.8633 -0.023 -0.642 -0.766 58 64 60
-0.9945 35.3802 59.8840 0.196 -0.416 -0.888 52 58 54
-0.1098 35.2244 59.8716 -0.094 -0.298 -0.950 48 53 49
5.5535 34.1782 59.6835 0.136 -0.106 -0.985 18 18 18
12.0197 32.9926 59.4886 0.145 -0.198 -0.969 53 53 51
12.1724 32.9838 59.5272 0.202 -0.292 -0.935 81 82 77
12.4226 32.9117 59.4607 0.545 -0.303 -0.782 111 114 106
13.2632 32.9062 59.7695 0.207 -0.355 -0.912 65 67 54
13.5879 32.7830 59.6165 0.096 -0.275 -0.956 88 90 79
14.5267 32.6158 59.5993 0.449 -0.320 -0.834 77 79 67
14.7436 32.6545 59.7692 0.686 -0.416 -0.597 109 114 98
14.8427 32.6803 59.8650 0.686 -0.416 -0.597 98 105 89
18.1079 32.4003 60.4830 0.113 -0.263 -0.958 100 95 92
18.2840 32.3710 60.4844 0.091 -0.212 -0.973 101 98 91
19.8235 32.0324 60.3115 0.491 -0.723 -0.486 92 93 86
21.3086 31.9175 60.6205 0.109 -0.622 -0.775 81 81 69
22.6259 31.7176 60.6743 0.341 -0.523 -0.781 84 78 66
35.3940 31.3968 64.8313 0.651 -0.054 -0.757 75 88 79
35.7011 31.3373 64.8149 0.608 -0.774 -0.178 71 87 77
35.8081 32.0908 66.5496 0.921 0.390 -0.012 43 58 35
36.1344 32.3160 67.1805 0.054 0.788 -0.614 36 52 26
38.8559 31.5027 66.3920 0.371 -0.126 -0.920 46 48 34
38.9899 31.4932 66.4218 0.457 -0.002 -0.890 49 51 37
40.3997 31.4657 66.8987 -0.060 0.180 -0.982 56 58 47
41.6125 31.7112 67.9139 0.673 -0.730 -0.121 83 75 73
41.8254 31.7696 68.1265 -0.024 -0.194 -0.981 77 70 61
41.9147 31.8241 68.2831 0.745 -0.062 -0.664 81 75 63
42.1474 31.8553 68.4421 0.753 0.200 -0.627 81 73 60
43.0433 32.4373 70.0927 -0.336 0.292 -0.896 48 67 38
52.7398 32.8220 74.6621 -0.178 -0.056 -0.982 121 136 131
53.1542 32.7289 74.6111 0.706 -0.214 -0.675 120 132 128
53.2748 32.7495 74.7034 0.382 -0.363 -0.850 123 135 131
53.4069 32.7350 74.7214 0.213 -0.327 -0.921 125 137 133
53.8539 32.9351 75.3419 0.755 -0.384 -0.531 98 111 104
57.0280 35.5385 82.4070 0.372 0.769 -0.519 108 107 89
68.2411 34.1413 83.5500 0.204 0.075 -0.976 107 120 113
-13.7365 38.4994 61.6065 -0.176 -0.223 -0.959 39 54 47
-12.7935 38.2737 61.4619 -0.020 -0.061 -0.998 86 101 98
-12.2336 38.1565 61.4136 -0.137 -0.254 -0.958 68 82 83
-11.9649 38.1032 61.3972 -0.109 -0.205 -0.973 69 83 83
-9.6131 37.3959 60.7136 -0.067 -0.005 -0.998 60 71 75
-9.2926 37.3132 60.6510 -0.092 0.011 -0.996 80 91 95
-8.8365 37.2427 60.6677 0.044 -0.425 -0.904 51 64 70
-8.6430 37.2252 60.7026 0.012 -0.386 -0.923 74 89 94
-8.5047 37.2365 60.7807 0.258 -0.727 -0.636 62 79 86
-8.3478 37.2381 60.8442 0.266 -0.725 -0.635 113 130 137
-8.3172 37.3058 61.0076 0.746 -0.132 -0.653 76 91 95
-8.2167 37.3372 61.1161 0.746 -0.132 -0.653 92 108 106
-7.7904 37.1969 60.9652 0.094 -0.149 -0.984 103 118 114
-2.1570 35.5936 59.5313 -0.129 -0.290 -0.948 53 59 58
-1.9540 35.5657 59.5463 -0.162 -0.213 -0.964 51 57 53
-2.1154 35.7381 59.8705 -0.143 -0.179 -0.973 55 61 57
-1.0522 35.5708 59.9026 0.250 -0.613 -0.749 63 69 65
-0.5429 35.4556 59.8396 0.038 -0.338 -0.940 54 60 56
-0.1392 35.3987 59.8665 -0.036 -0.190 -0.981 49 55 51
5.5430 34.3377 59.6649 0.136 -0.106 -0.985 19 19 19
12.5943 32.9474 59.2498 0.577 -0.221 -0.786 83 86 78
12.7587 33.0210 59.4775 0.182 -0.430 -0.884 58 62 48
13.3838 32.9740 59.6112 0.442 -0.293 -0.848 70 72 62
13.5004 32.9883 59.6879 0.355 -0.444 -0.823 87 88 80
17.8731 32.5201 60.3121 0.297 -0.622 -0.725 81 78 71
18.2126 32.4705 60.3309 0.132 -0.234 -0.963 118 113 108
19.7510 32.1315 60.1605 0.229 0.233 -0.945 86 85 81
20.1947 32.1987 60.4805 0.413 -0.701 -0.581 91 93 78
21.3538 32.0268 60.5391 0.109 -0.622 -0.775 85 83 71
21.6882 31.9736 60.5478 0.173 -0.396 -0.902 57 52 46
22.6573 31.8359 60.6104 0.339 -0.526 -0.780 145 139 127
24.0773 31.8565 61.1994 0.515 -0.314 -0.798 97 100 79
24.2010 31.8627 61.2606 0.388 -0.379 -0.840 126 129 108
32.7433 30.8729 62.3120 0.210 -0.622 -0.754 162 165 148
34.1745 30.1745 61.2962 0.494 0.116 -0.862 25 26 12
35.8842 31.4176 64.7320 0.563 -0.775 -0.285 71 87 76
38.8585 31.6456 66.3796 0.450 0.204 -0.869 54 56 42
38.9833 31.6479 66.4326 0.451 0.215 -0.866 51 53 39
41.0759 31.5484 67.0099 0.271 -0.110 -0.956 57 58 51
41.6121 31.8608 67.9141 0.923 -0.308 -0.230 85 77 75
41.7211 31.8863 68.0129 0.160 -0.091 -0.983 79 72 68
41.9738 31.7030 67.6994 -0.163 -0.267 -0.950 78 71 63
41.8959 32.0014 68.3373 0.733 -0.030 -0.680 81 77 65
42.2101 32.1010 68.6804 0.727 -0.137 -0.673 67 64 49
45.0182 29.8636 64.7469 0.675 -0.418 -0.608 49 66 34
45.2710 29.6487 64.3627 0.547 -0.736 -0.399 51 67 37
44.1767 33.0678 71.5960 0.553 -0.172 -0.815 54 79 39
44.2999 33.0800 71.6705 0.543 -0.162 -0.824 43 68 29
44.4001 33.1315 71.8241 0.486 -0.320 -0.813 36 61 21
46.1169 31.9226 69.7750 0.260 -0.657 -0.708 38 62 30
53.1663 32.8653 74.5805 0.706 -0.214 -0.675 130 142 138
53.2935 32.8658 74.6303 0.394 -0.361 -0.845 132 144 140
53.4280 32.8436 74.6321 0.232 -0.352 -0.907 131 143 139
53.7520 33.0280 75.1685 0.399 -0.145 -0.905 81 93 89
57.8795 35.5867 82.4731 0.450 0.738 -0.502 105 108 89
65.2694 33.7040 81.0857 0.849 0.036 -0.527 92 96 81
65.9274 34.1763 82.3943 0.566 0.190 -0.802 110 116 106
-16.1421 39.5445 62.5960 0.213 0.229 -0.950 63 84 77
-14.0384 38.7396 61.6079 -0.244 -0.213 -0.946 46 63 55
-13.7206 38.6630 61.5588 -0.212 -0.208 -0.955 47 62 55
-12.5284 38.3931 61.4138 -0.184 -0.202 -0.962 74 88 89
-12.2614 38.3408 61.3993 -0.065 -0.109 -0.992 57 71 74
-12.0639 38.3237 61.4370 -0.018 -0.073 -0.997 56 70 72
-11.2813 38.0900 61.2157 -0.317 -0.156 -0.935 46 60 61
-9.5728 37.5417 60.6481 -0.171 -0.358 -0.918 75 86 88
-9.2971 37.4819 60.6202 -0.171 -0.358 -0.918 89 100 102
-8.6024 37.3699 60.6367 -0.003 -0.380 -0.925 82 97 100
-8.4178 37.3569 60.6783 0.258 -0.727 -0.636 55 73 77
-8.2619 37.3589 60.7424 0.266 -0.725 -0.635 89 107 110
-8.3466 37.4877 60.9969 0.709 -0.189 -0.680 54 69 72
-8.2608 37.5269 61.1172 0.713 -0.201 -0.672 80 96 94
-7.7897 37.3624 60.9309 0.072 -0.024 -0.997 103 118 113
-5.9784 36.8194 60.4145 -0.353 -0.213 -0.911 57 70 61
-2.4324 35.8200 59.5450 -0.046 -0.217 -0.975 51 56 57
-2.1860 35.9365 59.8987 -0.150 -0.221 -0.964 55 61 57
-0.5350 35.6093 59.8017 0.083 -0.490 -0.868 51 57 53
-0.2841 35.5532 59.7727 -0.030 -0.317 -0.948 45 51 47
-0.1266 35.5494 59.8246 0.013 -0.343 -0.939 50 56 52
5.6334 34.4367 59.5499 -0.237 -0.266 -0.934 20 20 20
12.3288 33.1778 59.3075 0.005 -0.405 -0.914 68 69 63
13.3976 33.1122 59.5706 0.442 -0.293 -0.848 126 129 121
13.5554 33.0991 59.6017 0.301 -0.017 -0.954 103 106 100
14.4870 32.9357 59.5942 0.246 -0.060 -0.967 92 95 89
15.6358 32.8054 59.7436 0.716 -0.205 -0.667 95 107 87
16.5409 32.7446 59.9545 0.175 -0.270 -0.947 91 111 86
18.2532 32.5865 60.2577 0.517 -0.512 -0.686 125 122 113
20.0565 32.3465 60.4132 0.105 0.042 -0.994 92 94 80
20.2304 32.3163 60.4123 0.042 -0.179 -0.983 95 97 83
20.4228 32.2719 60.3870 0.023 -0.129 -0.991 84 86 75
20.5642 32.2657 60.4274 0.043 -0.211 -0.977 86 88 77
20.7397 32.2337 60.4231 0.147 -0.265 -0.953 91 91 80
21.5284 32.1382 60.5124 0.118 -0.617 -0.778 63 59 50
21.7007 32.1075 60.5099 0.191 -0.397 -0.898 61 57 48
36.0019 31.4275 64.4685 0.780 -0.037 -0.625 75 89 76
37.4469 31.3554 64.8608 -0.088 -0.668 -0.739 44 56 34
41.6278 31.9871 67.8685 0.914 -0.338 -0.227 75 70 68
41.7304 32.0220 67.9856 0.714 -0.639 -0.286 75 67 64
41.9754 31.8492 67.6942 -0.182 -0.269 -0.946 79 72 65
41.8974 32.1491 68.3325 0.733 -0.030 -0.680 78 74 63
46.1188 32.0724 69.7775 0.250 -0.733 -0.633 46 67 34
47.8569 31.6181 69.4304 0.870 -0.299 -0.391 50 72 25
53.1783 33.0018 74.5500 0.706 -0.214 -0.675 129 141 134
53.7648 33.1630 75.1337 0.352 -0.209 -0.912 59 69 66
54.9652 32.9787 75.1824 0.742 -0.411 -0.530 101 106 99
66.3321 34.3851 82.6664 -0.247 -0.190 -0.950 96 102 90
-16.2766 39.7877 62.6579 0.210 0.227 -0.951 57 78 72
-9.5735 37.7088 60.6143 -0.180 -0.389 -0.904 73 85 85
-9.2962 37.6478 60.5852 -0.180 -0.389 -0.904 103 115 115
-8.2661 37.6115 60.8992 0.728 -0.373 -0.576 64 80 80
-8.2204 37.6721 61.0511 0.757 -0.362 -0.544 101 117 114
-2.2547 35.9652 59.5504 0.021 0.180 -0.983 61 67 64
-1.8045 35.8844 59.5436 -0.176 -0.063 -0.982 56 62 58
-0.2993 35.7197 59.7549 0.009 -0.319 -0.948 41 47 43
8.9548 33.8706 59.1982 0.465 -0.190 -0.865 58 59 54
9.0958 33.8710 59.2532 0.155 -0.338 -0.928 49 50 45
12.3479 33.3129 59.2611 0.014 -0.401 -0.916 72 73 67
13.4077 33.2530 59.5340 0.296 0.005 -0.955 102 105 98
13.5488 33.2510 59.5838 0.271 0.007 -0.963 86 88 84
15.3917 32.9317 59.5814 0.116 -0.526 -0.842 100 113 95
15.5320 32.9290 59.6293 0.128 -0.555 -0.822 87 100 82
15.6755 32.9241 59.6734 0.703 -0.239 -0.670 76 89 71
16.5420 32.8898 59.9292 0.169 -0.312 -0.935 89 112 86
18.2870 32.7073 60.1929 0.517 -0.512 -0.686 91 89 77
19.6148 32.5213 60.2888 0.274 -0.069 -0.959 78 79 74
19.7676 32.5071 60.3159 0.275 -0.072 -0.959 91 92 86
19.9655 32.4590 60.2851 0.184 -0.008 -0.983 94 95 87
20.1117 32.4495 60.3200 0.173 0.029 -0.984 94 96 84
20.5905 32.3899 60.3713 0.153 -0.155 -0.976 105 105 95
20.7426 32.3755 60.3974 0.153 -0.155 -0.976 107 107 95
21.0963 32.3083 60.3840 -0.014 -0.266 -0.964 116 113 99
21.2565 32.2872 60.3985 0.011 -0.292 -0.956 119 115 103
21.3670 32.3042 60.4785 0.151 -0.179 -0.972 122 118 107
21.5109 32.2955 60.5144 0.220 -0.338 -0.915 118 114 103
21.7033 32.2490 60.4850 0.249 -0.369 -0.896 95 91 82
22.8062 32.1084 60.5956 0.634 -0.209 -0.744 47 47 33
22.9126 32.1284 60.6806 0.634 -0.209 -0.744 69 70 54
23.1792 32.1255 60.7765 0.390 -0.267 -0.881 113 116 99
32.8531 31.0427 62.0804 0.243 -0.638 -0.731 89 92 77
40.2093 31.9942 67.0089 -0.366 0.464 -0.806 51 55 40
41.6285 31.7714 67.0584 0.786 0.416 -0.458 82 82 76
45.0975 32.4671 69.9305 -0.522 -0.726 -0.447 40 65 22
53.1824 33.1626 74.5704 0.636 -0.444 -0.632 83 92 87
54.0548 33.2266 75.0466 0.719 -0.319 -0.617 48 51 47
54.1954 33.1828 75.0033 0.559 -0.493 -0.667 48 49 47
54.3274 33.1668 75.0182 0.168 -0.486 -0.858 45 46 41
54.9750 33.1237 75.1707 0.699 -0.465 -0.543 118 121 114
57.2155 33.9281 77.8133 0.610 -0.763 0.214 116 118 97
66.0901 34.5738 82.6452 -0.325 -0.210 -0.922 97 104 96
66.3442 34.4923 82.5617 -0.313 -0.191 -0.930 91 99 85
-14.9511 39.3778 61.8354 -0.310 -0.114 -0.944 51 72 67
-12.8487 38.8989 61.5840 -0.282 -0.219 -0.934 78 92 94
-8.7840 37.7134 60.5244 -0.049 -0.279 -0.959 66 80 80
-8.3030 37.6280 60.5202 0.082 -0.287 -0.954 51 70 68
-8.2353 37.7614 60.8408 0.728 -0.373 -0.576 71 87 84
-8.2712 37.8657 61.0574 0.695 -0.432 -0.574 89 105 100
-7.9896 37.8009 61.0223 0.156 -0.036 -0.987 94 109 103
-3.3874 36.4119 59.7195 0.188 0.149 -0.971 63 69 66
-3.2391 36.4149 59.7829 0.176 0.222 -0.959 56 62 60
9.1228 34.0041 59.1987 0.145 -0.320 -0.936 44 45 40
9.7020 33.9957 59.4021 0.092 -0.503 -0.859 55 57 52
10.3511 33.9416 59.5317 0.053 -0.315 -0.948 66 69 62
12.2235 33.4513 59.1668 -0.073 -0.434 -0.898 57 58 53
13.1033 33.4191 59.4330 0.560 -0.305 -0.770 104 108 94
13.2538 33.4110 59.4728 0.229 -0.356 -0.906 104 107 96
13.4200 33.3923 59.4951 0.298 -0.011 -0.955 88 91 84
15.6678 33.0757 59.6580 0.722 -0.204 -0.661 90 103 85
16.5414 33.0363 59.9059 0.165 -0.311 -0.936 51 75 49
17.9081 32.8338 59.9827 0.305 -0.612 -0.729 121 123 109
18.4041 32.8658 60.2436 0.052 -0.367 -0.929 105 105 93
19.7956 32.6308 60.2580 0.232 0.058 -0.971 59 60 54
19.9220 32.6363 60.3186 0.102 -0.263 -0.959 59 60 52
20.0686 32.6265 60.3532 0.076 -0.355 -0.932 81 83 72
20.7433 32.5191 60.3747 0.153 -0.155 -0.976 114 112 100
22.8116 32.2473 60.5675 0.639 -0.199 -0.743 55 57 43
22.9248 32.2619 60.6432 0.638 -0.193 -0.746 37 40 23
23.0531 32.2645 60.6981 0.431 -0.192 -0.882 35 38 23
23.2054 32.2478 60.7196 0.349 -0.209 -0.914 28 31 14
25.5480 31.9312 60.9186 0.020 -0.381 -0.924 124 128 112
26.3454 31.8028 60.9408 0.018 -0.300 -0.954 42 46 32
26.4979 31.7825 60.9544 0.076 -0.318 -0.945 26 28 14
26.6474 31.7647 60.9724 0.076 -0.318 -0.945 27 30 15
26.8142 31.7316 60.9634 0.388 -0.123 -0.913 41 43 28
26.9403 31.7339 61.0166 0.388 -0.123 -0.913 45 47 33
28.2259 31.5028 60.9994 0.144 -0.181 -0.973 52 56 43
35.9388 31.6426 64.2652 0.472 -0.290 -0.833 41 52 35
36.0691 31.6375 64.3039 0.698 -0.149 -0.700 49 60 43
36.2158 31.9059 64.9531 0.938 -0.269 -0.218 38 53 32
40.3271 32.1540 67.0772 -0.373 0.526 -0.765 53 60 44
41.5158 32.0813 67.3725 0.790 0.360 -0.497 87 89 78
42.0308 32.0651 67.5340 -0.129 -0.159 -0.979 82 78 66
43.4722 33.6239 71.5290 0.476 -0.514 -0.713 52 72 37
43.6552 33.5378 71.4091 0.241 -0.539 -0.807 52 72 35
53.2001 33.2822 74.5042 0.636 -0.444 -0.632 50 55 51
53.3439 33.2314 74.4474 0.391 -0.465 -0.794 47 52 48
53.6153 33.1773 74.4319 0.204 -0.379 -0.903 48 52 48
54.1376 33.1285 74.5243 0.666 -0.385 -0.639 44 44 42
54.2088 33.3151 74.9637 0.595 -0.452 -0.665 41 40 36
54.3368 33.3128 75.0077 0.439 -0.487 -0.755 47 46 42
54.4730 33.2820 74.9919 0.218 -0.371 -0.903 65 64 59
55.5576 36.2002 81.8523 0.417 0.794 -0.442 105 109 108
55.9008 35.9033 81.3280 0.503 0.766 -0.401 101 103 97
55.9701 36.1997 82.0093 0.487 0.772 -0.410 85 88 78
60.5027 38.8416 89.5815 0.819 0.374 -0.435 75 76 62
60.6297 39.0444 90.0780 0.790 0.404 -0.461 89 90 76
65.9711 34.6356 82.3897 0.549 -0.623 -0.556 104 112 101
66.1003 34.6371 82.4426 -0.062 -0.528 -0.847 94 101 93
66.2279 34.6093 82.4300 -0.052 -0.548 -0.835 88 96 85
66.3578 34.6260 82.5168 -0.045 -0.576 -0.816 90 98 84
68.1908 34.9021 83.8292 0.663 -0.138 -0.736 112 127 131
-13.5697 39.1858 61.5258 -0.246 -0.096 -0.964 70 89 84
-13.2692 39.1165 61.4887 0.018 0.021 -1.000 92 107 101
-12.7448 39.0165 61.4702 -0.244 -0.103 -0.964 70 84 86
-12.3776 38.9118 61.3808 -0.265 -0.068 -0.962 63 76 84
-8.9073 37.9448 60.5864 -0.259 -0.025 -0.965 69 84 81
-4.1860 36.6729 59.6019 0.298 -0.487 -0.821 57 68 62
-3.6661 36.6413 59.7319 0.395 -0.323 -0.860 48 52 51
-3.3930 36.5755 59.6921 0.242 -0.241 -0.940 52 58 53
-2.3654 36.3453 59.5802 -0.207 0.032 -0.978 70 77 71
0.4762 35.7645 59.3938 0.417 -0.629 -0.657 50 59 54
0.6131 36.1188 60.2251 0.269 -0.604 -0.750 26 31 27
9.1021 34.1673 59.1923 0.257 -0.232 -0.938 47 47 45
9.6008 34.1201 59.2798 0.255 -0.251 -0.934 42 44 41
9.7528 34.1133 59.3231 0.255 -0.251 -0.934 62 64 60
9.8901 34.1157 59.3813 0.176 0.009 -0.984 79 81 76
10.0555 34.1002 59.4106 0.176 0.009 -0.984 68 70 65
10.1962 34.1005 59.4652 0.176 0.004 -0.984 65 68 61
10.4060 34.0560 59.4479 0.432 -0.074 -0.899 83 86 79
11.9759 33.6708 59.2035 0.197 -0.422 -0.885 53 54 49
12.1270 33.6628 59.2439 0.113 -0.322 -0.940 77 78 73
12.5878 33.5414 59.1537 0.416 0.043 -0.908 92 95 86
13.4970 33.4879 59.3850 0.319 -0.438 -0.840 94 97 89
13.6308 33.4907 59.4426 0.236 -0.377 -0.896 67 69 64
13.8292 33.4497 59.4285 0.200 -0.396 -0.896 61 63 60
15.5410 33.2153 59.5701 0.605 -0.319 -0.729 15 29 12
16.5766 33.1575 59.8405 -0.018 -0.418 -0.908 57 81 55
17.9221 32.9690 59.9424 0.146 0.064 -0.987 100 102 89
18.3443 32.9562 60.0761 0.509 -0.506 -0.696 100 100 90
18.4448 32.9814 60.1702 0.114 -0.287 -0.951 100 100 88
19.6163 32.8096 60.2421 0.047 -0.198 -0.979 44 46 38
19.7785 32.7883 60.2574 0.104 -0.232 -0.967 39 40 32
19.9304 32.7745 60.2855 0.076 -0.355 -0.932 42 43 35
20.0885 32.7560 60.3054 0.076 -0.355 -0.932 34 35 27
20.7101 32.6889 60.3963 0.239 -0.029 -0.971 106 103 92
20.8589 32.6768 60.4268 0.222 -0.072 -0.972 112 108 96
21.4908 32.5990 60.4983 0.062 0.021 -0.998 108 102 90
22.8188 32.3848 60.5369 0.639 -0.199 -0.743 106 108 94
22.9397 32.3933 60.6021 0.612 -0.223 -0.759 86 89 72
23.0721 32.3925 60.6512 0.409 -0.191 -0.892 59 62 43
26.4931 31.9283 60.9434 0.154 -0.225 -0.962 80 83 66
26.6334 31.9184 60.9755 0.145 -0.228 -0.963 50 53 34
29.2443 31.7615 61.6324 0.542 -0.508 -0.669 47 55 38
29.6051 31.5441 61.2929 0.429 0.104 -0.897 45 51 34
29.4424 31.8148 61.8255 0.678 -0.350 -0.647 35 39 22
29.5490 31.8346 61.9100 0.544 -0.328 -0.772 79 84 64
29.6370 31.8721 62.0262 0.655 -0.444 -0.611 110 115 95
29.9307 31.8360 62.0596 0.334 -0.365 -0.869 112 120 99
35.9516 31.7713 64.2277 0.472 -0.290 -0.833 50 62 43
36.2648 32.1421 65.1633 0.972 -0.020 -0.232 22 37 19
39.1156 32.7329 67.5562 0.998 -0.061 -0.019 42 53 34
41.5692 31.7917 66.4286 0.942 -0.161 -0.295 77 79 65
41.6729 32.0021 66.9309 0.904 -0.428 0.002 85 87 73
44.0474 33.2564 70.5997 0.152 -0.055 -0.987 43 66 27
44.2145 33.1923 70.5229 0.299 -0.063 -0.952 39 64 23
45.1936 32.6074 69.6127 -0.522 -0.727 -0.446 41 67 20
45.8741 32.5205 69.6828 0.662 0.385 -0.643 41 62 19
47.2302 32.0916 69.2601 0.301 0.470 -0.830 37 62 20
47.3589 32.0827 69.2900 -0.007 -0.001 -1.000 43 68 25
51.4140 33.1107 73.1063 0.436 -0.466 -0.770 83 90 82
51.5350 33.1258 73.1861 0.412 -0.475 -0.778 84 91 83
51.6648 33.1178 73.2182 0.412 -0.471 -0.780 80 87 79
53.0850 33.4177 74.4226 0.622 -0.301 -0.723 50 55 51
53.2193 33.3967 74.4279 0.618 -0.410 -0.671 49 51 48
53.6116 33.3637 74.5059 0.228 -0.077 -0.971 50 50 48
55.0467 31.4664 70.8851 -0.192 -0.796 -0.574 100 97 92
64.6900 34.6101 81.4977 0.711 0.152 -0.687 99 102 90
66.1132 34.7570 82.3668 0.239 -0.630 -0.739 86 96 87
66.2409 34.7314 82.3595 0.350 -0.332 -0.876 83 93 81
-14.2913 39.5579 61.6508 -0.259 -0.071 -0.963 49 68 66
-12.7397 39.1850 61.4307 -0.291 -0.240 -0.926 61 75 77
-9.0008 38.1610 60.6251 0.013 0.048 -0.999 80 94 94
-8.7631 38.1197 60.6261 0.013 0.048 -0.999 56 72 71
-8.0152 37.8909 60.4124 0.620 -0.499 -0.606 64 80 79
-4.1442 36.8109 59.5352 0.298 -0.487 -0.821 56 67 61
-3.6322 36.7834 59.6717 0.396 -0.254 -0.882 47 53 49
-3.4277 36.7553 59.6887 0.178 -0.165 -0.970 55 61 57
-3.2271 36.7293 59.7087 0.179 -0.279 -0.943 46 52 48
0.6837 36.2362 60.1316 0.271 -0.607 -0.747 22 26 25
9.2614 34.3063 59.2015 0.257 -0.232 -0.938 66 66 64
9.4450 34.2794 59.2131 0.272 -0.224 -0.936 72 72 70
9.6098 34.2644 59.2435 0.255 -0.251 -0.934 45 46 41
9.7649 34.2555 59.2836 0.245 -0.260 -0.934 51 52 47
9.9143 34.2502 59.3295 0.238 -0.250 -0.939 92 93 87
10.0681 34.2421 59.3707 0.238 -0.250 -0.939 83 84 78
10.2217 34.2339 59.4119 0.238 -0.250 -0.939 93 96 89
12.1480 33.7971 59.1955 0.380 0.003 -0.925 78 81 74
12.3376 33.7633 59.1945 0.326 -0.065 -0.943 69 72 65
12.5660 33.7036 59.1514 0.416 0.043 -0.908 86 89 80
14.0287 33.5548 59.3875 0.115 -0.384 -0.916 75 77 74
14.2149 33.5215 59.3861 0.209 -0.346 -0.915 68 70 67
15.5747 33.3381 59.5069 0.620 -0.303 -0.723 58 72 56
16.4159 33.3212 59.7932 0.133 -0.262 -0.956 112 137 111
16.6167 33.2750 59.7691 0.083 -0.455 -0.886 105 131 104
16.7851 33.2517 59.7828 0.046 -0.455 -0.889 94 118 92
19.7864 32.9271 60.2250 0.104 -0.232 -0.967 108 110 98
19.9503 32.9042 60.2377 0.076 -0.355 -0.932 119 121 110
20.4439 32.8331 60.2716 0.028 -0.316 -0.948 79 81 68
20.6989 32.8419 60.3889 0.239 -0.029 -0.971 98 94 82
22.4522 32.6107 60.5561 0.264 0.297 -0.918 122 124 112
22.5932 32.6033 60.5943 0.264 0.297 -0.918 134 136 123
22.7255 32.6030 60.6444 0.278 0.292 -0.915 118 121 105
24.4950 32.3357 60.7388 0.076 -0.639 -0.766 31 33 22
24.7756 32.3190 60.8101 0.094 -0.588 -0.803 23 26 9
31.3229 31.7372 62.0513 0.168 -0.571 -0.803 101 106 86
31.3993 31.7868 62.1892 0.125 -0.465 -0.876 49 53 36
31.6591 31.6544 61.9992 0.343 -0.510 -0.789 37 41 26
35.9399 31.9282 64.2427 0.621 -0.093 -0.778 43 53 30
36.2734 32.2773 65.1348 0.972 -0.002 -0.236 25 39 22
36.1160 32.6144 65.8124 0.977 0.209 0.034 25 39 22
36.5828 32.6706 66.1148 -0.282 0.522 -0.805 28 42 25
37.8177 32.2514 65.6713 0.498 -0.411 -0.764 44 49 34
39.1083 32.5517 66.8244 0.996 0.084 0.022 49 62 40
39.0841 33.0975 68.0099 0.981 0.155 -0.116 41 53 31
41.5106 31.8438 66.1974 0.893 -0.153 -0.424 68 70 56
41.5859 31.9141 66.3804 0.889 -0.152 -0.432 72 76 61
41.7889 32.1634 67.0039 0.875 -0.484 -0.018 73 75 61
41.9022 32.3663 67.4918 -0.159 -0.832 -0.532 89 90 76
43.0617 31.7481 66.5838 0.205 -0.730 -0.652 84 88 68
44.0655 33.3816 70.5451 0.263 -0.043 -0.964 39 64 24
44.2300 33.3215 70.4768 0.284 -0.023 -0.959 37 63 21
44.3719 33.2993 70.4826 0.715 -0.027 -0.698 36 63 20
46.8770 32.2076 69.0551 0.882 -0.176 -0.438 37 60 17
47.3561 32.2415 69.3133 -0.005 -0.007 -1.000 44 70 25
47.6796 32.0930 69.1124 0.264 -0.028 -0.964 44 70 23
51.5168 33.3415 73.3193 0.202 -0.758 -0.620 82 90 79
53.0641 33.6552 74.6001 0.106 0.104 -0.989 46 51 47
53.3267 33.6335 74.6535 0.136 0.094 -0.986 45 47 44
66.1257 34.8676 82.2708 0.242 -0.635 -0.733 83 95 85
66.6375 34.8071 82.3349 0.715 -0.162 -0.680 110 113 102
66.9039 34.9352 82.7177 0.881 -0.244 -0.406 109 110 106
-9.7217 38.5405 60.7773 -0.240 0.074 -0.968 49 61 61
-9.0561 38.3573 60.6339 -0.007 0.129 -0.992 137 151 151
-8.5893 38.2790 60.6427 0.006 0.120 -0.993 55 74 72
-4.4882 37.0765 59.5985 -0.251 -0.294 -0.922 49 58 53
-4.0720 36.9321 59.4438 0.291 -0.217 -0.932 72 83 77
-3.9293 36.9383 59.5122 0.152 -0.081 -0.985 62 73 67
-3.4315 36.9182 59.6597 0.429 -0.278 -0.860 55 61 57
-2.2422 36.6810 59.6000 -0.378 -0.205 -0.903 51 60 55
9.8859 34.3275 59.1330 0.246 0.157 -0.956 40 42 37
9.9199 34.3967 59.2968 0.085 -0.012 -0.996 97 99 94
10.0770 34.3863 59.3346 0.238 -0.250 -0.939 103 106 99
12.0630 33.9094 59.0587 0.235 -0.295 -0.926 63 66 59
12.1470 33.9459 59.1706 0.531 -0.457 -0.714 70 73 66
12.3482 33.9043 59.1572 0.331 -0.078 -0.941 74 77 70
12.4900 33.9022 59.2073 0.331 -0.078 -0.941 71 74 65
14.0730 33.6716 59.3131 0.149 -0.364 -0.919 77 79 76
15.6053 33.4629 59.4473 0.581 -0.277 -0.765 92 104 90
16.4699 33.4289 59.7057 0.102 -0.281 -0.954 101 126 99
16.9743 33.3592 59.7476 0.058 -0.426 -0.903 76 93 71
17.1369 33.3396 59.7673 0.058 -0.426 -0.903 82 94 76
19.6168 33.0991 60.1965 0.124 -0.112 -0.986 132 135 124
19.7838 33.0740 60.2059 0.161 -0.070 -0.985 116 118 105
19.9589 33.0424 60.2045 0.150 -0.220 -0.964 103 105 94
20.7435 32.9520 60.3089 0.235 -0.138 -0.962 90 86 74
21.2628 32.9620 60.5306 0.082 -0.049 -0.995 141 131 119
21.4205 32.9426 60.5489 0.090 -0.059 -0.994 118 108 98
24.3327 32.5049 60.7144 0.173 0.030 -0.985 143 146 129
24.4919 32.4810 60.7235 0.055 -0.091 -0.994 138 141 124
