ply
format ascii 1.0
element vertex 868
property float x
property float y
property float z
property float nx
property float ny
property float nz
property uchar diffuse_red
property uchar diffuse_green
property uchar diffuse_blue
end_header
-38.4439 32.0540 76.4615 0.172 0.232 -0.957 93 94 89
-37.6057 32.1221 77.2434 -0.984 0.016 0.176 90 90 90
-34.4974 31.1285 72.7164 -0.457 -0.033 -0.889 84 98 101
-34.3699 31.1080 72.6516 -0.457 -0.033 -0.889 102 116 119
-34.2371 31.0888 72.5967 -0.528 -0.071 -0.846 114 128 131
-34.1148 31.0671 72.5222 -0.528 -0.071 -0.846 130 144 147
-33.9904 31.0458 72.4515 -0.514 -0.062 -0.855 130 144 147
-33.3862 30.9855 72.3628 -0.616 -0.195 -0.764 132 144 144
-33.0451 30.8652 71.7992 -0.526 0.089 -0.846 139 151 151
-32.3353 30.7308 71.3167 -0.401 0.119 -0.908 170 180 181
-31.1493 30.5553 70.8033 -0.321 -0.185 -0.929 25 30 33
-30.1336 30.3909 70.2795 0.099 -0.167 -0.981 60 66 66
-27.7167 30.0875 69.5559 -0.477 0.091 -0.874 125 129 128
-27.3770 30.0610 69.5504 -0.364 0.271 -0.891 133 137 138
-27.3528 30.0220 69.3289 -0.384 -0.436 -0.814 132 136 137
-27.1917 30.0072 69.3128 -0.371 -0.437 -0.819 138 142 143
-27.1097 29.9785 69.1787 -0.466 -0.135 -0.875 144 148 149
-27.6750 29.8380 68.0877 0.243 -0.162 -0.956 148 152 153
-27.4318 29.7959 67.9459 0.022 0.274 -0.961 148 152 153
-26.3915 29.6387 67.4758 -0.410 -0.266 -0.873 108 110 105
-26.2535 29.6203 67.4281 -0.438 -0.286 -0.852 92 95 88
-23.9611 29.2962 66.5255 -0.319 -0.253 -0.914 94 92 80
-19.9202 28.7133 64.8651 -0.700 -0.589 -0.404 67 58 53
-16.9704 28.4886 64.8499 -0.406 -0.219 -0.888 79 73 61
-16.8127 28.4709 64.8151 -0.407 -0.189 -0.894 87 81 69
-16.6906 28.4492 64.7402 -0.419 -0.188 -0.888 90 84 72
-14.3321 28.2127 64.3898 0.121 -0.297 -0.947 90 73 66
-10.5325 27.8652 64.0237 0.117 0.093 -0.989 92 75 65
-8.8488 27.8143 64.4764 -0.097 -0.833 -0.545 90 73 65
-8.1069 27.6109 63.5969 0.329 -0.018 -0.944 85 71 58
-7.8804 27.5969 63.6150 0.338 0.012 -0.941 91 77 64
-1.7050 27.1555 63.7565 0.424 -0.310 -0.851 81 71 61
-2.7123 27.0530 62.6936 -0.555 -0.192 -0.809 73 61 49
-1.3060 27.0224 63.1421 -0.464 -0.070 -0.883 85 71 60
-1.1318 27.0023 63.1004 -0.417 -0.095 -0.904 92 78 67
-0.9773 26.9808 63.0418 0.198 -0.038 -0.980 88 75 66
-0.4799 26.9503 63.0831 0.183 0.080 -0.980 85 75 65
0.8298 26.9083 63.4207 0.196 -0.471 -0.860 82 74 63
0.9193 26.8822 63.3053 0.213 -0.828 -0.519 83 75 64
7.6215 26.5769 64.4944 -0.931 0.207 -0.302 77 73 62
7.6889 26.5487 64.3562 -0.903 0.385 -0.191 69 65 54
7.0387 26.4819 63.6665 0.117 -0.616 -0.779 71 65 53
7.5769 26.4792 63.8919 -0.932 -0.245 -0.267 71 65 53
7.5099 26.4441 63.6528 -0.192 0.324 -0.926 87 81 69
7.6437 26.4198 63.5676 -0.171 0.302 -0.938 82 76 64
8.9635 26.3624 63.8182 0.189 0.041 -0.981 79 71 60
8.9730 26.3315 63.6383 -0.544 0.417 -0.728 88 80 69
11.0462 26.2142 63.8697 0.074 -0.777 -0.625 87 81 67
12.7923 26.0766 63.8333 -0.365 -0.454 -0.813 56 54 41
13.2021 26.0638 63.9411 -0.559 -0.763 -0.324 66 64 51
13.2694 26.0356 63.8032 -0.434 -0.810 -0.395 78 76 61
13.4379 26.0120 63.7378 -0.173 -0.616 -0.769 84 82 69
-62.3639 39.0215 106.1918 -0.331 -0.356 -0.874 104 118 114
-62.2470 38.9312 105.7103 -0.106 -0.652 -0.750 33 56 58
-62.0879 38.9176 105.6998 -0.106 -0.652 -0.750 33 62 71
-61.9386 38.8866 105.5823 -0.117 -0.665 -0.738 35 60 71
-61.4532 38.5834 104.0060 -0.741 0.124 -0.660 28 47 53
-61.3345 38.5074 103.6096 -0.201 0.218 -0.955 29 46 51
-60.5134 38.4868 103.8490 0.255 0.140 -0.957 39 48 47
-60.3324 38.0278 101.2195 -0.969 -0.072 -0.236 65 79 80
-60.2762 37.8764 100.3508 -0.579 -0.113 -0.808 62 78 78
-58.5138 37.3994 98.3099 -0.304 0.229 -0.925 50 59 66
-55.4167 36.6430 95.2061 -0.995 0.090 0.047 76 86 87
-52.1637 35.3630 89.0808 -0.980 0.066 -0.188 88 94 92
-48.3381 34.4555 85.4055 -0.851 0.040 -0.524 70 80 63
-48.2320 34.4189 85.2358 -0.389 -0.659 -0.644 70 79 62
-47.9854 34.3639 85.0197 -0.331 -0.598 -0.730 51 63 46
-47.1977 34.1374 84.0286 -0.356 0.400 -0.844 60 72 55
-46.3963 34.0079 83.6168 0.075 -0.556 -0.828 61 73 54
-46.1616 34.0333 83.8699 0.450 -0.477 -0.755 68 83 57
-45.0117 33.5770 81.6815 -0.802 0.328 -0.500 60 85 46
-43.4138 33.0392 79.2097 -0.594 -0.103 -0.798 110 124 116
-43.0229 32.9772 79.0154 -0.591 -0.094 -0.801 79 87 83
-42.9000 32.9538 78.9310 -0.334 -0.037 -0.942 74 79 72
-42.2407 32.7856 78.2280 -0.736 -0.069 -0.673 79 81 76
-40.4302 32.4312 76.9319 -0.187 -0.405 -0.895 94 91 86
-40.2836 32.4162 76.9081 -0.187 -0.405 -0.895 106 103 97
-40.3281 32.3394 76.4353 0.158 -0.242 -0.957 110 107 102
-40.1359 32.3394 76.5193 -0.616 -0.058 -0.786 105 101 97
-39.9938 32.3231 76.4855 -0.877 -0.065 -0.475 98 95 91
-39.6586 32.2452 76.1733 -0.421 -0.241 -0.875 103 100 96
-39.5740 32.2109 76.0081 -0.561 -0.388 -0.731 102 100 96
-35.5854 31.4672 73.3708 -0.254 0.001 -0.967 39 56 60
-35.2766 31.4397 73.3445 -0.400 -0.277 -0.874 72 89 93
-34.4731 31.2738 72.7182 -0.469 -0.100 -0.878 121 133 136
-34.3564 31.2507 72.6331 -0.444 -0.070 -0.893 122 134 137
-34.2243 31.2313 72.5768 -0.528 -0.071 -0.846 121 134 137
-34.1020 31.2096 72.5023 -0.528 -0.071 -0.846 134 147 150
-33.8628 31.2157 72.6433 -0.290 -0.236 -0.927 131 144 147
-33.7369 31.1947 72.5746 -0.419 -0.292 -0.860 127 139 142
-33.5691 31.1835 72.5824 -0.597 -0.091 -0.797 124 137 139
-33.4368 31.1639 72.5250 -0.461 0.032 -0.887 114 125 126
-30.6686 30.6071 70.4550 -0.685 0.442 -0.579 57 63 63
-29.4239 30.4878 70.2974 -0.492 0.139 -0.859 103 112 109
-29.2992 30.4666 70.2271 -0.493 0.140 -0.859 108 117 114
-29.2243 30.4357 70.0781 -0.699 0.097 -0.708 115 124 121
-28.7509 30.3464 69.7587 -0.586 0.121 -0.801 113 122 119
-28.9480 30.0900 68.1586 -0.628 0.140 -0.765 118 122 121
-27.3067 29.9560 68.0893 0.056 0.266 -0.962 148 152 153
-27.2547 29.9228 67.9161 -0.858 0.139 -0.495 148 152 153
-26.3911 29.7773 67.4366 -0.443 -0.342 -0.829 85 87 82
-26.2652 29.7569 67.3718 -0.440 -0.304 -0.845 106 109 102
-16.5782 28.6048 64.8279 -0.213 -0.135 -0.968 90 83 70
-15.2576 28.3976 64.1850 -0.811 -0.106 -0.576 90 76 65
-15.2473 28.3636 63.9891 -0.737 -0.157 -0.658 93 79 68
-13.8918 28.4039 64.8221 -0.325 0.403 -0.855 98 81 74
-8.8776 27.9607 64.4096 -0.066 -0.839 -0.540 90 73 65
-9.1073 27.8050 63.3895 -0.474 -0.144 -0.869 95 78 70
-8.8811 27.7916 63.4099 -0.264 -0.435 -0.861 88 74 63
-8.4248 27.7316 63.2562 0.001 -0.417 -0.909 81 67 54
-3.4958 27.3407 63.1146 -0.212 0.100 -0.972 83 70 61
-1.3409 27.1733 63.0735 -0.388 -0.055 -0.920 84 70 59
-1.2058 27.1506 62.9988 0.051 -0.179 -0.982 93 79 68
-0.6954 27.1216 63.0520 -0.124 -0.351 -0.928 94 84 74
-0.5221 27.1014 63.0089 -0.254 -0.500 -0.828 94 84 74
-0.2767 27.0860 63.0259 -0.319 -0.622 -0.715 99 89 79
-0.0190 27.0714 63.0527 -0.360 -0.660 -0.660 95 85 76
-0.3011 27.0205 62.6287 -0.348 -0.658 -0.668 87 77 68
0.7093 27.0559 63.2814 0.198 -0.468 -0.861 84 74 64
1.5077 26.9481 62.9961 -0.861 -0.248 -0.444 95 87 76
3.7263 26.8002 63.0978 -0.421 0.056 -0.905 101 95 79
6.6701 26.6861 63.7181 0.160 -0.387 -0.908 87 83 72
6.6801 26.6549 63.5380 0.082 -0.511 -0.856 74 67 57
6.9517 26.6384 63.5597 0.082 -0.502 -0.861 72 66 54
7.6961 26.6479 63.9431 -0.932 -0.032 -0.362 73 67 55
9.7536 26.5355 64.1834 0.373 -0.352 -0.858 80 72 61
9.5704 26.4623 63.6713 -0.545 0.485 -0.684 86 78 67
11.0586 26.3483 63.6519 -0.037 -0.802 -0.596 74 68 54
12.3231 26.3153 64.0133 -0.186 -0.377 -0.907 85 79 67
12.4861 26.2916 63.9445 -0.193 -0.395 -0.898 75 70 58
13.1591 26.1659 63.4986 -0.419 -0.816 -0.398 81 79 66
-62.4473 39.3311 106.9256 -0.876 -0.448 -0.178 119 127 118
-62.3167 39.2622 106.5791 -0.849 -0.462 -0.256 110 126 125
-62.1856 39.1957 106.2465 -0.838 -0.447 -0.313 38 60 64
-62.0467 39.1445 106.0073 -0.960 -0.170 -0.223 23 49 56
-61.9335 39.0493 105.4995 -0.962 -0.164 -0.221 46 71 79
-61.2908 38.7304 103.9121 -0.443 0.222 -0.869 30 46 50
-60.4805 38.6906 104.0279 0.239 0.269 -0.933 49 56 56
-60.2095 38.5945 103.5823 -0.116 0.316 -0.942 60 69 70
-60.2686 38.0379 100.3037 -0.579 -0.099 -0.809 57 71 72
-54.3648 36.3923 93.2239 -0.993 0.071 0.099 72 83 79
-52.2068 35.7147 90.1907 -0.774 -0.632 -0.050 90 96 94
-52.1219 35.6553 89.8801 -0.744 -0.664 -0.074 88 94 92
-48.9276 34.6598 85.4350 -0.631 0.451 -0.631 70 82 65
-48.3585 34.5901 85.2727 -0.912 -0.072 -0.404 63 76 59
-48.1757 34.5015 84.8332 -0.911 -0.077 -0.405 55 69 50
-47.9645 34.4289 84.4996 -0.840 -0.082 -0.536 41 57 35
-47.8580 34.3934 84.3380 -0.840 -0.082 -0.536 44 60 38
-47.7429 34.3624 84.2064 -0.848 -0.296 -0.439 44 61 38
-46.9041 34.2518 83.9204 -0.484 0.577 -0.658 81 103 73
-46.6569 34.1989 83.7178 -0.526 0.271 -0.806 56 78 49
-46.3064 34.1107 83.3525 0.094 -0.537 -0.838 67 90 55
-45.3265 33.5841 80.6959 -0.563 0.166 -0.810 61 84 41
-45.2079 33.5580 80.5946 -0.579 0.192 -0.792 61 83 41
-43.5325 33.2055 79.2544 -0.582 -0.411 -0.702 101 110 101
-43.3890 33.1899 79.2254 -0.590 -0.409 -0.696 92 101 93
-42.6131 33.1332 79.2271 -0.694 -0.283 -0.662 49 50 42
-40.5279 32.5392 76.6522 -0.019 -0.535 -0.844 86 83 75
-40.3805 32.5249 76.6316 -0.012 -0.169 -0.986 109 109 100
-40.1195 32.4848 76.5099 -0.464 -0.206 -0.862 106 106 97
-39.9535 32.4763 76.5313 -0.816 -0.070 -0.574 100 100 91
-39.8491 32.4478 76.4095 -0.884 -0.081 -0.460 100 100 91
-39.6790 32.3788 76.0792 -0.548 -0.522 -0.653 100 100 91
-39.6529 32.3259 75.7814 -0.743 -0.470 -0.477 100 100 91
-39.5538 32.2963 75.6510 -0.740 -0.469 -0.483 101 102 96
-39.4430 32.2704 75.5475 -0.863 -0.443 -0.240 97 98 92
-36.2743 31.7501 73.8687 -0.408 -0.215 -0.887 69 79 81
-35.7646 31.6676 73.6056 -0.496 -0.350 -0.794 85 95 97
-35.6389 31.6465 73.5364 -0.496 -0.350 -0.794 91 101 103
-35.5132 31.6254 73.4671 -0.496 -0.350 -0.794 110 121 123
-35.1612 31.5558 73.2115 -0.579 -0.212 -0.787 132 143 145
-34.3410 31.3939 72.6182 -0.277 -0.219 -0.936 128 137 139
-34.2172 31.3725 72.5464 -0.403 -0.159 -0.901 133 142 144
-26.4656 29.9031 67.2910 -0.472 -0.330 -0.817 84 89 82
-26.3207 29.8861 67.2537 -0.482 -0.347 -0.805 95 100 93
-22.2570 29.3952 66.1316 -0.368 -0.044 -0.929 148 151 142
-22.1201 29.3760 66.0783 -0.368 -0.044 -0.929 105 108 99
-22.0224 29.3512 65.9753 -0.405 -0.081 -0.911 92 95 86
-16.6974 28.7700 64.8681 -0.083 -0.243 -0.966 101 98 80
-16.5147 28.7553 64.8607 -0.106 -0.243 -0.964 86 83 65
-15.6357 28.6407 64.5689 -0.132 -0.876 -0.463 95 78 70
-11.1211 28.2394 64.1647 -0.574 0.542 -0.613 86 71 64
-11.0566 28.2111 64.0273 -0.540 0.562 -0.627 91 74 67
-8.3275 27.8877 63.3106 -0.030 -0.433 -0.901 83 66 56
-7.8070 27.8666 63.4112 0.089 -0.512 -0.854 88 74 63
-5.4665 27.7317 63.6287 0.163 -0.632 -0.757 83 66 59
-5.0093 27.7026 63.6552 -0.103 -0.794 -0.600 88 70 66
-4.9126 27.6771 63.5482 -0.380 -0.777 -0.502 86 71 65
-4.8082 27.6524 63.4485 -0.491 -0.714 -0.500 86 72 64
-0.8785 27.2948 63.0480 0.056 -0.184 -0.981 87 76 64
-0.7196 27.2737 62.9929 -0.251 -0.276 -0.928 84 74 64
-0.6239 27.2481 62.8844 -0.387 -0.404 -0.829 85 75 65
-0.4362 27.2289 62.8533 -0.450 -0.585 -0.674 95 85 75
-0.3117 27.2054 62.7692 -0.584 -0.625 -0.518 97 84 76
1.5511 27.1066 62.9926 -0.807 0.399 -0.436 96 88 77
1.5810 27.0764 62.8294 -0.822 0.369 -0.434 98 92 78
6.6566 26.8464 63.6677 0.132 -0.299 -0.945 93 89 78
6.6683 26.8150 63.4891 0.017 -0.291 -0.957 77 73 61
6.9323 26.7983 63.5050 0.119 -0.258 -0.959 79 73 61
7.6423 26.8071 63.8617 -0.935 -0.018 -0.354 78 72 60
7.4484 26.7639 63.5258 -0.919 0.108 -0.380 100 94 82
10.2915 26.6646 64.1681 0.184 -0.150 -0.971 99 91 80
11.4796 26.5988 64.2944 -0.454 -0.671 -0.586 100 94 80
11.5659 26.5712 64.1698 -0.614 -0.302 -0.729 99 93 79
11.1204 26.5161 63.6567 0.262 -0.517 -0.815 83 77 65
12.3259 26.5139 64.1617 -0.029 -0.093 -0.995 78 72 60
12.7132 26.5013 64.2551 -0.658 0.322 -0.681 85 79 67
12.7094 26.4691 64.0650 -0.729 0.304 -0.613 76 70 58
13.1812 26.3649 63.6588 -0.879 0.204 -0.431 75 73 58
13.8687 26.2712 63.4068 0.188 -0.645 -0.741 82 79 69
-62.0389 39.3124 105.9522 -0.976 -0.093 -0.196 47 68 70
-61.9177 39.2308 105.5309 -0.975 -0.114 -0.191 101 122 126
-61.8088 39.1296 104.9905 -0.977 -0.123 -0.175 102 119 123
-61.2749 38.9094 103.9405 -0.434 0.215 -0.875 32 46 49
-60.1993 38.7644 103.5536 -0.125 0.297 -0.947 60 69 71
-58.2855 37.7759 98.6368 -0.968 0.210 -0.139 55 62 70
-52.1217 35.6854 89.1285 -0.811 -0.570 -0.133 93 102 97
-49.0058 34.8577 85.6478 -0.220 -0.355 -0.909 68 81 63
-48.8109 34.7734 85.2419 -0.781 0.153 -0.605 66 79 61
-48.6066 34.7901 85.4247 -0.816 -0.247 -0.522 65 80 61
-48.4961 34.7553 85.2700 -0.823 -0.237 -0.516 62 75 57
-48.3755 34.7262 85.1520 -0.891 -0.207 -0.404 56 69 51
-48.2735 34.6873 84.9695 -0.889 -0.201 -0.412 48 63 43
-48.1891 34.6392 84.7265 -0.883 -0.163 -0.440 44 59 38
-48.0890 34.5998 84.5407 -0.862 -0.104 -0.497 43 61 35
-47.7608 34.4975 84.0869 -0.828 -0.320 -0.460 55 73 46
-47.6541 34.4624 83.9286 -0.845 -0.289 -0.449 70 89 63
-47.5471 34.4276 83.7722 -0.760 -0.533 -0.372 78 97 69
-47.3384 34.3561 83.4456 -0.806 -0.484 -0.341 79 102 68
-46.8711 34.4128 83.9708 -0.689 0.367 -0.625 66 92 55
-45.5368 33.8693 81.3858 -0.138 -0.401 -0.906 60 81 40
-45.3830 33.8581 81.3861 -0.169 -0.411 -0.896 60 81 38
-45.2123 33.8543 81.4359 -0.226 -0.414 -0.882 59 82 39
-45.1065 33.8219 81.2923 -0.184 -0.426 -0.886 64 87 44
-44.9412 33.8154 81.3248 -0.594 -0.486 -0.641 65 86 45
-45.0123 33.7067 80.6652 -0.611 -0.355 -0.708 66 87 48
-44.6901 33.6141 80.2648 -0.584 0.096 -0.806 115 127 118
-44.5684 33.5895 80.1736 -0.584 0.096 -0.806 119 130 122
-44.4468 33.5649 80.0825 -0.584 0.096 -0.806 89 102 92
-43.8797 33.4260 79.5172 -0.530 0.036 -0.847 121 129 118
-43.7552 33.4030 79.4361 -0.501 0.037 -0.864 114 122 111
-43.6625 33.3673 79.2685 -0.433 0.028 -0.901 86 92 82
-43.5456 33.3413 79.1675 -0.409 0.038 -0.912 77 82 75
-43.4050 33.3248 79.1307 -0.490 0.135 -0.861 88 93 87
-42.6050 33.2781 79.1973 -0.463 0.217 -0.859 57 58 50
-40.8607 32.6946 76.5531 -0.918 0.072 -0.391 83 80 71
-40.7144 32.6801 76.5311 -0.516 -0.350 -0.782 92 89 80
-40.3787 32.6655 76.5877 -0.021 -0.155 -0.988 116 116 106
-40.2867 32.6327 76.4366 0.131 -0.226 -0.965 107 107 97
-40.1146 32.6265 76.4734 -0.464 -0.206 -0.862 101 101 91
-39.8452 32.5893 76.3709 -0.891 -0.030 -0.452 95 95 85
-39.7008 32.5116 75.9820 -0.556 -0.511 -0.656 96 96 86
-39.6344 32.4712 75.7762 -0.684 -0.440 -0.581 96 96 86
-39.2405 32.3521 75.2527 -0.182 0.386 -0.905 86 87 81
-36.2516 31.8959 73.8693 -0.489 -0.080 -0.869 110 120 121
-35.7547 31.8099 73.5804 -0.478 -0.346 -0.807 124 134 135
-35.6224 31.7905 73.5242 -0.466 -0.337 -0.818 127 137 138
-35.4832 31.7730 73.4812 -0.303 -0.374 -0.877 121 129 131
-34.8931 31.6576 73.0615 -0.505 -0.315 -0.804 132 140 142
-34.4457 31.5595 72.6821 -0.484 -0.057 -0.873 119 127 129
-34.3361 31.5346 72.5836 -0.243 -0.227 -0.943 122 130 132
-34.1979 31.5167 72.5386 -0.433 -0.162 -0.886 124 132 134
-34.0953 31.4901 72.4275 -0.464 -0.290 -0.837 83 91 93
-33.9584 31.4720 72.3801 -0.436 -0.257 -0.863 83 91 93
-30.2888 31.0621 71.5516 -0.928 -0.009 -0.371 85 96 90
-30.3196 30.8177 70.1241 -0.700 0.298 -0.649 110 116 114
-29.9236 30.7132 69.6855 -0.416 -0.230 -0.880 113 119 117
-29.8024 30.6917 69.6121 -0.129 -0.089 -0.988 111 120 119
-29.5944 30.6876 69.6761 -0.211 0.008 -0.978 111 120 119
-29.2973 30.7012 69.8798 -0.005 -0.388 -0.922 111 120 119
-29.1704 30.6806 69.8139 -0.182 0.173 -0.968 112 121 120
-29.0212 30.6644 69.7829 -0.182 0.173 -0.968 114 123 122
-27.3584 30.5316 69.7141 -0.087 0.727 -0.681 139 148 147
-26.3433 30.0205 67.1821 -0.537 -0.264 -0.801 71 76 69
-22.1511 29.5115 66.0000 -0.515 -0.283 -0.809 97 100 91
-15.0287 28.9285 65.6222 -0.189 -0.972 -0.141 94 84 70
-15.5585 28.8294 64.8257 -0.567 -0.763 -0.311 86 72 63
-9.2551 28.3266 64.5678 0.349 0.211 -0.913 91 74 66
-5.7858 27.8887 63.4929 -0.220 -0.934 -0.282 75 61 51
-5.6149 27.8697 63.4545 0.204 -0.629 -0.750 83 66 57
-5.2076 27.8369 63.4366 -0.084 -0.831 -0.550 88 71 63
-5.0479 27.8168 63.3872 -0.447 -0.786 -0.428 88 71 63
-4.8368 27.8009 63.3841 -0.303 -0.775 -0.555 85 71 61
-4.4313 27.8010 63.5553 -0.984 -0.045 -0.174 86 72 61
-4.3102 27.7441 63.2767 -0.848 -0.478 -0.230 86 74 60
-1.5556 27.4965 63.0029 0.181 0.208 -0.961 80 68 56
-0.7304 27.4593 63.1346 0.045 -0.052 -0.998 75 65 53
-0.6054 27.4357 63.0504 -0.351 -0.322 -0.879 72 62 52
-0.4937 27.4111 62.9552 -0.373 -0.365 -0.853 71 61 51
-0.3427 27.3894 62.8930 -0.588 -0.475 -0.655 88 78 68
0.0411 27.2869 62.4614 -0.021 0.071 -0.997 83 75 64
1.4215 27.2858 63.0357 -0.563 0.593 -0.576 88 80 69
1.5384 27.2613 62.9432 -0.793 0.408 -0.453 84 77 65
1.5665 27.2308 62.7787 -0.807 0.401 -0.432 84 78 64
6.4015 27.0895 63.9956 0.438 -0.522 -0.732 95 91 79
7.1970 26.9428 63.4808 0.039 -0.232 -0.972 85 79 65
7.2974 26.9165 63.3707 0.288 -0.329 -0.899 94 88 74
7.5379 26.8984 63.3673 0.022 -0.230 -0.973 96 90 76
7.8588 26.8849 63.4244 0.133 -0.328 -0.935 96 90 78
8.6319 26.8651 63.6351 0.125 -0.425 -0.896 101 93 82
10.4425 26.8379 64.2398 0.274 -0.079 -0.958 93 85 72
10.4648 26.8067 64.0682 0.189 0.132 -0.973 96 90 76
11.1272 26.8107 64.3706 -0.696 -0.317 -0.644 94 91 76
11.2530 26.7851 64.2750 -0.695 -0.324 -0.642 94 88 72
11.3852 26.7598 64.1842 -0.607 -0.318 -0.729 92 86 72
11.4641 26.7316 64.0544 -0.610 0.198 -0.767 93 87 73
11.1670 26.6834 63.6503 0.268 -0.032 -0.963 87 81 69
12.3058 26.6794 64.1062 -0.037 -0.094 -0.995 85 79 67
12.7392 26.6698 64.2329 -0.080 -0.141 -0.987 85 79 67
12.9344 26.6476 64.1865 -0.499 0.553 -0.668 77 71 59
13.2970 26.4734 63.3308 0.089 0.189 -0.978 87 85 73
14.5041 26.4690 63.8136 0.172 0.452 -0.875 82 80 67
-62.2273 39.4259 105.5046 -0.731 -0.414 -0.543 86 97 90
-62.0560 39.4350 105.6272 -0.831 0.352 -0.431 100 114 110
-61.9237 39.3736 105.3298 -0.836 0.348 -0.424 111 125 124
-61.7915 39.3131 105.0374 -0.840 0.354 -0.412 60 73 73
-52.7577 36.3548 91.7943 -0.606 -0.794 0.049 75 84 81
-52.0709 35.7503 88.6103 -0.334 0.014 -0.943 79 88 83
-51.9150 35.7416 88.6248 -0.039 0.218 -0.975 80 89 84
-48.9569 34.9330 85.2064 -0.416 0.210 -0.885 70 85 64
-48.6241 34.9256 85.3011 -0.659 -0.545 -0.519 59 74 53
-48.5043 34.8959 85.1802 -0.659 -0.545 -0.519 54 69 50
-48.4026 34.8564 84.9957 -0.863 -0.211 -0.460 52 67 48
-48.2992 34.8182 84.8191 -0.863 -0.211 -0.460 51 66 45
-48.0946 34.7412 84.4620 -0.856 -0.125 -0.502 43 61 34
-47.9716 34.7140 84.3567 -0.859 -0.079 -0.506 58 77 47
-47.7682 34.6377 84.0028 -0.828 -0.320 -0.460 89 110 79
-47.6639 34.6013 83.8368 -0.833 -0.308 -0.458 89 110 80
-47.4670 34.5231 83.4694 -0.751 -0.536 -0.386 65 89 53
-47.3702 34.4835 83.2825 -0.759 -0.491 -0.428 62 88 50
-47.2836 34.4390 83.0631 -0.727 -0.575 -0.374 63 90 50
-46.6955 34.3826 82.9817 -0.642 -0.583 -0.498 58 86 46
-45.5481 34.0064 81.2972 -0.883 0.200 -0.424 61 81 44
-45.4164 33.9856 81.2318 -0.293 -0.451 -0.843 60 81 42
-45.0266 33.8422 80.5701 -0.565 -0.396 -0.724 84 104 69
-44.6680 33.7650 80.2753 -0.574 0.066 -0.816 113 122 114
-44.5452 33.7408 80.1871 -0.574 0.066 -0.816 85 95 87
-44.4247 33.7156 80.0924 -0.577 0.058 -0.814 62 72 64
-44.3132 33.6868 79.9729 -0.638 0.134 -0.758 74 84 75
-43.8686 33.5717 79.4961 -0.686 0.003 -0.728 104 109 102
-43.7533 33.5449 79.3896 -0.482 -0.017 -0.876 86 89 80
-43.6518 33.5125 79.2461 -0.450 0.015 -0.893 86 89 80
-43.5394 33.4847 79.1329 -0.433 0.054 -0.900 69 72 65
-43.3994 33.4680 79.0946 -0.435 0.186 -0.881 77 80 73
-42.5830 33.4285 79.2042 -0.463 0.217 -0.860 82 83 75
-41.9276 33.1862 78.0847 -0.906 0.108 -0.409 88 89 83
-41.8483 33.1470 77.8926 -0.909 0.130 -0.397 106 107 101
-41.0598 32.9607 77.1493 -0.349 -0.697 -0.626 90 87 78
-40.9219 32.8778 76.7306 -0.918 0.072 -0.391 91 88 79
-40.7374 32.8766 76.7995 -0.878 0.076 -0.473 103 100 91
-40.7160 32.8192 76.4793 -0.540 -0.362 -0.760 119 116 107
-40.5493 32.8117 76.5053 -0.049 -0.502 -0.863 126 123 114
-39.5072 32.5283 75.3092 -0.256 0.250 -0.934 89 90 84
-36.4437 32.0944 74.0828 -0.559 0.130 -0.819 123 132 131
-35.6411 31.9252 73.4429 -0.447 -0.053 -0.893 122 131 130
-35.5223 31.9022 73.3605 -0.422 -0.059 -0.905 127 135 137
-35.3875 31.8836 73.3092 -0.379 -0.158 -0.912 125 133 135
-35.2637 31.8621 73.2366 -0.357 -0.124 -0.926 122 130 132
-35.1542 31.8367 73.1365 -0.693 -0.091 -0.715 119 127 129
-34.4594 31.6955 72.6127 -0.448 -0.097 -0.889 88 96 98
-34.3353 31.6742 72.5416 -0.258 -0.088 -0.962 84 92 94
-34.2125 31.6525 72.4680 -0.431 -0.138 -0.892 82 90 92
-34.1069 31.6266 72.3627 -0.560 0.013 -0.828 76 84 86
-32.5842 31.3794 71.5726 -0.532 0.287 -0.797 119 126 126
-31.5082 31.2775 71.4314 -0.210 0.259 -0.943 124 133 131
-31.3817 31.2566 71.3635 -0.133 0.199 -0.971 104 115 110
-29.7719 30.8834 69.8865 -0.874 -0.089 -0.478 113 119 117
-29.3278 30.8347 69.7904 -0.016 -0.397 -0.918 111 120 119
-28.0280 30.8634 70.4903 -0.062 0.811 -0.582 122 131 130
-27.8647 30.4433 68.1486 0.330 -0.744 -0.582 146 150 151
-27.6585 30.2644 67.2072 -0.017 0.198 -0.980 153 157 156
-26.2776 30.0859 66.7527 -0.615 -0.423 -0.665 62 64 51
-25.4551 30.0179 66.7017 -0.037 -0.154 -0.987 96 100 85
-24.0974 29.8309 66.1882 -0.426 -0.226 -0.876 96 103 91
-15.5688 29.0830 65.4127 0.221 -0.919 -0.326 80 78 55
-11.4045 28.5383 64.0042 -0.592 0.515 -0.620 91 78 69
-11.0527 28.5044 63.9545 -0.705 0.279 -0.652 94 80 71
-10.7824 28.4970 64.0237 0.138 0.017 -0.990 100 83 75
-10.5479 28.4859 64.0563 0.138 0.017 -0.990 94 77 69
-10.3125 28.4747 64.0890 0.138 0.017 -0.990 87 70 62
-10.1019 28.4609 64.0966 0.157 -0.061 -0.986 90 73 65
-6.8568 28.0456 63.0520 -0.172 0.215 -0.961 87 75 61
-6.0257 28.0178 63.2347 0.183 -0.556 -0.810 87 73 60
-5.7590 28.0073 63.2845 0.260 -0.387 -0.885 97 81 68
-5.4743 27.9982 63.3498 0.172 -0.586 -0.792 103 87 74
-3.5707 27.7889 62.9333 -0.221 -0.251 -0.942 84 74 64
-0.9917 27.6265 63.0643 0.163 0.079 -0.983 89 77 65
-0.7290 27.6133 63.0969 0.022 0.062 -0.998 74 64 52
-0.6193 27.5885 62.9999 -0.351 -0.322 -0.879 73 63 53
-0.4821 27.5658 62.9262 -0.555 0.401 -0.729 73 63 53
-0.1750 27.5228 62.8060 -0.893 0.052 -0.448 88 75 67
0.0018 27.4702 62.5773 -0.593 -0.495 -0.636 85 77 66
1.4196 27.5071 63.3729 -0.939 -0.117 -0.323 83 77 65
1.4958 27.4795 63.2462 -0.882 0.083 -0.465 84 78 66
1.5915 27.4534 63.1359 -0.903 0.125 -0.411 84 78 66
1.5658 27.4188 62.9266 -0.828 0.171 -0.534 85 79 67
1.5787 27.3870 62.7497 -0.853 0.273 -0.445 69 65 50
7.2224 27.1055 63.4603 0.053 0.168 -0.984 91 84 68
7.2119 27.0723 63.2656 0.294 -0.287 -0.912 89 82 66
9.5513 27.0168 63.9105 0.287 -0.549 -0.785 110 100 88
10.4463 26.9705 64.0139 0.150 0.036 -0.988 99 93 79
11.1094 26.9757 64.3166 -0.755 -0.527 -0.391 117 114 99
11.2041 26.9482 64.1982 -0.688 -0.357 -0.632 105 99 83
11.2066 26.9156 64.0123 -0.706 -0.284 -0.648 90 84 70
11.4540 26.8968 64.0063 -0.581 -0.089 -0.809 78 72 58
11.2745 26.8542 63.6883 0.262 -0.031 -0.965 86 80 68
12.1683 26.8384 63.9656 0.014 -0.216 -0.976 85 79 67
12.5653 26.8274 64.0662 -0.058 -0.089 -0.994 83 77 65
13.3303 26.6735 63.4984 -0.351 0.479 -0.805 77 75 62
-62.2379 39.5586 105.2476 -0.660 -0.649 -0.379 119 126 113
-62.0746 39.5541 105.2879 -0.894 -0.193 -0.404 111 120 111
-61.9423 39.4931 104.9943 -0.882 -0.199 -0.427 76 86 80
-61.8063 39.4398 104.7469 -0.831 -0.230 -0.507 28 38 36
-61.1031 39.2251 103.8106 -0.407 0.327 -0.853 31 41 42
-60.6350 39.1746 103.7123 -0.094 0.640 -0.763 64 75 71
-58.9476 38.7120 101.7646 0.112 -0.826 -0.552 54 62 64
-58.2592 37.9150 97.5145 -0.708 -0.551 -0.442 48 55 61
-53.7515 36.5188 91.4005 -0.386 0.632 -0.672 78 89 85
-51.8926 35.9035 88.6542 0.015 0.120 -0.993 80 89 84
-49.5146 35.2516 85.9099 -0.647 -0.526 -0.553 77 91 66
-48.6699 35.0449 85.0761 -0.663 0.026 -0.748 52 67 48
-48.5486 35.0162 84.9619 -0.552 0.172 -0.816 44 59 40
-48.1993 34.9227 84.5718 -0.686 0.171 -0.707 58 76 52
-47.4803 34.6597 83.3673 -0.921 -0.062 -0.383 54 80 43
-47.3878 34.6177 83.1664 -0.925 -0.057 -0.377 49 75 36
-47.3180 34.5646 82.8926 -0.825 -0.397 -0.403 51 79 38
-47.2594 34.5062 82.5846 -0.757 -0.557 -0.343 58 88 46
-47.1030 34.4974 82.5978 -0.545 -0.617 -0.567 61 92 50
-45.5599 34.2247 81.6703 -0.917 0.168 -0.362 58 79 48
-45.4630 34.1875 81.4984 -0.804 0.195 -0.562 60 79 49
-45.0209 33.9862 80.5332 -0.623 -0.338 -0.705 99 117 88
-44.7805 33.9352 80.3402 -0.615 -0.134 -0.777 94 105 93
-44.6637 33.9083 80.2344 -0.540 -0.178 -0.822 64 71 65
-44.5370 33.8858 80.1576 -0.493 -0.098 -0.864 63 72 66
-44.4281 33.8556 80.0301 -0.700 -0.286 -0.654 85 95 87
-43.5392 33.6256 79.0819 -0.416 0.030 -0.909 46 49 42
-42.5650 33.5773 79.2002 -0.445 0.188 -0.876 108 109 101
-40.9833 33.1282 77.2862 -0.825 -0.128 -0.550 90 87 78
-40.8058 33.0583 76.9610 -0.957 -0.058 -0.285 100 97 88
-40.7224 33.0218 76.7872 -0.897 0.056 -0.440 119 116 107
-40.6295 32.9887 76.6369 -0.887 0.008 -0.461 122 119 110
-40.5400 32.9547 76.4793 -0.881 -0.009 -0.473 101 98 89
-40.3723 32.9476 76.5068 -0.375 -0.093 -0.922 94 94 84
-40.2278 32.9324 76.4788 0.036 0.166 -0.985 95 95 85
-40.0935 32.9137 76.4268 -0.060 0.035 -0.998 89 89 79
-40.1324 32.7733 75.6132 -0.345 -0.596 -0.725 84 84 74
-39.5937 32.6390 75.0679 -0.637 -0.093 -0.765 85 86 78
-39.2127 32.6390 75.2214 -0.099 0.289 -0.952 101 102 96
-39.1448 32.5995 75.0243 -0.396 0.435 -0.809 94 95 89
-38.3066 32.4401 74.4566 -0.574 -0.021 -0.818 73 73 71
-35.8595 32.1160 73.6016 -0.488 -0.066 -0.870 144 153 152
-35.7336 32.0949 73.5327 -0.488 -0.066 -0.870 135 144 143
-35.6185 32.0709 73.4427 -0.432 -0.081 -0.898 129 138 137
-35.5010 32.0476 73.3577 -0.430 -0.066 -0.900 80 88 90
-35.3844 32.0240 73.2709 -0.418 -0.061 -0.907 74 82 84
-35.2636 32.0017 73.1925 -0.520 -0.003 -0.854 66 74 76
-35.0792 31.9418 72.9266 -0.653 -0.354 -0.670 66 74 76
-34.8347 31.8981 72.7769 -0.520 -0.175 -0.836 60 68 70
-34.7388 31.8693 72.6524 -0.492 -0.098 -0.865 86 94 96
-34.4624 31.8341 72.5634 -0.422 -0.051 -0.905 87 95 97
-34.3209 31.8172 72.5247 -0.258 -0.088 -0.962 78 86 88
-34.1955 31.7962 72.4559 -0.430 -0.032 -0.902 72 80 82
-33.2751 31.6597 72.0514 -0.127 -0.086 -0.988 113 117 118
-32.9923 31.6254 71.9705 -0.489 0.159 -0.858 127 131 132
-32.8736 31.6027 71.8895 -0.689 0.015 -0.725 124 128 129
-32.4193 31.5072 71.5305 -0.447 0.196 -0.873 119 128 127
-32.0421 31.4445 71.3262 -0.636 0.191 -0.747 121 130 129
-31.9566 31.3645 70.9062 -0.139 -0.043 -0.989 121 130 129
-31.8384 31.3421 70.8264 -0.446 0.022 -0.895 121 130 128
-31.4699 31.3272 70.8904 -0.380 0.080 -0.921 108 119 113
-31.3168 31.3125 70.8688 -0.552 -0.084 -0.830 110 121 115
-31.1543 31.1061 69.7617 -0.569 -0.287 -0.770 111 122 116
-30.9095 31.0641 69.6215 -0.486 -0.272 -0.830 110 116 114
-29.1797 31.0049 69.9825 0.155 0.259 -0.953 111 120 119
-26.5175 30.3511 67.3420 -0.313 -0.006 -0.950 56 61 54
-26.5943 30.2946 66.9897 -0.567 -0.120 -0.815 36 41 34
-26.2782 30.3083 67.1950 -0.622 -0.118 -0.774 57 63 53
-26.2925 30.2208 66.6925 -0.591 -0.398 -0.702 55 57 43
-26.2504 30.1861 66.5122 -0.167 -0.401 -0.901 76 80 65
-23.9747 29.9486 66.0801 -0.439 -0.242 -0.865 75 80 73
-23.8485 29.9283 66.0155 -0.467 -0.237 -0.852 111 116 109
-23.7254 29.9074 65.9470 -0.459 -0.233 -0.857 157 162 155
-23.5979 29.8873 65.8842 -0.459 -0.233 -0.857 159 164 157
-11.2960 28.6961 64.0756 -0.740 0.419 -0.526 90 77 68
-11.0100 28.6553 63.9591 -0.767 0.322 -0.555 98 84 75
-9.9444 28.6245 64.2140 0.132 -0.388 -0.912 92 75 67
-6.8182 28.1977 63.0495 -0.204 0.241 -0.949 87 75 61
-0.4424 27.7227 62.9208 -0.459 0.725 -0.514 68 58 49
-0.3847 27.6938 62.7804 -0.446 0.728 -0.521 71 61 52
-0.3085 27.6665 62.6559 -0.507 0.700 -0.503 74 64 55
0.7528 27.5808 62.5969 -0.106 -0.403 -0.909 88 82 70
0.9183 27.5601 62.5457 -0.166 -0.428 -0.888 90 84 72
1.5428 27.5727 62.8689 -0.825 0.095 -0.557 91 85 73
1.6304 27.5460 62.7528 -0.856 0.238 -0.459 78 74 62
4.8340 27.4732 63.6304 -0.336 0.551 -0.764 92 86 74
6.6950 27.3982 63.9545 0.413 -0.566 -0.713 109 103 87
7.4632 27.2821 63.6045 0.030 0.276 -0.961 97 90 72
7.7530 27.2674 63.6381 0.076 0.206 -0.976 92 85 67
8.6861 27.1937 63.5956 0.072 -0.117 -0.991 104 96 83
9.0856 27.1853 63.7087 0.209 -0.236 -0.949 110 100 88
10.5620 27.1422 64.0591 0.146 -0.654 -0.742 98 92 78
11.0514 27.1381 64.2330 -0.760 -0.517 -0.392 112 109 94
11.1729 27.1121 64.1344 -0.518 -0.628 -0.581 100 94 78
11.3366 27.0887 64.0670 -0.488 -0.611 -0.623 96 90 76
12.4229 27.0190 64.1094 0.340 -0.315 -0.886 88 82 70
12.9712 26.9840 64.1311 -0.631 -0.093 -0.770 91 85 73
12.9737 26.9512 63.9459 -0.594 0.036 -0.804 91 87 75
13.2049 26.8984 63.7391 -0.547 0.032 -0.836 83 81 66
13.3804 26.8752 63.6785 -0.403 0.544 -0.736 77 75 60
13.5128 26.8498 63.5873 -0.403 0.544 -0.736 78 76 61
-62.0785 39.6994 105.1074 -0.872 -0.333 -0.360 98 104 95
-61.9372 39.6549 104.9126 -0.525 -0.414 -0.744 42 50 44
-61.7831 39.6338 104.8548 -0.538 -0.396 -0.744 28 38 36
-61.0893 39.4009 103.8176 -0.337 0.402 -0.851 42 52 53
-58.9815 38.8219 101.3908 0.173 -0.515 -0.839 55 63 65
-58.2361 38.0927 97.5809 -0.695 -0.461 -0.551 48 55 61
-56.1077 37.7025 96.2247 0.507 -0.622 -0.597 76 88 86
-56.0227 37.6205 95.7963 0.207 -0.814 -0.543 76 88 86
-55.8499 37.6259 95.8949 0.232 -0.780 -0.582 77 89 87
-55.6951 37.6131 95.8840 0.230 -0.774 -0.590 76 88 86
-55.3996 37.4147 94.8843 -0.781 0.563 -0.272 71 83 81
-55.3560 37.2993 94.2520 -0.788 0.562 -0.253 67 79 77
-52.7980 36.4944 90.7311 -0.859 -0.480 -0.178 74 83 80
-52.8107 36.3577 89.9566 -0.785 -0.325 -0.528 73 82 79
-52.6183 36.2514 89.4346 -0.730 -0.308 -0.610 70 79 76
-52.2050 36.0657 88.5526 -0.886 -0.225 -0.405 88 97 92
-52.0816 36.0346 88.4261 -0.648 -0.485 -0.587 77 88 82
-51.8779 36.0601 88.6497 -0.157 -0.113 -0.981 78 87 82
-49.9565 35.5427 86.4958 -0.821 0.206 -0.533 76 82 72
-49.6055 35.4445 86.0816 -0.255 -0.360 -0.897 74 88 63
-48.6442 35.2041 85.1078 -0.612 0.150 -0.777 44 59 40
-48.5143 35.1800 85.0237 -0.549 0.177 -0.817 52 66 49
-48.3975 35.1487 84.8934 -0.696 0.142 -0.704 51 65 48
-48.2789 35.1185 84.7702 -0.696 0.142 -0.704 64 81 63
-48.1670 35.0848 84.6247 -0.714 0.146 -0.685 90 108 85
-48.0511 35.0534 84.4936 -0.713 0.177 -0.678 105 124 97
-47.6588 34.8915 83.7373 -0.920 -0.014 -0.392 56 77 46
-47.5058 34.7896 83.2246 -0.952 -0.129 -0.277 57 81 45
-47.4273 34.7403 82.9782 -0.952 -0.129 -0.277 53 79 40
-47.2898 34.6330 82.4285 -0.740 -0.593 -0.315 59 87 46
-45.5304 34.3811 81.7046 -0.891 0.215 -0.400 59 80 53
-45.2852 34.3302 81.5147 -0.878 -0.103 -0.468 59 77 53
-44.7791 34.0773 80.2911 -0.620 -0.345 -0.705 71 81 71
-44.6530 34.0544 80.2123 -0.542 -0.217 -0.812 61 71 63
-44.5351 34.0280 80.1102 -0.545 -0.244 -0.802 90 101 95
-44.4236 33.9989 79.9902 -0.701 -0.274 -0.658 121 132 124
-42.9643 33.7790 79.3283 -0.327 0.058 -0.943 121 126 119
-42.5862 33.7108 79.0937 -0.628 -0.115 -0.770 104 105 97
-40.8779 33.1728 76.7396 -0.870 0.006 -0.493 112 109 100
-40.2761 33.0557 76.3179 0.063 -0.182 -0.981 95 95 85
-40.1729 33.0265 76.1943 -0.636 -0.554 -0.538 94 94 84
-40.0626 32.9998 76.0874 -0.310 -0.617 -0.723 94 94 84
-39.5746 32.7837 75.0642 -0.514 -0.240 -0.824 100 101 93
-39.1672 32.7928 75.2761 -0.135 0.288 -0.948 101 102 96
-39.0650 32.7641 75.1548 -0.220 0.329 -0.918 86 87 81
-38.6680 32.5859 74.3085 -0.552 -0.243 -0.798 81 81 79
-38.3438 32.5672 74.3313 -0.722 -0.065 -0.689 81 81 79
-36.3984 32.3870 74.0840 -0.407 -0.135 -0.904 144 153 152
-36.2666 32.3674 74.0261 -0.410 -0.123 -0.904 127 136 135
-35.7302 32.2354 73.4947 -0.361 0.009 -0.933 37 46 45
-35.6112 32.2125 73.4125 -0.422 -0.077 -0.903 25 34 33
-35.5036 32.1864 73.3081 -0.415 -0.062 -0.907 49 57 59
-35.3763 32.1658 73.2423 -0.421 -0.048 -0.906 48 56 58
-35.2581 32.1426 73.1588 -0.547 0.051 -0.836 46 54 56
-34.9598 32.0584 72.8023 -0.637 -0.342 -0.691 73 81 83
-34.8290 32.0388 72.7438 -0.520 -0.175 -0.836 88 96 98
-34.7238 32.0125 72.6370 -0.501 -0.186 -0.845 99 107 109
-34.4620 31.9734 72.5204 -0.363 -0.147 -0.920 115 123 125
-34.3066 31.9603 72.5077 -0.258 -0.088 -0.962 114 122 124
-34.1825 31.9389 72.4364 -0.388 -0.097 -0.917 114 122 124
-34.0882 31.9098 72.3101 -0.419 -0.202 -0.885 124 132 134
-33.2890 31.9542 72.8750 -0.057 -0.439 -0.897 124 132 134
-33.0620 31.9052 72.6886 0.079 -0.552 -0.830 129 133 134
-32.9662 31.8763 72.5638 -0.637 -0.402 -0.658 129 133 134
-32.8008 31.8648 72.5642 -0.531 -0.355 -0.770 129 133 134
-32.8936 31.6858 71.5203 -0.363 0.330 -0.871 130 134 135
-32.5886 31.6572 71.4795 -0.552 0.360 -0.752 126 134 133
-32.4703 31.6345 71.3987 -0.308 0.123 -0.943 125 134 133
-32.3328 31.6165 71.3515 -0.308 0.123 -0.943 125 134 133
-31.1566 31.2435 69.7165 -0.688 -0.164 -0.706 114 125 119
-30.8945 31.2053 69.6047 -0.621 -0.246 -0.744 118 124 122
-27.2706 30.5677 67.4458 -0.012 -0.535 -0.845 166 171 168
-26.6211 30.4274 66.9122 -0.509 -0.186 -0.841 50 55 48
-23.7196 30.0469 65.9158 -0.366 -0.273 -0.890 173 178 171
-12.2234 28.9565 64.3132 -0.375 0.091 -0.922 97 85 73
-12.0823 28.9360 64.2537 -0.375 0.091 -0.922 93 81 69
-12.2001 28.8507 63.7268 -0.185 -0.065 -0.981 86 73 64
-12.0115 28.8357 63.7169 -0.210 -0.085 -0.974 84 74 64
-10.7091 28.7983 64.0202 0.182 -0.500 -0.847 119 102 94
-8.9218 28.4542 62.7889 0.130 -0.475 -0.870 99 82 72
-6.8873 28.4090 63.3366 -0.179 0.669 -0.722 101 89 77
-3.1820 28.1246 63.1975 -0.683 0.289 -0.671 86 73 64
-2.2682 28.0319 63.0362 0.014 -0.182 -0.983 86 73 64
-1.8152 28.0356 63.2357 -0.223 0.152 -0.963 80 68 56
-1.5053 27.9933 63.1199 0.004 -0.376 -0.927 80 68 56
-0.9617 27.9698 63.2023 0.166 -0.214 -0.963 96 84 72
-0.8229 27.9472 63.1298 0.174 -0.012 -0.985 89 77 65
-0.5097 27.9385 63.2045 0.013 -0.065 -0.998 82 72 62
-0.4590 27.9088 63.0573 -0.454 -0.138 -0.880 84 74 64
-0.2025 27.8955 63.0832 -0.486 0.702 -0.521 83 73 64
-0.2618 27.8572 62.8445 -0.509 0.702 -0.498 84 74 65
1.4328 27.7199 62.7402 -0.436 -0.037 -0.899 98 92 80
1.7520 27.6772 62.6258 0.141 -0.184 -0.973 85 81 69
6.7835 27.4987 63.6058 0.076 0.215 -0.974 86 79 61
7.0177 27.4477 63.4109 0.141 -0.340 -0.930 98 91 72
8.1947 27.3915 63.5587 0.253 -0.050 -0.966 98 91 73
8.6374 27.3533 63.5188 0.165 -0.228 -0.960 104 94 82
8.9093 27.3374 63.5362 0.163 -0.378 -0.911 101 91 79
10.6568 27.2797 63.9009 -0.043 -0.488 -0.872 106 103 88
11.1050 27.2737 64.0437 -0.468 -0.608 -0.642 88 85 68
11.2593 27.2497 63.9696 -0.488 -0.611 -0.623 90 87 72
11.4714 27.1959 63.7508 0.138 -0.479 -0.867 108 102 90
11.9250 27.1897 63.8943 0.205 -0.499 -0.842 98 92 80
12.3542 27.1817 64.0188 0.338 -0.313 -0.888 88 82 70
13.3490 27.0403 63.6154 -0.120 0.131 -0.984 85 83 68
13.5338 27.0177 63.5614 -0.129 0.154 -0.980 76 74 59
13.6561 26.9917 63.4631 0.016 0.317 -0.948 61 60 41
-62.1070 39.7983 104.6616 -0.587 -0.385 -0.712 81 87 77
-61.9565 39.7718 104.5719 -0.652 -0.336 -0.680 26 34 28
-61.8093 39.7392 104.4469 -0.652 -0.336 -0.680 42 51 49
-61.6517 39.7254 104.4307 -0.693 -0.404 -0.598 33 45 46
-61.4053 39.8658 105.3091 -0.797 -0.001 -0.604 29 39 41
-61.0621 39.5989 103.9530 -0.204 0.184 -0.962 58 68 69
-60.7453 39.5723 103.9269 -0.174 0.558 -0.811 64 74 73
-60.6297 39.4907 103.5164 -0.747 0.138 -0.651 62 72 71
-60.4833 39.4589 103.3957 -0.722 0.331 -0.608 61 71 70
-59.0268 38.9156 100.9286 -0.385 -0.374 -0.844 51 59 61
-58.7385 38.8557 100.7060 0.139 -0.631 -0.764 43 51 54
-58.2228 38.2590 97.5781 -0.831 -0.217 -0.511 46 53 59
-57.7721 38.2086 97.4711 0.376 -0.502 -0.778 76 86 87
-55.9552 37.8393 96.1127 0.513 -0.615 -0.599 77 89 87
-55.8073 37.8196 96.0603 0.481 -0.454 -0.750 79 91 89
-53.0122 36.6066 90.3753 -0.982 -0.187 -0.027 67 76 73
-52.8433 36.6077 90.4469 -0.813 -0.552 -0.186 67 76 73
-52.5448 36.3286 89.0058 -0.919 -0.340 -0.198 70 79 76
-51.5773 35.6125 85.3865 -0.373 -0.745 -0.553 82 87 83
-49.7163 35.6260 86.1795 -0.594 -0.258 -0.762 75 86 68
-49.6214 35.5799 85.9591 -0.226 -0.328 -0.917 67 81 58
-49.4903 35.5560 85.8766 -0.240 -0.320 -0.917 61 75 52
-49.3758 35.5222 85.7322 -0.609 -0.131 -0.782 53 67 44
-48.4919 35.3373 85.0428 -0.549 0.177 -0.817 59 73 56
-48.3741 35.3064 84.9157 -0.666 0.079 -0.742 76 90 73
-48.2586 35.2744 84.7816 -0.696 0.142 -0.704 95 112 93
-47.7746 35.1595 84.3281 -0.779 -0.003 -0.627 63 84 53
-47.7555 35.0761 83.8702 -0.865 -0.163 -0.474 60 80 52
-47.6606 35.0341 83.6728 -0.923 -0.074 -0.378 63 82 54
-47.4898 34.9411 83.2199 -0.971 0.127 -0.203 61 83 49
-47.4319 34.8807 82.9056 -0.971 0.127 -0.203 61 85 48
-45.9044 34.4299 80.9818 0.171 -0.098 -0.980 65 92 57
-45.5427 34.5180 81.6126 -0.718 -0.318 -0.618 65 86 60
-45.4065 34.4989 81.5587 -0.784 -0.299 -0.543 73 90 72
-44.7696 34.2229 80.2653 -0.647 -0.348 -0.679 88 100 90
-44.6518 34.1963 80.1626 -0.612 -0.393 -0.686 105 115 107
-44.4229 34.1404 79.9394 -0.658 -0.367 -0.658 98 109 103
-44.3148 34.1099 79.8107 -0.737 -0.320 -0.595 79 90 82
-43.2645 33.8718 78.8888 -0.506 -0.529 -0.681 119 126 118
-42.9665 33.9198 79.2711 -0.454 0.100 -0.885 106 111 104
-42.5899 33.8510 79.0331 -0.555 0.054 -0.830 99 100 92
-41.9838 33.6573 78.1868 -0.801 -0.049 -0.597 109 110 104
-40.9975 33.4038 77.1542 -0.016 0.260 -0.965 105 102 93
-40.8907 33.3079 76.6606 -0.790 -0.252 -0.559 106 103 94
-40.5211 33.2406 76.4281 -0.835 0.440 -0.331 92 89 80
-40.2660 33.1989 76.2939 -0.335 -0.141 -0.932 95 95 85
-40.0065 33.1587 76.1699 -0.617 -0.289 -0.732 96 96 86
-39.9657 33.1080 75.9028 -0.754 -0.344 -0.560 88 88 78
-39.4914 32.9499 75.2046 -0.629 0.036 -0.776 97 98 92
-39.3515 32.9337 75.1678 -0.469 0.061 -0.881 97 98 92
-39.2833 32.8936 74.9710 -0.615 0.080 -0.785 97 98 92
-38.5864 32.6293 73.7658 -0.190 -0.227 -0.955 81 81 79
-38.1520 32.7056 74.3590 -0.376 -0.548 -0.747 72 72 70
-36.5402 32.5433 74.0763 -0.198 -0.429 -0.881 21 25 28
-36.3927 32.5285 74.0504 -0.198 -0.429 -0.881 16 25 24
-36.2562 32.5103 74.0019 -0.410 -0.123 -0.904 18 27 26
-35.7199 32.3779 73.4704 -0.393 -0.038 -0.919 50 59 58
-35.5979 32.3557 73.3940 -0.422 -0.077 -0.903 54 63 62
-35.4892 32.3299 73.2918 -0.415 -0.062 -0.907 53 61 63
-35.3610 32.3095 73.2275 -0.421 -0.048 -0.906 63 71 73
-35.2285 32.2903 73.1716 -0.523 0.030 -0.852 78 86 88
-34.6659 32.1672 72.7024 -0.299 0.133 -0.945 122 130 132
-33.9459 32.0325 72.2293 -0.103 -0.091 -0.990 124 132 134
-33.8112 32.0139 72.1777 0.012 -0.180 -0.984 124 132 134
-33.5493 31.7652 70.8920 -0.786 0.448 -0.426 130 134 135
-33.4475 31.7390 70.7853 -0.107 -0.391 -0.914 130 134 135
-31.9873 31.6857 71.0515 -0.715 0.488 -0.501 122 131 130
-30.8498 31.3532 69.6363 -0.594 -0.164 -0.788 123 129 127
-30.5029 31.3336 69.6610 -0.254 -0.162 -0.954 123 129 127
-30.4005 31.3080 69.5579 -0.310 -0.788 -0.533 128 134 132
-28.2411 31.6826 72.4796 -0.567 0.813 -0.134 128 134 132
-27.4070 31.6131 72.4141 -0.779 0.296 -0.553 128 137 136
-27.1665 31.5652 72.2399 -0.494 -0.577 -0.650 134 143 142
-27.6067 30.7295 67.4105 0.018 -0.431 -0.902 166 170 171
-27.2211 30.7149 67.4779 -0.219 -0.386 -0.896 169 174 171
-27.0706 30.6994 67.4493 -0.248 -0.366 -0.897 180 185 179
-24.9018 30.4448 66.8670 -0.262 -0.326 -0.908 75 86 66
-24.1431 30.2388 66.0109 -0.217 -0.091 -0.972 45 51 40
-23.9925 30.2226 65.9789 -0.217 -0.091 -0.972 82 87 80
-23.8417 30.2064 65.9468 -0.217 -0.091 -0.972 189 194 187
-23.6908 30.1902 65.9147 -0.217 -0.091 -0.972 180 185 178
-17.0360 29.5154 64.7201 -0.519 -0.175 -0.837 88 81 62
-12.1167 29.0052 63.7736 -0.399 -0.015 -0.917 79 66 57
-11.4839 28.9678 63.8093 -0.512 -0.372 -0.774 75 62 53
-10.7619 28.9393 63.9292 0.182 -0.484 -0.856 103 86 78
-9.3538 28.9112 64.3157 0.245 -0.469 -0.849 92 75 67
-8.9770 28.5951 62.6985 0.139 -0.473 -0.870 94 77 67
-7.2318 28.5244 62.9781 -0.446 0.401 -0.800 92 80 68
-3.3688 28.2945 63.1867 -0.849 0.393 -0.354 78 66 52
-2.3980 28.2075 63.0762 0.255 -0.212 -0.943 86 73 64
-1.9011 28.1473 62.9326 0.005 -0.358 -0.934 77 65 53
-2.3818 28.0729 62.3320 -0.694 -0.293 -0.658 78 66 54
-2.0889 28.0637 62.3939 -0.376 -0.468 -0.800 87 75 63
-0.0318 27.9285 62.4337 -0.627 0.297 -0.720 86 78 67
0.7655 27.8905 62.5298 0.059 -0.371 -0.927 92 86 74
0.8789 27.8659 62.4360 -0.161 -0.455 -0.876 96 90 78
4.3937 27.8277 63.5797 0.345 -0.586 -0.734 89 83 71
5.1356 27.7126 63.2241 0.019 -0.260 -0.966 96 90 76
6.6839 27.6530 63.4892 0.069 -0.550 -0.832 83 76 58
6.9393 27.6369 63.4981 0.080 -0.584 -0.808 91 84 66
6.9636 27.6050 63.3296 0.181 -0.572 -0.800 95 88 70
7.3252 27.5960 63.4191 -0.107 -0.522 -0.846 101 94 75
8.6474 27.4831 63.2998 0.017 -0.393 -0.919 96 86 74
9.5935 27.4775 63.6335 -0.057 -0.715 -0.697 104 94 82
9.9950 27.4697 63.7450 0.242 -0.607 -0.757 104 96 83
10.3901 27.4278 63.6636 -0.284 -0.614 -0.737 126 123 108
10.5667 27.4054 63.6072 -0.222 -0.542 -0.810 103 100 83
11.1822 27.4104 63.8724 -0.488 -0.611 -0.623 86 83 68
11.3885 27.3897 63.8364 -0.360 -0.732 -0.579 88 85 70
12.3948 27.3507 64.0074 0.345 -0.288 -0.893 68 62 50
12.9607 27.2508 63.6689 -0.352 -0.733 -0.582 107 104 89
13.3638 27.2079 63.5852 -0.048 -0.294 -0.954 75 73 58
13.6161 27.1893 63.5790 -0.084 -0.231 -0.969 62 60 45
13.7657 27.1648 63.4998 -0.347 0.286 -0.893 68 67 48
-61.3799 40.0644 105.4330 -0.383 -0.571 -0.726 34 44 46
-61.1804 39.8326 104.2274 -0.220 0.167 -0.961 66 76 77
-60.7512 39.7165 103.7480 -0.721 0.343 -0.603 64 74 73
-60.6488 39.6137 103.2190 -0.871 0.050 -0.488 63 73 72
-60.1417 39.3718 102.0741 -0.987 -0.142 -0.075 61 71 70
-58.3457 38.8708 99.9841 -0.487 0.812 -0.320 45 52 58
-57.0981 38.0074 95.6852 -0.883 0.038 -0.467 68 80 78
-56.0040 37.9416 95.7347 0.517 -0.615 -0.595 75 87 85
-53.1722 36.8915 91.0024 -0.148 -0.815 -0.561 70 81 77
-52.8253 36.7694 90.4589 -0.887 -0.395 -0.239 67 76 73
-51.6983 35.7834 85.4367 -0.471 -0.771 -0.429 88 93 89
-49.6490 35.7077 85.7925 -0.362 -0.062 -0.930 60 74 51
-49.5102 35.6887 85.7397 -0.362 -0.062 -0.930 54 68 45
-49.3698 35.6705 85.6925 -0.469 -0.455 -0.757 43 57 34
-48.3498 35.4649 84.9414 -0.679 0.175 -0.713 106 121 102
-48.2291 35.4356 84.8250 -0.697 0.167 -0.698 92 107 87
-48.1068 35.4073 84.7150 -0.697 0.305 -0.649 59 77 53
-47.7436 35.2262 83.8518 -0.792 -0.225 -0.567 57 77 49
-45.6056 34.7148 81.8336 -0.742 -0.454 -0.494 64 90 58
-45.0847 34.5439 81.0862 -0.643 -0.411 -0.646 76 92 80
-45.0072 34.4168 80.4129 -0.549 -0.098 -0.830 60 76 65
-44.6593 34.3342 80.0882 -0.605 -0.444 -0.661 125 135 127
-43.2487 34.0192 78.8801 -0.525 -0.414 -0.743 115 120 113
-42.5851 33.9946 78.9948 -0.569 0.067 -0.820 92 93 85
-40.9010 33.4438 76.5875 -0.850 0.026 -0.526 93 90 81
-40.8001 33.4132 76.4569 -0.854 0.052 -0.518 93 90 81
-40.7148 33.3772 76.2901 -0.863 0.062 -0.502 97 94 85
-40.6581 33.3311 76.0567 -0.904 0.028 -0.427 99 96 87
-40.3396 33.3786 76.4397 -0.115 0.284 -0.952 96 96 86
-40.1925 33.3646 76.4178 -0.115 0.284 -0.952 95 95 85
-40.0360 33.3538 76.4172 0.203 -0.405 -0.892 95 95 85
-40.0739 33.2748 75.9663 -0.799 -0.405 -0.444 95 95 85
-40.0337 33.2236 75.6990 -0.659 -0.117 -0.743 88 88 78
-39.8304 33.1647 75.4501 -0.102 -0.348 -0.932 85 85 75
-39.4995 33.0859 75.1397 -0.634 -0.149 -0.759 90 91 85
-39.3663 33.0675 75.0882 -0.637 -0.170 -0.752 91 92 86
-39.0984 33.0310 74.9876 -0.534 0.180 -0.826 83 84 78
-38.9406 33.0206 74.9897 -0.078 -0.019 -0.997 81 82 76
-38.6187 32.7563 73.6513 -0.163 -0.184 -0.969 81 81 79
-36.5352 32.6845 74.0412 -0.256 -0.378 -0.890 58 63 66
-36.3766 32.6730 74.0376 -0.353 -0.119 -0.928 53 62 61
-36.2458 32.6532 73.9777 -0.410 -0.123 -0.904 54 63 62
-34.7631 32.3353 72.7807 -0.517 -0.122 -0.847 130 138 140
-34.2544 32.3077 72.8207 -0.439 0.183 -0.879 127 135 137
-33.8991 32.1841 72.2718 -0.152 -0.042 -0.987 124 132 134
-31.8152 31.7643 70.7394 -0.776 0.249 -0.580 122 131 129
-31.4400 31.8030 71.0949 -0.692 -0.052 -0.720 124 135 130
-31.5862 31.7176 70.5679 -0.644 -0.107 -0.757 124 135 129
-30.8682 31.4870 69.5650 -0.652 -0.148 -0.744 130 136 134
-27.6177 30.8648 67.3547 -0.322 -0.267 -0.908 166 170 171
-27.4620 30.8506 67.3348 -0.333 -0.198 -0.922 166 170 169
-24.3702 30.4642 66.3675 -0.363 -0.054 -0.930 55 69 46
-23.8230 30.3481 65.9326 -0.200 -0.170 -0.965 204 209 202
-17.6110 29.6563 64.4560 -0.651 -0.199 -0.733 88 75 59
-17.2239 29.6708 64.6822 -0.631 -0.263 -0.730 86 76 58
-16.8966 29.6383 64.6263 -0.423 -0.158 -0.892 82 79 56
-10.7969 29.0820 63.8559 0.187 -0.416 -0.890 85 68 60
-10.5418 29.0742 63.9087 0.200 -0.457 -0.867 94 77 69
-6.7472 28.8638 64.1789 -0.882 0.464 0.077 97 80 70
-2.3573 28.3635 63.0727 0.298 -0.181 -0.937 86 73 64
-1.8758 28.3367 63.1060 0.153 -0.031 -0.988 80 68 56
1.8929 28.0327 62.8493 0.336 0.110 -0.935 90 86 74
2.4527 28.0085 62.9273 -0.304 -0.352 -0.885 81 77 65
2.6290 27.9882 62.8818 -0.339 -0.437 -0.833 80 77 62
2.7929 27.9670 62.8263 -0.339 -0.437 -0.833 71 68 53
4.9471 27.8580 63.0371 -0.096 -0.270 -0.958 91 85 71
5.1416 27.8384 63.0024 0.109 -0.341 -0.934 100 93 77
6.7054 27.8154 63.4659 -0.613 -0.359 -0.703 74 67 51
6.8581 27.7923 63.3959 0.079 -0.590 -0.803 95 88 70
6.8770 27.7598 63.2235 -0.564 -0.382 -0.732 87 80 62
6.9657 27.7323 63.1050 0.077 -0.712 -0.698 79 72 54
7.5697 27.7405 63.3785 0.140 -0.547 -0.825 84 77 59
7.7463 27.7189 63.3259 0.260 -0.495 -0.829 88 81 63
8.5632 27.6397 63.1968 -0.062 -0.614 -0.787 88 78 66
8.9112 27.6294 63.2711 -0.209 -0.393 -0.896 97 87 75
9.1404 27.6110 63.2561 -0.318 -0.530 -0.786 104 94 82
10.2907 27.5856 63.5500 -0.260 -0.487 -0.834 100 97 82
10.3184 27.5537 63.3843 0.118 -0.394 -0.912 113 110 93
11.1052 27.5707 63.7754 -0.488 -0.611 -0.623 74 71 56
11.3225 27.5171 63.5612 0.134 -0.479 -0.868 114 110 98
12.3276 27.5130 63.9179 0.350 -0.268 -0.898 57 51 39
12.9204 27.4148 63.5993 -0.140 -0.803 -0.580 108 105 90
13.7645 27.3988 63.8291 0.257 -0.432 -0.864 89 87 74
13.6884 27.3606 63.5894 -0.165 -0.365 -0.916 74 72 58
-60.8296 40.0155 104.3924 -0.761 0.465 -0.452 63 73 74
-60.3525 39.4539 101.4945 -0.098 -0.259 -0.961 61 71 70
-57.0414 38.2193 95.9582 -0.841 0.258 -0.474 75 87 85
-56.2079 38.4015 97.2637 -0.915 -0.173 -0.364 85 97 95
-56.0563 38.3840 97.2238 -0.958 -0.118 -0.260 84 96 94
-53.4796 37.0604 90.9297 -0.272 -0.935 -0.227 71 82 78
-53.1911 36.8910 90.1086 -0.989 -0.146 0.002 69 78 75
-53.1977 36.7544 89.3583 -0.982 -0.186 0.010 67 76 73
-53.1324 36.6763 88.9548 -0.964 -0.267 0.013 67 76 73
-50.2392 36.1230 86.9942 -0.753 -0.361 -0.550 73 80 69
-49.9683 35.9706 86.2601 -0.655 -0.391 -0.646 64 73 62
-49.8893 35.9135 85.9769 -0.822 0.016 -0.570 65 76 60
-49.7160 35.9161 86.0548 -0.558 -0.315 -0.768 62 75 55
-49.6103 35.8763 85.8760 -0.267 -0.061 -0.962 54 68 43
-49.4843 35.8492 85.7743 -0.325 -0.070 -0.943 50 64 40
-49.3534 35.8252 85.6914 -0.601 -0.287 -0.746 53 67 44
-48.3301 35.6209 84.9504 -0.497 0.317 -0.808 78 95 72
-48.1975 35.5983 84.8757 -0.492 0.380 -0.783 59 76 53
-45.5480 34.8005 81.4871 -0.763 -0.064 -0.643 104 123 103
-44.9486 34.6673 80.9791 -0.580 -0.202 -0.789 60 73 66
-45.0005 34.5612 80.3789 -0.538 -0.107 -0.836 92 104 96
-44.6667 34.4720 80.0143 -0.622 -0.312 -0.718 103 109 101
-44.5514 34.4444 79.9054 -0.606 -0.385 -0.696 92 100 94
-44.4556 34.4080 79.7418 -0.645 -0.400 -0.651 81 89 83
-44.3371 34.3820 79.6432 -0.718 -0.310 -0.623 78 84 77
-42.9929 34.1918 79.0983 -0.174 -0.127 -0.976 104 109 102
-41.9196 33.8925 77.8561 -0.802 0.115 -0.587 91 92 86
-41.8362 33.8538 77.6752 -0.737 -0.117 -0.665 84 85 79
-41.1348 33.7018 77.1020 -0.190 0.518 -0.834 102 99 90
-40.6940 33.5917 76.6617 -0.817 -0.538 -0.210 89 86 78
-40.4305 33.6203 76.9159 -0.377 -0.592 -0.712 97 94 86
-40.3852 33.5691 76.6524 0.069 -0.122 -0.990 104 102 94
-39.9939 33.6433 77.2029 -0.050 -0.220 -0.974 99 99 90
-39.9030 33.3432 75.5937 -0.675 -0.472 -0.567 85 85 76
-39.8242 33.3057 75.4174 -0.100 -0.344 -0.934 85 85 76
-38.6321 32.9502 73.9118 -0.195 -0.204 -0.959 81 81 80
-38.3668 32.9749 74.1448 -0.312 0.021 -0.950 81 81 80
-36.5467 32.8207 73.9728 -0.208 -0.367 -0.907 47 52 55
-36.3659 32.8160 74.0141 -0.405 -0.123 -0.906 77 86 85
-36.2334 32.7968 73.9575 -0.405 -0.123 -0.906 89 98 97
-36.0868 32.7817 73.9290 -0.611 0.151 -0.777 105 114 113
-35.4712 32.6713 73.5521 -0.588 -0.050 -0.807 117 126 125
-34.8238 32.4577 72.6221 -0.540 -0.161 -0.826 128 136 138
-34.7319 32.4275 72.4905 0.007 -0.450 -0.893 128 136 138
-34.6450 32.3960 72.3499 -0.023 -0.284 -0.959 131 139 141
-32.0008 31.9092 70.6618 -0.455 -0.089 -0.886 122 131 130
-31.9379 31.8734 70.4888 -0.767 -0.084 -0.636 122 131 130
-31.5881 31.8560 70.5227 -0.348 -0.321 -0.881 128 139 133
-31.3700 31.8067 70.3336 -0.631 -0.308 -0.712 128 139 133
-31.2720 31.6796 69.6738 -0.691 -0.019 -0.723 130 141 135
-27.3437 30.9665 67.2207 -0.312 -0.017 -0.950 176 180 177
-24.4761 30.6269 66.4205 -0.564 -0.195 -0.803 55 67 47
-23.5846 30.4436 65.7464 -0.435 -0.273 -0.858 173 178 171
