ply
format ascii 1.0
element vertex 872
property float x
property float y
property float z
property float nx
property float ny
property float nz
property uchar diffuse_red
property uchar diffuse_green
property uchar diffuse_blue
end_header
8.9459 23.6794 64.8636 -0.314 -0.609 -0.729 83 79 68
9.1358 23.6505 64.8294 -0.319 -0.603 -0.731 72 68 57
9.3899 23.6176 64.8513 -0.516 -0.315 -0.797 72 68 57
10.4456 23.4828 64.9671 0.095 -0.591 -0.801 67 60 50
10.7116 23.4488 64.9963 0.112 -0.641 -0.759 64 57 47
11.4194 23.3866 65.4047 0.271 -0.691 -0.670 65 58 48
12.7646 23.2487 65.9496 0.156 -0.761 -0.630 65 58 48
13.8078 23.1466 66.4292 -0.026 -0.702 -0.712 68 61 51
14.6963 22.9508 65.5581 -0.760 0.330 -0.560 83 81 69
-61.9456 36.8478 103.4222 -0.417 0.200 -0.887 165 191 188
-61.6325 36.7999 103.3617 -0.705 -0.021 -0.709 175 201 198
-61.3314 36.7276 103.0007 -0.713 -0.043 -0.700 74 95 96
-61.1801 36.6938 102.8487 -0.713 -0.043 -0.700 41 62 60
-61.0292 36.6598 102.6939 -0.703 -0.042 -0.710 52 73 71
-59.0512 36.2675 101.2771 -0.836 0.014 -0.549 106 131 127
-57.4382 35.5713 95.7848 -0.749 0.008 -0.663 50 60 62
-56.6018 35.3799 94.8914 -0.523 -0.399 -0.753 40 49 54
-52.1136 34.1985 88.3198 -0.354 0.299 -0.886 61 73 71
-51.9770 34.1724 88.2333 -0.195 0.375 -0.906 62 74 72
-51.8371 34.1477 88.1679 -0.177 0.386 -0.905 66 78 76
-51.6949 34.1239 88.1175 -0.155 0.388 -0.909 76 88 86
-46.9839 33.0886 83.5797 -0.779 -0.338 -0.528 52 59 51
-46.4909 32.9220 82.4334 -0.287 0.645 -0.708 41 47 44
-46.5482 32.8522 81.5394 -0.786 -0.523 -0.331 48 54 48
-46.4728 32.8148 81.2262 -0.951 -0.226 -0.210 54 62 52
-46.4016 32.7767 80.8989 -0.946 -0.240 -0.219 58 66 52
-44.8991 32.4253 79.2076 -0.447 -0.363 -0.818 69 94 52
-44.7597 32.4035 79.1752 -0.455 -0.353 -0.817 68 93 54
-44.6033 32.3850 79.2071 -0.500 -0.399 -0.768 62 86 49
-43.3465 32.0953 77.8407 -0.557 0.058 -0.828 54 67 49
-43.2253 32.0706 77.7459 -0.475 0.102 -0.874 48 61 44
-41.5738 31.8474 77.7667 -0.414 0.092 -0.906 81 85 85
-41.4509 31.8228 77.6754 -0.414 0.112 -0.904 74 78 77
-40.8576 31.5353 75.2938 -0.322 -0.051 -0.945 84 86 85
-40.7043 31.5157 75.3080 -0.430 0.109 -0.896 76 78 77
-40.1441 31.3532 74.3148 -0.302 -0.167 -0.939 90 95 89
-38.0706 30.9586 73.0210 -0.631 -0.074 -0.772 159 173 181
-37.8245 30.9126 72.8778 -0.645 -0.010 -0.764 160 174 182
-35.3664 30.6158 73.3159 -0.227 -0.395 -0.890 168 189 199
-32.2656 30.0336 71.4725 -0.578 -0.279 -0.767 146 164 169
-32.1606 30.0094 71.3591 -0.571 -0.294 -0.766 139 157 161
-32.0472 29.9858 71.2643 -0.590 -0.297 -0.751 123 139 139
-27.2281 29.0637 68.2010 0.111 -0.202 -0.973 136 142 139
-27.1306 29.0404 68.0860 -0.486 -0.277 -0.829 142 147 145
-27.1050 29.0158 67.8432 -0.667 0.088 -0.740 148 154 152
-25.1207 28.7252 67.6090 -0.201 0.134 -0.970 80 82 65
-24.9552 28.7028 67.6100 -0.278 0.007 -0.961 89 93 66
-22.8807 28.2921 66.1328 -0.572 -0.178 -0.801 168 171 162
-20.8441 27.9944 65.8990 -0.186 -0.157 -0.970 92 94 83
-20.6702 27.9712 65.9042 -0.313 -0.001 -0.950 99 99 89
-19.8577 27.8333 65.5907 -0.328 -0.099 -0.939 67 67 55
-18.1341 27.5975 65.5789 -0.241 -0.108 -0.964 73 61 53
-17.9870 27.5741 65.5401 -0.440 -0.122 -0.890 74 64 55
-7.6435 26.0506 64.2180 -0.519 -0.452 -0.726 80 65 58
-6.8678 26.0014 64.8688 0.470 -0.323 -0.821 80 65 60
3.4951 24.5417 64.3128 0.203 -0.703 -0.682 86 78 65
4.3199 24.4612 64.6792 -0.019 -0.733 -0.680 84 78 64
4.6307 24.4086 64.5609 -0.376 -0.757 -0.533 83 77 63
4.7777 24.3827 64.4938 -0.376 -0.757 -0.533 80 74 62
10.6270 23.6196 64.8813 0.102 -0.643 -0.759 71 64 54
11.1645 23.5692 65.1434 0.287 -0.676 -0.679 78 72 60
11.7102 23.5006 65.2094 0.093 -0.680 -0.727 73 66 56
12.3756 23.4417 65.5757 0.151 -0.696 -0.702 64 57 47
12.6921 23.4045 65.6432 0.205 -0.741 -0.639 79 72 62
13.2554 23.3516 65.9187 -0.217 -0.586 -0.781 80 71 62
13.5208 23.3174 65.9407 0.210 -0.737 -0.642 76 69 59
13.9152 23.2750 66.0707 0.184 -0.752 -0.633 51 44 34
14.6443 23.1238 65.4727 -0.832 0.205 -0.516 85 82 72
16.0262 22.9647 65.8083 0.457 -0.029 -0.889 84 80 69
-61.9174 37.0466 103.7307 -0.769 -0.031 -0.638 163 192 188
-61.6182 36.9668 103.2860 -0.641 0.153 -0.752 184 212 208
-61.4658 36.9341 103.1494 -0.641 0.153 -0.752 65 90 87
-61.3142 36.9002 102.9987 -0.635 0.100 -0.766 37 59 57
-61.1625 36.8671 102.8561 -0.641 0.139 -0.755 45 65 64
-61.0159 36.8249 102.6043 -0.687 0.006 -0.727 41 59 59
-60.7695 36.6634 101.1539 -0.961 -0.102 -0.255 42 61 62
-59.3531 36.4780 101.2268 -0.332 0.049 -0.942 127 152 145
-59.1790 36.4767 101.4787 -0.850 -0.011 -0.527 100 125 119
-55.5563 35.1150 91.6251 -0.422 -0.472 -0.774 63 73 74
-52.2380 34.3775 88.3650 -0.270 0.290 -0.918 68 80 80
-52.0957 34.3539 88.3157 -0.270 0.290 -0.918 68 80 78
-51.9544 34.3297 88.2589 -0.126 0.264 -0.956 68 80 78
-51.8111 34.3064 88.2153 -0.155 0.388 -0.909 72 84 82
-50.0006 33.6898 84.0127 -0.631 -0.459 -0.626 73 79 77
-49.8634 33.6666 83.9611 -0.639 -0.444 -0.628 71 80 77
-47.7770 33.3872 83.9959 -0.603 -0.291 -0.743 63 70 62
-47.0086 33.2285 83.3779 -0.768 -0.460 -0.446 45 52 44
-46.5586 32.9935 81.4092 -0.780 -0.535 -0.326 63 71 64
-45.0186 32.5931 79.2386 -0.480 -0.302 -0.823 70 93 48
-44.8809 32.5710 79.1997 -0.439 -0.362 -0.822 71 94 47
-44.2234 32.5531 80.0043 -0.694 -0.470 -0.545 61 85 52
-43.8752 32.4724 79.6248 -0.389 -0.117 -0.914 69 90 58
-43.7449 32.4483 79.5522 -0.379 -0.106 -0.919 80 104 71
-41.9189 31.9375 76.5710 -0.519 -0.220 -0.826 80 81 77
-41.7896 31.9144 76.5075 -0.544 -0.209 -0.813 84 86 82
-40.9671 31.7005 75.3481 -0.232 -0.043 -0.972 90 90 88
-40.1179 31.4954 74.3285 -0.417 -0.097 -0.904 94 99 93
-38.5318 31.4545 76.2950 0.017 0.153 -0.988 96 98 95
-38.3663 31.4349 76.3279 -0.143 0.165 -0.976 92 94 93
-38.5695 31.2249 73.6410 -0.822 0.123 -0.557 50 53 54
-38.2783 31.1473 73.2087 -0.827 0.138 -0.546 104 114 119
-38.0574 31.0986 72.9968 -0.631 -0.074 -0.772 165 177 182
-37.9314 31.0759 72.9329 -0.601 -0.091 -0.794 166 177 182
-37.8219 31.0516 72.8253 -0.609 -0.046 -0.792 163 174 179
-36.7886 30.9408 73.1553 -0.226 0.113 -0.968 159 176 184
-32.9121 30.2893 71.7227 -0.436 -0.126 -0.891 131 144 145
-32.8006 30.2653 71.6226 -0.416 -0.195 -0.888 120 133 133
-32.1667 30.1503 71.2926 -0.594 -0.272 -0.757 89 102 102
-32.0023 29.9827 69.6483 -0.621 -0.134 -0.773 93 104 102
-20.9477 28.1367 65.7000 -0.080 -0.153 -0.985 91 91 81
-20.7322 28.1135 65.7677 -0.554 -0.031 -0.832 99 99 89
-19.9811 27.9984 65.6164 -0.328 -0.099 -0.939 61 61 51
-19.8414 27.9754 65.5700 -0.328 -0.099 -0.939 70 68 56
-19.6836 27.9522 65.5498 -0.324 0.241 -0.915 62 59 48
-18.9776 27.8586 65.5724 -0.262 -0.647 -0.716 60 57 46
-11.7426 26.8222 64.9303 -0.650 0.578 -0.494 92 73 66
-11.6634 26.7999 64.8000 -0.650 0.578 -0.494 92 72 65
-11.3472 26.7113 64.2822 0.054 0.476 -0.878 82 68 59
-11.1628 26.6861 64.2799 0.054 0.476 -0.878 89 75 66
-8.4599 26.3257 64.3424 -0.383 -0.546 -0.746 81 67 54
-8.2591 26.2993 64.3521 -0.344 -0.632 -0.695 77 63 52
-8.1183 26.2751 64.2935 -0.348 -0.637 -0.687 76 62 51
-7.9714 26.2506 64.2418 -0.348 -0.637 -0.687 81 67 56
-7.7339 26.2229 64.2918 -0.337 -0.755 -0.563 74 60 51
-7.0785 26.1606 64.5912 0.384 -0.375 -0.844 82 65 60
2.5094 24.7876 63.7462 -0.467 0.079 -0.881 77 67 57
3.1046 24.7388 64.1064 0.310 -0.464 -0.830 78 70 57
3.5657 24.6968 64.3376 0.315 -0.472 -0.824 87 79 66
7.3978 24.2023 64.6132 0.093 -0.817 -0.569 92 84 73
7.5471 24.1583 64.3444 0.034 -0.794 -0.607 86 79 71
10.2717 23.8237 64.7328 0.155 -0.577 -0.802 78 74 65
11.4179 23.7025 65.1178 0.304 -0.532 -0.790 99 89 79
11.7754 23.6634 65.2228 -0.152 -0.842 -0.518 95 85 75
12.2138 23.6193 65.3956 0.164 -0.671 -0.723 85 77 66
12.3576 23.5929 65.3169 0.251 -0.481 -0.840 81 72 63
13.0738 23.5317 65.7224 -0.185 -0.568 -0.802 82 74 63
13.3183 23.4991 65.7273 0.132 -0.679 -0.722 81 72 63
13.6318 23.4443 65.5885 -0.541 -0.699 -0.468 61 55 43
15.7936 23.1505 65.5758 0.430 -0.215 -0.877 87 83 72
-61.9010 37.2184 103.7091 -0.761 -0.034 -0.648 169 198 194
-61.7496 37.1817 103.5280 -0.733 -0.028 -0.680 169 198 194
-61.5993 37.1436 103.3296 -0.620 0.154 -0.769 94 120 117
-61.4481 37.1081 103.1615 -0.600 0.126 -0.790 29 54 51
-61.2966 37.0738 103.0069 -0.635 0.100 -0.766 37 57 56
-61.1443 37.0415 102.8764 -0.635 0.100 -0.766 38 59 60
-59.3417 36.6411 101.1243 -0.359 0.038 -0.933 95 120 114
-56.5930 35.6842 94.6082 -0.597 -0.396 -0.698 55 64 69
-55.5643 35.2559 91.3903 -0.338 -0.437 -0.834 65 75 76
-55.3968 35.2481 91.5539 -0.111 -0.311 -0.944 64 74 75
-54.8684 35.1216 90.9391 -0.899 -0.125 -0.419 78 88 90
-52.4833 34.5903 88.6043 -0.896 0.167 -0.411 68 78 79
-52.2109 34.5372 88.4219 -0.320 0.203 -0.925 73 83 82
-52.0713 34.5122 88.3537 -0.105 0.248 -0.963 75 87 85
-49.9987 33.8341 83.9215 -0.734 -0.296 -0.611 68 74 71
-47.5098 33.4833 83.7468 -0.512 -0.492 -0.704 66 79 69
-46.6944 33.1601 81.3773 -0.825 -0.357 -0.437 72 86 71
-45.2159 32.7959 79.5430 -0.419 -0.366 -0.831 64 91 43
-45.0348 32.7832 79.6726 -0.232 -0.280 -0.932 65 92 45
-44.7212 32.6955 79.1677 -0.459 -0.388 -0.799 67 92 49
-44.6061 32.6687 79.0425 -0.426 -0.409 -0.807 62 86 53
-44.1963 32.7024 80.0289 -0.667 -0.394 -0.633 60 83 57
-43.8330 32.6242 79.7043 -0.595 -0.260 -0.760 84 104 80
-43.7185 32.5970 79.5730 -0.594 0.077 -0.801 104 124 99
-43.5933 32.5719 79.4817 -0.637 0.067 -0.768 106 125 101
-41.6818 32.1601 77.7669 -0.282 0.139 -0.949 74 76 71
-41.0966 31.8629 75.3407 -0.418 0.279 -0.865 91 92 87
-40.6034 31.7687 75.0321 -0.670 -0.074 -0.738 68 67 65
-40.1009 31.6364 74.3149 -0.535 -0.142 -0.833 109 112 105
-38.2628 31.2877 73.1905 -0.806 0.064 -0.588 76 86 88
-38.1642 31.2620 73.0525 -0.806 0.064 -0.588 167 178 182
-38.0425 31.2388 72.9770 -0.599 -0.178 -0.780 173 184 188
-36.9516 31.0651 72.6787 -0.699 0.054 -0.713 163 180 187
-31.9983 30.1215 69.6049 -0.618 -0.148 -0.772 116 125 124
-31.0070 29.8843 68.4531 -0.417 -0.426 -0.803 153 158 159
-20.8519 28.2781 65.7980 -0.562 -0.045 -0.826 88 87 77
-20.7139 28.2552 65.7502 -0.554 -0.031 -0.832 107 104 95
-20.5961 28.2324 65.6726 -0.554 -0.031 -0.832 106 103 94
-20.4691 28.2095 65.6086 -0.565 -0.034 -0.824 83 80 71
-20.1065 28.1634 65.6389 -0.259 -0.115 -0.959 61 58 49
-19.9891 28.1406 65.5603 -0.414 0.017 -0.910 61 58 49
-19.8588 28.1176 65.5006 -0.414 0.017 -0.910 56 51 41
-19.7444 28.0948 65.4179 -0.074 -0.189 -0.979 60 53 43
-16.6085 27.6503 65.1701 -0.888 0.029 -0.458 80 70 60
-8.5591 26.4782 64.1874 -0.433 -0.068 -0.899 81 67 56
-8.3511 26.4518 64.2057 -0.501 -0.292 -0.815 79 65 54
-8.1872 26.4269 64.1737 -0.248 -0.569 -0.784 94 80 69
-8.0243 26.4019 64.1403 -0.248 -0.569 -0.784 110 96 87
-7.8449 26.3764 64.1251 -0.238 -0.609 -0.757 86 72 63
-7.6928 26.3518 64.0791 -0.301 -0.600 -0.741 79 65 57
-7.1186 26.3128 64.5043 0.403 -0.293 -0.867 82 64 60
2.4513 24.9476 63.6500 -0.516 0.297 -0.803 75 65 55
2.9655 24.9039 63.9336 0.381 -0.082 -0.921 77 69 56
3.3698 24.8655 64.1117 0.403 -0.083 -0.911 85 77 64
3.7893 24.8262 64.3024 0.562 0.140 -0.815 89 81 68
4.8074 24.6649 64.0330 -0.096 -0.765 -0.637 85 79 67
4.9217 24.6408 63.9367 -0.066 -0.820 -0.568 85 79 67
9.3508 24.0945 64.4912 -0.067 -0.724 -0.687 54 51 42
9.8752 24.0470 64.7474 0.297 -0.546 -0.783 58 55 46
10.5085 23.9750 64.8952 -0.051 -0.656 -0.753 78 74 64
10.7040 23.9459 64.8635 0.023 -0.649 -0.761 74 65 56
11.6158 23.8394 65.0444 -0.057 -0.760 -0.648 96 86 76
12.2376 23.7853 65.3734 0.220 -0.666 -0.713 87 79 68
12.3240 23.7622 65.2461 0.264 -0.394 -0.880 82 73 64
12.9997 23.7047 65.6171 -0.185 -0.568 -0.802 81 72 63
13.2207 23.6736 65.6024 0.109 -0.664 -0.740 81 72 63
13.3294 23.6491 65.4930 -0.817 -0.340 -0.465 87 78 69
13.4881 23.6217 65.4257 -0.825 -0.326 -0.462 78 69 60
13.7425 23.5886 65.4382 -0.634 -0.737 -0.232 70 64 52
14.2744 23.4849 65.0826 -0.331 -0.876 -0.350 88 82 68
14.4702 23.4553 65.0455 -0.330 -0.879 -0.345 88 82 68
14.6202 23.4283 64.9708 -0.330 -0.879 -0.345 84 78 66
15.3873 23.3638 65.4005 0.282 -0.593 -0.754 79 75 64
-64.4784 38.2617 109.4042 -0.976 0.210 -0.059 88 89 83
-61.8856 37.3877 103.6585 -0.735 -0.024 -0.678 165 194 190
-61.7333 37.3531 103.5034 -0.733 -0.028 -0.680 101 130 126
-61.5822 37.3166 103.3263 -0.641 0.153 -0.752 24 50 47
-61.4302 37.2825 103.1764 -0.641 0.146 -0.753 47 72 69
-61.2796 37.2461 102.9988 -0.618 0.095 -0.781 34 55 53
-60.9824 37.1675 102.5755 -0.687 0.006 -0.727 38 60 58
-59.3283 36.8066 101.0546 -0.407 -0.011 -0.913 82 107 101
-55.9551 35.9125 96.2270 -0.808 -0.176 -0.562 53 63 65
-55.8295 35.8684 95.9295 -0.824 -0.149 -0.547 53 63 65
-55.3914 35.3982 91.4419 -0.157 -0.347 -0.925 65 75 76
-50.6948 34.2428 85.6974 -0.758 -0.574 -0.310 76 82 78
-50.1190 34.0066 83.9630 -0.967 0.175 -0.186 59 65 61
-47.4683 33.6414 83.8480 -0.822 0.048 -0.568 45 59 55
-47.1177 33.5520 83.3850 -0.505 -0.471 -0.723 33 49 40
-45.0462 32.9230 79.5494 -0.432 -0.402 -0.807 62 91 44
-43.4752 32.6889 79.2899 -0.500 -0.323 -0.803 39 51 39
-42.2836 32.4295 78.2003 -0.651 -0.182 -0.737 62 64 59
-42.1868 32.4000 78.0196 -0.573 -0.284 -0.769 62 64 59
-40.6928 31.9366 75.1469 -0.582 -0.041 -0.812 74 73 69
-38.1420 31.4031 73.0520 -0.862 0.111 -0.495 128 138 140
-38.0277 31.3791 72.9568 -0.621 -0.144 -0.771 175 186 188
-37.9225 31.3540 72.8376 -0.646 -0.098 -0.757 170 181 183
-37.7954 31.3315 72.7769 -0.576 -0.073 -0.814 164 175 177
-37.6714 31.3086 72.7080 -0.574 -0.053 -0.817 158 169 171
-37.4698 31.2939 72.8420 -0.304 -0.546 -0.781 158 171 175
-33.0287 30.5950 71.7026 -0.469 -0.006 -0.883 123 133 132
-32.8948 30.5725 71.6521 -0.460 -0.007 -0.888 129 139 138
-32.7678 30.5495 71.5865 -0.460 -0.007 -0.888 134 144 143
-32.5350 30.5020 71.4089 -0.479 -0.164 -0.862 134 144 143
-23.3860 28.8044 66.2493 -0.422 -0.333 -0.843 120 122 109
-20.7094 28.3970 65.7125 -0.503 -0.160 -0.849 110 105 96
-20.0800 28.3055 65.6333 -0.180 -0.128 -0.975 60 56 47
-19.9171 28.2825 65.6208 -0.173 -0.123 -0.977 65 59 51
-19.8147 28.2596 65.5204 -0.321 -0.100 -0.942 61 53 43
-16.7377 27.7740 64.7157 -0.755 -0.596 -0.273 79 72 61
-8.5359 26.6265 64.1719 -0.430 0.075 -0.900 85 68 58
-8.3897 26.6022 64.1201 -0.361 0.048 -0.931 90 73 63
-8.2531 26.5782 64.0573 -0.388 0.021 -0.922 107 93 82
-8.1022 26.5537 64.0106 -0.330 -0.035 -0.943 118 104 95
-7.9074 26.5278 64.0132 -0.248 -0.565 -0.787 93 79 70
-7.7990 26.5047 63.9185 -0.303 0.039 -0.952 79 64 57
-7.1430 26.4642 64.4351 0.400 -0.313 -0.861 79 64 57
2.6333 25.0959 63.7810 -0.332 0.400 -0.854 75 65 55
3.0575 25.0573 63.9790 0.340 -0.009 -0.941 77 69 56
3.5148 25.0170 64.2066 0.407 -0.048 -0.912 85 77 64
4.0618 24.9722 64.5163 0.563 0.141 -0.814 90 82 69
3.8479 24.8717 63.1085 0.521 -0.353 -0.777 85 79 67
8.2588 24.3899 64.2914 -0.087 -0.698 -0.711 62 55 45
8.4165 24.3632 64.2306 -0.071 -0.700 -0.710 60 56 45
9.2470 24.2638 64.3591 -0.076 -0.720 -0.690 63 60 51
10.6384 24.1149 64.7650 -0.034 -0.420 -0.907 82 75 64
10.8964 24.0823 64.7869 0.041 -0.549 -0.835 90 80 70
11.1108 24.0522 64.7709 0.266 -0.353 -0.897 97 87 77
11.5061 24.0119 64.9088 0.233 -0.365 -0.901 92 82 72
11.8699 23.9733 65.0186 0.233 -0.365 -0.901 83 75 64
12.3871 23.9260 65.2573 0.272 -0.346 -0.898 79 71 60
12.9257 23.8773 65.5121 -0.185 -0.568 -0.802 79 70 61
12.9668 23.8565 65.3461 0.058 -0.658 -0.751 79 70 61
13.7003 23.7414 65.1610 -0.816 -0.312 -0.487 78 72 58
13.8654 23.7136 65.0992 -0.321 -0.669 -0.670 86 80 66
13.9634 23.6898 64.9818 -0.034 -0.613 -0.790 90 84 68
14.4616 23.6244 64.9962 -0.152 -0.904 -0.401 88 82 68
14.4864 23.6048 64.8189 0.014 -0.893 -0.449 79 75 63
-64.4567 38.4819 109.8292 -0.976 0.210 -0.059 90 91 85
-62.4845 37.6879 104.1353 -0.601 -0.471 -0.646 175 206 205
-62.3289 37.6600 104.0587 -0.571 -0.441 -0.692 176 208 204
-62.1834 37.6053 103.6793 -0.253 0.211 -0.944 157 188 183
-62.0196 37.5999 103.8554 -0.698 -0.068 -0.713 167 196 192
-61.8691 37.5599 103.6411 -0.733 -0.028 -0.680 121 150 148
-61.7170 37.5245 103.4788 -0.733 -0.028 -0.680 45 75 73
-61.5652 37.4893 103.3185 -0.642 0.149 -0.752 33 61 58
-61.4127 37.4563 103.1816 -0.642 0.149 -0.752 38 63 60
-59.3206 36.9643 100.8935 -0.412 0.049 -0.910 93 115 112
-58.9115 36.6051 97.6292 -0.620 -0.396 -0.677 71 84 84
-56.0604 36.1253 96.5534 -0.482 -0.544 -0.687 53 63 65
-55.9243 36.0885 96.3528 -0.567 -0.487 -0.665 53 63 64
-55.8209 36.0263 95.8339 -0.780 0.223 -0.585 54 64 65
-52.6118 34.9143 88.4970 -0.785 0.218 -0.580 76 84 86
-50.7126 34.3805 85.4860 -0.758 -0.574 -0.310 78 85 79
-48.5422 33.9869 84.3627 -0.420 -0.174 -0.891 66 77 60
-48.4041 33.9632 84.3052 -0.642 0.041 -0.766 66 77 59
-48.0834 33.9299 84.4062 -0.377 -0.161 -0.912 65 77 58
-47.9473 33.9053 84.3366 -0.386 -0.167 -0.907 64 77 59
-47.4532 33.7920 83.8264 -0.767 -0.289 -0.573 41 58 51
-43.8239 32.9131 79.5851 -0.597 -0.272 -0.755 70 86 77
-43.6952 32.8886 79.5063 -0.515 -0.318 -0.796 68 84 73
-43.5889 32.8596 79.3465 -0.511 -0.313 -0.801 77 90 81
-43.2539 32.6777 77.8755 -0.498 0.004 -0.867 79 86 79
-43.1353 32.6521 77.7709 -0.485 0.013 -0.875 88 95 88
-42.4980 32.4863 76.9032 -0.667 -0.133 -0.733 78 80 75
-42.3786 32.4614 76.8064 -0.643 0.003 -0.766 80 82 77
-42.1764 32.4053 76.4931 -0.490 0.072 -0.869 81 82 76
-41.5531 32.2422 75.6348 -0.053 -0.137 -0.989 82 79 70
-41.4125 32.2212 75.6108 -0.208 0.211 -0.955 89 86 77
-41.2752 32.1997 75.5762 -0.208 0.211 -0.955 94 92 87
-41.1431 32.1774 75.5250 -0.451 0.131 -0.883 94 93 88
-38.7944 31.7302 74.0815 -0.478 -0.475 -0.739 82 84 83
-38.4593 31.6173 73.3499 -0.621 -0.137 -0.771 52 59 61
-38.1214 31.5441 73.0477 -0.862 0.111 -0.495 89 99 101
-38.0295 31.5174 72.8922 -0.804 0.055 -0.591 177 187 189
-37.9107 31.4938 72.8095 -0.646 -0.098 -0.757 171 181 183
-37.7962 31.4698 72.7156 -0.640 -0.098 -0.762 165 175 177
-37.6781 31.4462 72.6315 -0.589 -0.111 -0.800 159 169 171
-37.4648 31.4333 72.7961 -0.279 -0.542 -0.793 158 170 174
-23.1446 28.8992 66.0600 -0.432 -0.344 -0.834 166 169 161
-22.3334 28.8121 66.2826 -0.562 -0.274 -0.781 178 181 174
-21.6346 28.6745 65.8053 -0.550 -0.465 -0.694 108 108 100
-20.0556 28.4476 65.6246 -0.173 -0.123 -0.977 60 56 47
-19.9009 28.4247 65.6000 -0.173 -0.123 -0.977 66 59 51
-10.9124 27.1218 64.4524 0.328 -0.177 -0.928 93 79 70
-10.9317 27.1014 64.2064 -0.627 0.381 -0.680 97 83 74
-8.3572 26.7504 64.1151 -0.361 0.048 -0.931 93 76 68
-8.2069 26.7259 64.0678 -0.402 0.239 -0.884 98 81 73
-8.0699 26.7019 64.0053 -0.306 0.089 -0.948 82 65 57
-7.9279 26.6777 63.9484 -0.289 0.035 -0.957 68 53 46
-7.7691 26.6530 63.9103 -0.295 0.050 -0.954 74 59 52
-2.4822 25.9432 63.8417 -0.567 -0.121 -0.815 86 72 63
-2.2203 25.9139 63.9011 0.113 -0.026 -0.993 87 73 64
2.6175 25.2539 63.7248 0.190 0.393 -0.899 74 66 55
3.5099 25.1758 64.1604 0.426 -0.021 -0.904 85 77 64
6.6321 24.7271 63.8028 0.321 -0.405 -0.856 81 72 63
7.0502 24.6877 63.9769 0.332 -0.361 -0.871 70 63 53
8.0336 24.6012 64.4510 -0.071 -0.610 -0.790 68 61 51
8.8435 24.5227 64.7647 -0.006 -0.130 -0.991 62 55 45
9.4787 24.4152 64.5189 -0.885 0.318 -0.340 65 62 53
9.9939 24.3698 64.7665 -0.081 0.118 -0.990 71 68 59
10.3794 24.3123 64.6998 -0.089 -0.242 -0.966 75 68 58
10.5961 24.2823 64.6867 -0.105 -0.074 -0.992 83 77 65
10.9105 24.2470 64.7570 -0.420 0.324 -0.848 93 85 74
11.0507 24.2209 64.6776 -0.420 0.324 -0.848 97 89 78
11.2118 24.1937 64.6160 -0.425 0.333 -0.842 91 83 72
11.4251 24.1637 64.5987 -0.083 0.003 -0.997 84 76 65
12.3271 24.0965 65.1641 0.277 -0.355 -0.893 77 69 58
12.7704 24.0539 65.3385 0.038 -0.701 -0.712 76 67 58
13.7929 23.8859 64.9968 -0.420 -0.615 -0.667 80 74 58
13.9460 23.8589 64.9252 -0.420 -0.615 -0.667 83 77 61
14.4002 23.7780 64.7062 -0.327 -0.773 -0.544 68 64 52
15.1919 23.6412 64.3692 0.509 -0.471 -0.721 80 76 65
-64.4348 38.7040 110.2578 -0.976 0.210 -0.059 92 93 85
-62.1652 37.7820 103.7139 -0.253 0.211 -0.944 167 197 193
-61.8510 37.7357 103.6638 -0.693 0.085 -0.716 35 65 63
-61.6979 37.7027 103.5294 -0.242 0.263 -0.934 30 59 57
-61.5481 37.6625 103.3152 -0.633 0.167 -0.756 38 67 63
-61.3946 37.6313 103.2007 -0.642 0.149 -0.752 33 57 55
-61.2375 37.6081 103.1752 -0.278 0.052 -0.959 37 57 56
-59.2980 37.1421 100.9703 -0.389 0.088 -0.917 81 101 99
-59.1453 37.1142 100.8887 -0.842 -0.386 -0.376 64 84 82
-55.7592 36.2266 96.2603 -0.218 0.327 -0.919 58 70 70
-55.6445 36.1733 95.8597 -0.906 0.331 -0.264 62 74 74
-53.9285 35.3559 89.6459 -0.775 -0.056 -0.630 77 87 86
-53.8003 35.3237 89.4850 -0.855 -0.189 -0.483 77 87 88
-53.6775 35.2886 89.2861 -0.856 -0.203 -0.475 77 87 86
-50.0298 34.2516 83.4499 -0.810 0.024 -0.586 65 74 64
-48.5672 34.1951 84.8904 -0.558 0.242 -0.794 66 78 58
-48.3377 34.1311 84.5368 -0.549 0.223 -0.805 66 78 58
-48.2119 34.1031 84.4170 -0.529 0.208 -0.823 60 72 51
-47.9167 34.0614 84.3891 -0.652 0.097 -0.752 57 70 50
-47.3258 33.9109 83.6277 -0.761 -0.268 -0.591 43 60 48
-47.2060 33.8817 83.4867 -0.761 -0.268 -0.591 49 67 55
-45.2138 33.3331 80.4867 -0.671 -0.276 -0.688 61 87 51
-43.1243 32.7955 77.7369 -0.507 -0.004 -0.862 74 81 73
-41.7991 32.4292 75.7264 -0.610 0.135 -0.781 93 90 83
-41.5102 32.3888 75.7035 -0.051 -0.120 -0.992 87 84 75
-41.2616 32.3416 75.5524 -0.394 0.042 -0.918 94 91 86
-41.1324 32.3188 75.4921 -0.485 0.041 -0.874 96 93 88
-38.6507 31.8489 74.0014 -0.389 -0.581 -0.714 77 79 78
-38.4131 31.7618 73.4153 -0.743 0.104 -0.661 54 61 63
-37.7843 31.6095 72.6877 -0.640 -0.098 -0.762 157 167 169
-37.6714 31.5853 72.5898 -0.635 -0.099 -0.766 168 179 181
-37.4913 31.5689 72.6681 -0.330 -0.616 -0.715 174 186 190
-32.6256 30.8093 71.4461 -0.472 -0.168 -0.866 159 169 168
-32.5041 30.7859 71.3685 -0.476 -0.186 -0.860 171 181 180
-31.7212 30.4629 69.0586 -0.708 -0.170 -0.685 54 59 58
-27.2402 29.7638 67.9381 -0.751 -0.476 -0.458 150 152 148
-26.5734 29.6246 67.4015 -0.592 -0.316 -0.741 148 151 144
-24.4073 29.2920 66.9153 -0.323 -0.326 -0.889 94 90 78
-24.2070 29.2709 66.9725 -0.354 -0.328 -0.876 94 90 78
-24.1230 29.2472 66.8392 -0.443 -0.477 -0.759 92 91 78
-23.1582 29.0392 65.9933 -0.433 -0.334 -0.837 173 176 168
-22.4436 28.9764 66.3270 -0.540 -0.384 -0.749 175 178 171
-22.3418 28.9532 66.2243 -0.637 -0.266 -0.724 183 186 179
-22.2312 28.9301 66.1355 -0.637 -0.266 -0.724 171 174 167
-22.1146 28.9071 66.0560 -0.630 -0.245 -0.737 119 120 112
-21.9811 28.8844 66.0026 -0.565 -0.217 -0.796 94 95 87
-21.6260 28.8400 66.0296 -0.161 0.011 -0.987 97 97 89
-21.4946 28.8172 65.9723 -0.157 0.018 -0.987 108 108 100
-21.3417 28.7946 65.9475 -0.157 0.018 -0.987 102 102 94
-21.1703 28.7722 65.9501 -0.440 -0.036 -0.898 100 100 92
-21.0550 28.7492 65.8683 -0.452 -0.135 -0.882 100 97 90
-20.9666 28.7259 65.7466 -0.460 -0.124 -0.879 99 96 87
-16.3991 28.0588 65.0829 -0.441 -0.580 -0.685 80 73 61
-11.3993 27.2996 64.0516 -0.673 -0.588 -0.449 85 71 62
-8.9580 26.9760 64.0430 -0.267 -0.543 -0.796 88 71 63
-8.5793 26.9255 64.0389 -0.381 -0.431 -0.818 88 71 63
-8.2884 26.8977 64.1513 -0.402 0.239 -0.884 90 73 65
-8.1553 26.8737 64.0842 -0.402 0.239 -0.884 91 74 66
-8.0118 26.8495 64.0289 -0.403 0.234 -0.885 84 67 59
-7.8619 26.8251 63.9808 -0.290 0.151 -0.945 76 59 52
-7.7131 26.8007 63.9313 -0.290 0.151 -0.945 77 60 53
-2.5013 26.0972 63.7808 -0.279 -0.366 -0.888 79 64 57
3.1183 25.3705 63.9535 0.352 -0.034 -0.935 72 64 53
3.5463 25.3328 64.1531 0.393 -0.156 -0.906 80 74 62
6.1854 24.9464 63.7594 -0.755 -0.566 -0.330 76 69 59
6.3942 24.9177 63.7477 -0.776 0.432 -0.460 77 70 60
6.7019 24.8842 63.8239 0.321 -0.371 -0.871 75 68 58
7.1628 24.8434 64.0358 0.290 -0.068 -0.954 71 62 53
7.8594 24.7721 64.2550 -0.056 -0.598 -0.800 69 62 52
8.8016 24.6504 64.2855 -0.127 -0.216 -0.968 60 56 45
10.5584 24.4682 64.8121 -0.144 0.086 -0.986 72 65 55
10.5224 24.4510 64.5815 -0.043 -0.569 -0.822 75 68 58
11.0231 24.4066 64.8115 -0.392 0.307 -0.867 86 78 67
11.0952 24.3840 64.6736 -0.067 -0.056 -0.996 89 81 70
11.2898 24.3551 64.6405 -0.425 0.333 -0.842 85 77 66
11.3345 24.3340 64.4799 -0.390 -0.127 -0.912 77 69 58
11.4407 24.3096 64.3719 -0.732 -0.515 -0.446 76 68 57
13.6501 24.0616 64.8363 -0.176 0.225 -0.958 80 74 60
13.9467 24.0269 64.8836 -0.254 0.405 -0.878 82 76 60
14.0749 24.0012 64.7916 -0.288 0.052 -0.956 81 75 61
14.2547 23.9727 64.7420 -0.310 0.389 -0.867 72 66 52
-62.1474 37.9576 103.7336 -0.253 0.214 -0.943 154 179 176
-61.5327 37.8317 103.2668 -0.655 0.136 -0.743 35 60 57
-60.8205 37.5725 101.5548 0.082 0.598 -0.797 41 54 54
-60.6503 37.5770 101.8325 0.050 0.621 -0.782 40 54 55
-59.2963 37.2910 100.7153 -0.731 -0.156 -0.664 49 65 64
-55.9090 36.4034 96.1397 -0.536 -0.615 -0.579 63 75 73
-55.7556 36.3810 96.1165 -0.554 0.209 -0.806 58 70 68
-55.6396 36.3283 95.7291 -0.676 0.172 -0.716 61 73 71
-50.0151 34.3996 83.4279 -0.806 -0.005 -0.592 69 78 68
-48.6458 34.3865 85.1543 -0.581 0.368 -0.725 69 81 61
-48.5069 34.3625 85.0946 -0.574 0.361 -0.735 66 78 58
-48.0253 34.2414 84.4971 -0.698 0.120 -0.706 53 65 43
-47.9011 34.2128 84.3695 -0.698 0.120 -0.706 52 65 45
-48.1398 34.0649 82.5152 -0.732 0.147 -0.666 48 64 43
-47.3857 33.8420 81.2351 -0.769 0.041 -0.638 65 88 64
-46.7314 33.8461 82.1678 -0.967 -0.219 -0.130 58 86 48
-45.4964 33.4618 79.8713 -0.616 -0.301 -0.728 61 87 53
-44.2023 33.1674 78.5860 -0.540 0.033 -0.841 71 85 71
-44.0886 33.1402 78.4589 -0.683 -0.021 -0.730 95 111 99
-43.2267 32.9656 77.8258 -0.511 -0.025 -0.859 63 68 61
-41.2314 32.7171 77.9676 0.086 -0.066 -0.994 98 95 90
-41.4924 32.5315 75.6929 -0.433 0.084 -0.897 97 97 89
-41.2866 32.5219 75.8739 -0.873 -0.151 -0.464 89 86 79
-41.2393 32.4849 75.5554 -0.476 0.035 -0.879 79 76 71
-41.1130 32.4616 75.4861 -0.476 0.035 -0.879 93 90 85
-40.9940 32.4371 75.3943 -0.801 -0.228 -0.554 101 100 96
-39.5762 32.2279 75.1587 -0.290 -0.073 -0.954 98 101 94
-38.6980 31.9820 73.8088 -0.404 -0.593 -0.696 72 74 73
-37.9928 31.7986 72.8709 -0.890 0.102 -0.445 126 136 138
-36.0051 31.3964 71.4131 -0.525 0.186 -0.831 98 113 116
-33.3232 31.0938 71.9302 -0.539 -0.065 -0.840 128 138 139
-33.2061 31.0699 71.8417 -0.557 -0.048 -0.829 132 142 143
-33.0972 31.0453 71.7351 -0.608 -0.044 -0.792 136 146 147
-32.9710 31.0221 71.6674 -0.648 -0.119 -0.752 130 140 139
-32.8521 30.9984 71.5836 -0.607 -0.248 -0.755 113 123 122
-32.7338 30.9746 71.4989 -0.628 -0.228 -0.745 87 97 96
-32.6181 30.9507 71.4084 -0.524 -0.217 -0.824 69 79 78
-28.7852 30.1744 68.5907 -0.727 0.137 -0.673 126 130 131
-28.5822 30.1266 68.3723 -0.297 -0.139 -0.945 126 130 131
-26.9433 29.8048 67.2719 -0.400 -0.190 -0.897 169 171 166
-26.8015 29.7829 67.2377 -0.396 -0.184 -0.900 176 178 173
-22.4536 29.1174 66.2660 -0.543 -0.394 -0.742 178 181 174
-21.9737 29.0256 65.9690 -0.499 -0.284 -0.819 96 97 89
-21.6697 28.9807 65.9184 -0.428 -0.102 -0.898 97 97 89
-21.6333 28.9566 65.7177 -0.541 0.291 -0.789 99 99 91
-21.3948 28.9354 65.8227 -0.503 0.080 -0.861 107 107 99
-21.2549 28.9127 65.7784 -0.429 -0.077 -0.900 101 101 93
-21.1072 28.8901 65.7456 -0.432 -0.081 -0.898 96 93 86
-21.0000 28.8670 65.6523 -0.299 -0.107 -0.948 98 95 86
-20.8565 28.8443 65.6131 -0.359 -0.092 -0.929 107 104 95
-20.0186 28.7319 65.5898 -0.328 -0.157 -0.932 61 58 49
-16.4818 28.2031 64.9289 -0.730 -0.266 -0.630 87 79 68
-11.7017 27.4939 64.0923 -0.536 -0.699 -0.474 90 76 67
-11.2834 27.4014 63.7047 -0.403 -0.426 -0.810 96 82 73
-11.1895 27.3786 63.5957 -0.391 -0.412 -0.823 95 81 72
-8.7096 27.1192 64.2852 -0.896 -0.246 -0.370 89 72 64
-8.6932 27.0978 64.0853 -0.338 -0.403 -0.851 88 71 63
-8.5742 27.0741 64.0029 -0.385 -0.425 -0.819 89 72 64
-8.2683 27.0464 64.1321 -0.373 0.049 -0.927 87 70 62
-8.2544 27.0251 63.9306 -0.547 -0.344 -0.763 84 67 59
-8.1536 27.0019 63.8277 -0.332 -0.483 -0.810 84 67 59
-6.6293 26.7782 63.5866 -0.980 -0.040 -0.196 78 61 53
-2.8100 26.3209 64.0491 -0.908 0.109 -0.404 91 78 70
-2.4743 26.2495 63.7671 -0.264 -0.368 -0.892 80 65 58
-1.9955 26.1935 63.8390 0.477 0.053 -0.877 80 65 58
3.1144 25.5285 63.9085 0.300 -0.078 -0.951 68 62 50
3.5748 25.4902 64.1383 0.393 -0.156 -0.906 77 71 59
6.3891 25.0974 63.9012 -0.334 0.623 -0.708 70 63 53
6.6291 25.0481 63.7176 0.185 0.055 -0.981 71 64 54
7.8040 24.9176 63.9649 0.434 0.084 -0.897 63 56 46
9.3445 24.7879 64.7186 -0.891 0.272 -0.363 59 52 42
9.7965 24.7472 64.9122 -0.547 -0.507 -0.667 57 53 42
9.8655 24.7246 64.7715 -0.562 -0.499 -0.660 63 59 48
10.1851 24.6900 64.8482 -0.498 -0.534 -0.683 71 67 56
10.2665 24.6667 64.7184 -0.947 -0.021 -0.321 74 67 57
10.6326 24.6298 64.8339 -0.143 0.090 -0.986 71 64 54
11.1087 24.5680 64.8426 -0.390 0.294 -0.873 79 70 61
11.1758 24.5454 64.7004 -0.071 -0.077 -0.995 84 75 66
11.3918 24.5156 64.6853 -0.066 -0.071 -0.995 80 71 62
11.4757 24.4731 64.3597 -0.978 -0.005 -0.208 73 66 56
13.8483 24.2191 64.9582 -0.485 0.461 -0.743 80 74 60
13.9981 24.1922 64.8838 -0.381 0.486 -0.786 82 76 62
14.1680 24.1643 64.8260 -0.226 0.436 -0.871 81 75 61
14.3321 24.1366 64.7633 -0.409 0.459 -0.789 73 67 53
-62.1304 38.1311 103.7287 -0.289 0.099 -0.952 71 92 89
-61.3739 37.9471 102.8633 -0.761 -0.367 -0.535 37 51 51
-60.6478 37.7210 101.5292 -0.176 -0.174 -0.969 44 53 53
-55.8816 36.5772 96.2303 -0.525 -0.503 -0.687 62 74 72
-55.3769 36.4002 95.1010 -0.774 -0.621 -0.122 62 74 72
-55.2283 36.1018 92.2639 -0.986 -0.098 -0.137 70 82 82
-55.1569 36.0233 91.5601 -0.987 -0.107 -0.119 70 82 82
-47.4388 34.0326 81.5715 -0.328 -0.489 -0.808 68 88 60
-45.4951 33.6040 79.7960 -0.631 -0.294 -0.718 57 82 52
-44.1888 33.3118 78.5602 -0.523 0.036 -0.851 103 119 107
-44.0621 33.2875 78.4813 -0.523 0.036 -0.851 118 134 123
-41.2266 32.6266 75.5286 -0.655 -0.263 -0.709 63 60 55
-40.6528 32.4563 74.5588 -0.566 -0.607 -0.558 98 97 93
-39.4169 32.3931 75.5587 -0.329 -0.011 -0.944 93 96 89
-37.6982 31.8581 72.4019 -0.836 0.014 -0.549 103 114 116
-37.5571 31.8374 72.3789 -0.654 -0.066 -0.754 87 99 103
-35.6656 31.4626 71.0808 -0.692 -0.055 -0.720 100 112 112
-33.5756 31.2811 72.0113 -0.577 0.004 -0.817 94 104 105
-33.4336 31.2593 71.9790 -0.521 0.018 -0.854 87 97 98
-33.3106 31.2359 71.9035 -0.521 0.018 -0.854 85 95 96
-33.1995 31.2113 71.8017 -0.507 0.023 -0.861 79 89 90
-33.0815 31.1874 71.7155 -0.615 0.053 -0.787 76 86 87
-32.9606 31.1638 71.6361 -0.648 -0.119 -0.752 66 76 75
-31.7287 30.7378 68.9411 -0.547 -0.151 -0.823 78 83 81
-28.7741 30.3146 68.5622 -0.788 0.140 -0.600 132 136 137
-28.2519 30.1956 68.0469 -0.250 -0.461 -0.852 138 146 148
-28.0266 30.1780 68.1665 -0.497 -0.358 -0.790 137 145 147
-26.9272 29.9445 67.2527 -0.399 -0.093 -0.912 166 168 163
-26.7971 29.9221 67.1981 -0.399 -0.093 -0.912 145 147 142
-26.2245 29.8346 67.0688 -0.661 -0.186 -0.727 66 70 56
-25.0191 29.6604 66.8996 -0.477 0.046 -0.878 112 108 96
-22.5966 29.2809 66.2593 -0.296 -0.143 -0.944 172 175 168
-22.4495 29.2586 66.2271 -0.573 -0.292 -0.765 174 177 170
-22.3310 29.2355 66.1505 -0.648 -0.269 -0.712 167 170 163
-22.0914 29.1896 66.0016 -0.547 -0.300 -0.782 101 102 94
-21.2498 29.0540 65.7413 -0.435 -0.164 -0.886 87 87 79
-21.1256 29.0311 65.6734 -0.299 -0.107 -0.948 87 87 79
-20.9842 29.0085 65.6313 -0.299 -0.107 -0.948 93 90 81
-19.7163 28.7800 64.9920 -0.648 -0.094 -0.756 65 56 47
-16.5765 28.3469 64.7591 -0.379 -0.382 -0.843 88 80 69
-10.7892 27.5188 64.0275 -0.517 -0.208 -0.831 88 74 65
-9.1870 27.3632 64.5747 -0.966 -0.004 -0.259 88 71 64
-8.9892 27.3381 64.5822 -0.957 -0.036 -0.289 91 74 67
-8.9560 27.3159 64.3998 -0.841 -0.213 -0.497 87 70 63
-8.7169 27.2900 64.4545 -0.378 -0.845 -0.378 99 82 75
-8.9864 27.2733 63.9268 -0.772 -0.072 -0.632 105 88 80
-8.7904 27.2483 63.9327 -0.340 -0.444 -0.829 100 83 75
-8.6552 27.2244 63.8691 -0.363 -0.457 -0.812 90 73 65
-8.4775 27.1996 63.8536 -0.397 -0.439 -0.806 83 66 58
-8.3736 27.1763 63.7544 -0.375 -0.474 -0.796 84 67 59
-8.2294 27.1522 63.7008 -0.375 -0.474 -0.796 83 69 60
-8.0852 27.1281 63.6472 -0.375 -0.474 -0.796 85 71 62
-7.8629 27.1023 63.6807 0.110 -0.654 -0.749 81 67 58
-7.3531 27.0492 63.8180 0.070 -0.508 -0.858 74 60 51
-6.6018 26.9481 63.7885 -0.990 -0.074 -0.118 74 57 49
-6.5908 26.9060 63.3749 -0.999 -0.037 0.002 76 59 51
-2.8187 26.4539 63.7894 -0.400 -0.244 -0.884 97 84 76
-2.6657 26.4289 63.7380 -0.490 -0.134 -0.861 97 84 76
-2.4733 26.4027 63.7267 -0.281 -0.402 -0.871 80 67 59
0.4469 25.9837 63.3463 -0.036 0.533 -0.845 86 72 63
6.4201 25.2762 64.0879 -0.307 0.625 -0.718 66 59 49
6.5347 25.2517 63.9906 -0.300 0.629 -0.717 74 67 57
7.1436 25.1667 63.9358 0.205 0.054 -0.977 76 67 58
7.3770 25.1370 63.9439 0.194 0.083 -0.977 77 69 58
7.7474 25.1013 64.0726 0.277 -0.002 -0.961 76 68 57
9.8165 24.8913 64.6869 -0.562 -0.499 -0.660 62 56 44
10.0141 24.8627 64.6581 -0.544 -0.505 -0.670 72 66 54
9.8792 24.8492 64.3421 -0.732 0.391 -0.558 71 64 54
10.5224 24.8001 64.6971 -0.285 0.030 -0.958 71 64 54
11.1152 24.7138 64.6067 0.285 -0.012 -0.958 70 63 53
11.3511 24.6636 64.4103 -0.784 -0.312 -0.537 68 61 51
11.5169 24.6363 64.3527 -0.978 -0.013 -0.210 74 67 57
13.9745 24.3809 65.0204 -0.053 0.881 -0.470 85 79 67
-62.1189 38.2893 103.5640 -0.662 -0.324 -0.676 36 53 52
-60.7916 37.9041 101.4360 -0.189 -0.224 -0.956 47 52 50
-60.6293 37.8946 101.5510 -0.150 -0.221 -0.964 45 53 50
-60.4612 37.8947 101.7711 -0.042 0.315 -0.948 46 57 56
-59.5226 37.4974 99.0171 -0.379 0.368 -0.849 70 80 79
-56.8654 36.6315 93.8084 -0.282 0.302 -0.911 63 74 76
-55.2185 36.2559 92.1909 -0.982 -0.101 -0.158 70 82 82
-54.6541 36.0215 90.5797 -0.297 -0.051 -0.954 82 94 90
-54.5419 35.9762 90.2722 -0.751 -0.048 -0.659 82 94 90
-48.4749 34.7431 85.8197 -0.735 -0.474 -0.485 65 76 59
-47.4250 34.1793 81.5461 -0.339 -0.478 -0.810 63 87 52
-47.3529 34.1362 81.2078 -0.899 -0.113 -0.422 55 80 45
-46.1959 33.8513 79.8613 -0.392 0.498 -0.773 51 77 40
-39.7555 32.5675 75.3877 -0.723 -0.411 -0.556 88 91 84
-39.6798 32.5357 75.1677 -0.136 -0.098 -0.986 86 89 82
-39.2709 32.4700 75.0419 -0.312 0.254 -0.915 92 95 88
-39.2219 32.2654 73.0588 -0.756 -0.148 -0.638 78 80 80
-39.1087 32.2409 72.9608 -0.687 -0.187 -0.702 75 77 76
-37.5651 31.9743 72.2995 -0.717 -0.023 -0.697 102 114 118
-28.6211 30.3734 67.9053 -0.379 -0.799 -0.467 136 143 142
-28.4854 30.3514 67.8617 -0.389 -0.795 -0.465 137 145 147
-27.2464 30.1826 67.7827 -0.418 -0.114 -0.901 150 153 148
-27.1170 30.1601 67.7256 -0.418 -0.114 -0.901 157 159 153
-26.9132 30.0840 67.2299 -0.405 -0.104 -0.909 162 164 158
-26.7953 30.0611 67.1538 -0.355 -0.052 -0.933 115 118 112
-26.6572 30.0391 67.1131 -0.377 -0.026 -0.926 92 94 88
-25.4287 29.8673 66.9904 -0.453 -0.065 -0.889 91 93 79
-25.3023 29.8446 66.9277 -0.453 -0.065 -0.889 89 90 77
-25.1093 29.8244 66.9765 -0.530 0.008 -0.848 93 92 79
-24.1199 29.6420 66.4372 -0.267 -0.390 -0.881 100 102 88
-20.9520 29.1504 65.6347 -0.282 -0.108 -0.953 89 86 77
-19.9707 29.0166 65.5710 -0.600 -0.063 -0.798 62 58 49
-20.0712 28.9902 65.1765 -0.221 -0.122 -0.968 64 57 49
-19.9562 28.9672 65.0956 -0.139 -0.168 -0.976 64 56 46
-19.8149 28.9445 65.0525 -0.189 -0.182 -0.965 64 56 46
-19.3726 28.9012 65.1940 -0.176 -0.057 -0.983 64 55 46
-19.2093 28.8787 65.1810 -0.195 -0.146 -0.970 72 63 54
-19.1852 28.7819 64.2442 -0.651 0.236 -0.721 69 55 46
-19.0988 28.7588 64.1254 -0.616 0.229 -0.754 75 61 52
-17.1767 28.5825 64.8581 -0.585 0.190 -0.788 74 68 56
-17.0623 28.5593 64.7747 -0.713 0.170 -0.680 75 69 57
-16.9586 28.5360 64.6772 -0.720 0.159 -0.676 85 79 67
-16.6123 28.4902 64.6682 -0.356 -0.361 -0.862 85 79 67
-13.4039 28.0016 63.9489 -0.339 0.041 -0.940 90 73 65
-10.6430 27.6419 63.9369 -0.528 -0.139 -0.838 87 73 64
-8.1080 27.2985 63.7956 0.070 -0.731 -0.678 84 70 61
-7.8474 27.2723 63.8719 0.147 -0.660 -0.737 84 70 61
-6.6074 27.0982 63.7409 -0.990 -0.074 -0.118 79 62 54
-2.8037 26.6065 63.7634 -0.323 -0.097 -0.941 99 86 78
-2.6379 26.5811 63.7251 -0.475 -0.121 -0.871 99 86 78
-2.4960 26.5564 63.6622 -0.159 -0.206 -0.966 83 70 62
0.5486 26.1352 63.4040 0.075 0.474 -0.877 86 69 61
2.4250 25.9294 63.7827 -0.717 -0.580 -0.387 79 73 61
2.4984 25.9065 63.6495 -0.737 -0.562 -0.374 89 83 71
2.5251 25.8854 63.4727 -0.753 -0.560 -0.346 95 89 77
6.7863 25.3822 63.9747 -0.364 0.858 -0.362 80 73 65
7.6429 25.2873 64.1382 -0.116 -0.376 -0.919 76 68 57
7.9882 25.2531 64.2439 0.145 -0.184 -0.972 76 68 57
9.7000 25.0608 64.5438 -0.382 -0.789 -0.481 70 64 52
9.9258 25.0111 64.3405 -0.603 -0.635 -0.482 71 64 54
10.2439 24.9773 64.4156 -0.418 -0.769 -0.483 72 65 55
11.2279 24.8740 64.6609 0.174 -0.135 -0.976 70 63 55
11.3793 24.8275 64.3923 -0.789 -0.299 -0.536 68 61 52
-62.1049 38.4541 103.4714 -0.662 -0.324 -0.676 47 64 62
-61.3567 38.2533 102.4458 -0.772 -0.362 -0.522 39 50 51
-60.9108 38.1369 101.8671 -0.961 0.029 -0.276 46 50 51
-58.7025 37.3752 97.1783 -0.798 -0.152 -0.584 57 68 70
-55.5118 36.7363 94.9444 -0.815 0.137 -0.563 78 90 88
-53.5613 35.9425 89.6123 -0.002 -0.070 -0.998 68 78 77
-47.7718 34.4105 81.8930 -0.823 -0.058 -0.565 55 77 38
-47.4242 34.3218 81.4616 -0.339 -0.478 -0.810 58 83 43
-41.7086 33.0031 75.7464 -0.683 0.107 -0.723 95 95 87
-39.8101 32.6987 75.1625 -0.632 0.085 -0.771 84 86 81
-39.6859 32.6749 75.0859 -0.644 0.113 -0.757 87 89 84
-39.3369 32.4270 73.0905 -0.740 -0.187 -0.646 83 83 81
-39.1101 32.3780 72.8961 -0.420 -0.055 -0.906 80 80 78
-37.5639 32.1121 72.2441 -0.691 0.113 -0.714 125 135 137
-37.4796 32.0840 72.0738 -0.419 0.007 -0.908 122 132 135
-31.8879 31.1979 70.4568 -0.669 -0.098 -0.737 98 108 107
-27.2215 30.3234 67.7791 -0.445 -0.182 -0.877 148 154 144
-27.0938 30.3008 67.7189 -0.445 -0.182 -0.877 152 158 147
-26.8011 30.1997 67.0963 -0.368 -0.207 -0.907 91 97 86
-25.0787 29.9657 66.9810 -0.408 -0.179 -0.895 92 96 75
-24.1219 29.7819 66.3881 -0.272 -0.378 -0.885 95 103 91
-22.0609 29.4722 65.9582 -0.175 -0.195 -0.965 93 94 86
-21.5878 29.4060 65.9078 -0.469 -0.155 -0.869 105 105 95
-20.9360 29.2920 65.6139 -0.282 -0.108 -0.953 89 86 77
-19.7809 29.0864 65.0576 -0.216 -0.038 -0.976 63 57 42
-19.6942 29.0628 64.9361 -0.655 -0.129 -0.745 65 58 45
-19.3480 29.0435 65.1853 -0.183 -0.056 -0.981 63 55 43
-19.1758 29.0212 65.1848 -0.180 -0.174 -0.968 73 65 52
-18.0601 28.8876 65.2876 -0.200 -0.515 -0.833 81 67 58
-17.1661 28.7257 64.8293 -0.362 -0.092 -0.927 75 69 55
-16.3952 28.6109 64.6786 -0.755 0.043 -0.655 78 70 56
-14.0796 28.2863 64.4261 -0.715 -0.180 -0.675 95 78 71
-13.4542 28.1465 63.8444 -0.445 -0.201 -0.873 88 74 65
-6.8926 27.3403 64.2450 0.521 -0.102 -0.848 82 68 59
-6.6859 27.3149 64.2574 0.351 -0.503 -0.790 80 66 57
-6.4206 27.2884 64.3338 0.203 -0.649 -0.734 83 69 60
-0.3297 26.3992 63.3200 0.055 -0.107 -0.993 83 69 60
0.5909 26.3096 63.6077 -0.004 -0.613 -0.790 73 59 50
0.9799 26.2771 63.7813 0.248 -0.559 -0.791 77 60 52
4.7744 25.8008 63.9141 -0.613 0.469 -0.636 80 74 58
9.7537 25.2226 64.5486 -0.279 -0.936 -0.215 81 75 63
9.9699 25.1732 64.3368 -0.455 -0.765 -0.456 71 65 52
10.3157 25.1184 64.2369 0.153 -0.579 -0.801 72 65 57
10.7058 25.0818 64.3723 0.146 -0.591 -0.794 71 64 58
11.5826 25.0041 64.7214 0.445 -0.356 -0.822 68 61 54
14.4610 24.6751 65.1387 -0.491 0.680 -0.544 91 83 72
14.4513 24.6553 64.9323 -0.614 0.450 -0.649 89 83 69
14.6592 24.6257 64.9049 -0.566 0.646 -0.512 76 70 58
-55.3349 36.8843 94.9796 -0.932 0.286 -0.225 78 90 88
-55.4322 36.6581 92.6693 -0.941 -0.329 -0.084 77 89 89
-54.6203 36.3363 90.5625 -0.384 -0.130 -0.914 81 93 89
-53.7119 36.1067 89.4684 -0.781 0.170 -0.602 67 77 76
-50.9154 35.3249 85.3737 -0.411 -0.400 -0.819 77 82 76
-50.7528 35.3130 85.4602 -0.171 -0.550 -0.817 77 82 78
-49.9613 35.0715 84.1053 -0.387 0.440 -0.810 77 87 76
-49.6709 35.0318 84.0811 -0.347 0.450 -0.823 70 86 65
-49.4634 35.0376 84.3957 -0.309 -0.215 -0.927 69 85 64
-48.8831 35.1144 85.8590 -0.815 -0.104 -0.570 67 82 61
-46.1189 34.2196 80.6302 -0.879 -0.005 -0.476 53 78 39
-46.1011 34.1615 80.0902 -0.478 0.460 -0.749 53 78 39
-45.8077 34.1231 80.0828 -0.790 -0.154 -0.594 50 75 36
-45.6901 34.0953 79.9597 -0.784 -0.148 -0.603 66 92 53
-45.3363 34.0128 79.5999 -0.671 -0.344 -0.657 106 122 111
-45.0919 33.9605 79.3978 -0.612 -0.287 -0.737 79 94 86
-44.1832 33.7362 78.3548 -0.599 -0.239 -0.764 82 91 83
-44.0610 33.7108 78.2602 -0.633 -0.217 -0.743 79 87 80
-42.3653 33.3044 76.4329 -0.534 -0.350 -0.770 114 115 110
-41.6823 33.1476 75.7628 -0.682 0.120 -0.721 96 97 89
-40.9971 32.9934 75.1211 -0.751 -0.307 -0.584 94 93 88
-40.3386 32.8822 74.8626 -0.797 0.159 -0.582 87 86 81
-39.7599 32.8476 75.2460 -0.932 -0.083 -0.352 85 87 82
-39.6522 32.8208 75.1202 -0.638 0.123 -0.760 93 95 92
-39.7125 32.6325 73.2225 -0.283 0.130 -0.950 98 100 95
-39.6041 32.6070 73.1104 -0.288 0.104 -0.952 91 91 89
-39.3254 32.5662 73.0618 -0.625 -0.066 -0.778 80 80 78
-39.0940 32.5178 72.8801 -0.420 -0.055 -0.906 82 81 79
-38.3995 32.4988 73.5587 -0.502 0.292 -0.814 67 67 65
-38.1069 32.3754 72.7280 -0.569 -0.277 -0.774 40 44 47
-30.5873 30.9183 67.9606 -0.196 -0.498 -0.845 116 125 124
-30.1694 30.8234 67.5606 -0.229 -0.548 -0.804 121 130 129
-27.2708 30.4899 67.9317 -0.527 -0.041 -0.849 158 164 161
-26.8059 30.3382 67.0406 -0.367 -0.221 -0.904 83 89 75
-24.8478 30.0033 66.2305 -0.536 -0.109 -0.837 104 112 88
-23.3251 29.7600 65.7658 -0.579 -0.208 -0.788 175 178 169
-22.8991 29.7475 66.1734 -0.172 -0.116 -0.978 174 175 167
-22.0487 29.6134 65.9318 -0.171 -0.257 -0.951 89 90 82
-21.5783 29.5474 65.8774 -0.469 -0.155 -0.869 116 116 106
-21.3031 29.5023 65.7816 -0.546 -0.389 -0.742 57 57 47
-20.5765 29.3900 65.5975 -0.237 0.051 -0.970 71 67 58
-20.4116 29.3680 65.5889 -0.692 0.186 -0.698 58 54 45
-20.2813 29.3451 65.5292 -0.527 0.050 -0.848 55 52 43
-19.5439 29.1564 64.6183 -0.802 -0.533 -0.269 73 68 51
-18.1922 29.0287 65.0604 -0.235 -0.611 -0.756 80 66 55
-18.1203 29.0048 64.9183 -0.052 -0.409 -0.911 85 71 62
-17.7593 28.9601 64.9343 -0.017 -0.372 -0.928 92 78 69
-17.1495 28.8689 64.8085 -0.362 -0.092 -0.927 80 74 60
-16.6882 28.7759 64.4810 -0.633 0.236 -0.737 88 82 66
-16.3844 28.7544 64.6499 -0.746 0.055 -0.663 82 75 59
-14.0779 28.4312 64.3857 -0.715 -0.180 -0.675 95 80 73
-13.5011 28.2910 63.7444 -0.477 -0.182 -0.860 87 73 62
-0.2188 26.5504 63.3878 0.092 -0.060 -0.994 83 69 60
0.0841 26.5211 63.4805 0.055 -0.135 -0.989 69 55 46
0.3318 26.4932 63.5183 0.104 -0.139 -0.985 67 53 44
0.5712 26.4655 63.5474 0.104 -0.139 -0.985 66 52 43
4.8404 25.9578 63.9333 -0.342 0.510 -0.789 77 71 55
5.1659 25.9261 64.0305 0.304 0.646 -0.700 84 79 60
7.3020 25.6853 64.3527 -0.358 0.863 -0.356 77 70 62
8.4649 25.5391 64.3809 0.192 -0.446 -0.874 86 78 67
14.4779 24.8431 65.1103 -0.700 0.445 -0.558 87 79 68
14.4696 24.8230 64.9051 -0.791 0.203 -0.577 89 83 71
14.7010 24.7925 64.8969 -0.764 0.292 -0.575 83 77 65
-56.7991 37.1304 93.9525 -0.416 0.478 -0.774 63 74 76
-54.7434 36.5200 90.6333 -0.431 -0.227 -0.873 77 89 87
-54.6014 36.4952 90.5698 -0.431 -0.227 -0.873 81 93 89
-53.7082 36.2542 89.3587 -0.786 0.227 -0.575 67 77 76
-53.5752 36.2244 89.2366 -0.827 0.126 -0.547 68 78 77
-53.3427 36.1439 88.7524 -0.964 -0.239 -0.114 76 86 85
-51.0480 35.4945 85.3523 -0.383 -0.424 -0.821 81 86 79
-50.9062 35.4729 85.3185 -0.392 -0.415 -0.821 82 87 80
-49.4594 35.1832 84.3163 -0.421 -0.358 -0.834 62 81 56
-48.0973 34.7935 82.2583 -0.689 -0.336 -0.642 57 81 45
-47.9673 34.7683 82.1757 -0.722 -0.254 -0.643 56 83 41
-45.0870 34.1032 79.3382 -0.612 -0.287 -0.737 62 72 67
-44.9524 34.0806 79.2862 -0.395 0.010 -0.919 84 95 87
-44.5896 34.1209 80.1110 -0.585 -0.311 -0.749 113 124 118
-44.2920 33.9059 78.4241 -0.647 -0.215 -0.732 75 79 73
-44.1704 33.8802 78.3268 -0.622 -0.241 -0.745 56 60 54
-44.0482 33.8547 78.2321 -0.617 -0.208 -0.759 50 53 48
-42.9762 33.5144 76.2923 -0.255 0.003 -0.967 93 95 90
-42.8246 33.4967 76.3081 -0.288 0.032 -0.957 99 100 95
-41.1904 33.1905 75.3758 -0.466 -0.196 -0.863 103 104 98
-40.8910 33.1051 74.9259 -0.772 -0.260 -0.580 93 92 87
-40.7959 33.0760 74.7637 -0.797 -0.244 -0.553 94 93 88
-39.7980 32.9809 75.0697 -0.891 -0.170 -0.422 86 88 85
-39.6745 32.7761 73.2692 -0.296 0.159 -0.942 85 87 84
-39.5747 32.7490 73.1322 -0.271 0.018 -0.962 83 83 81
-38.3658 32.6430 73.5897 -0.502 0.292 -0.814 67 67 65
-38.2422 32.5345 72.7066 -0.477 -0.346 -0.808 33 34 36
-38.1040 32.5137 72.6763 -0.569 -0.277 -0.774 42 43 45
-37.9891 32.4893 72.5835 -0.545 -0.287 -0.788 68 69 71
-37.8703 32.4656 72.5014 -0.544 -0.282 -0.790 115 116 118
-37.7505 32.4420 72.4224 -0.554 -0.276 -0.785 120 121 123
-34.2953 31.6922 69.4756 -0.466 -0.360 -0.809 124 130 130
-33.1399 31.7435 71.3679 -0.521 -0.546 -0.657 124 131 131
-32.0869 31.5281 70.5948 -0.554 0.229 -0.801 121 131 130
-31.8621 31.5145 70.7384 -0.113 -0.055 -0.992 119 129 128
-31.8313 31.4825 70.4710 -0.195 -0.122 -0.973 114 124 123
-31.7889 31.4518 70.2299 -0.714 -0.190 -0.673 111 121 120
-30.9713 31.1213 68.0742 -0.353 -0.522 -0.777 120 129 128
-30.8558 31.0983 67.9950 -0.370 -0.559 -0.742 123 132 131
-30.7087 31.0778 67.9784 -0.333 -0.510 -0.793 123 132 131
-30.5899 31.0550 67.9059 -0.186 -0.492 -0.850 123 132 131
-27.2821 30.6289 67.8633 -0.502 -0.078 -0.862 165 171 166
-26.8666 30.5031 67.1694 -0.387 -0.147 -0.910 107 113 99
-26.7664 30.4791 67.0624 -0.357 -0.157 -0.921 81 87 73
-26.1332 30.3665 66.7594 -0.674 -0.474 -0.567 86 91 71
-23.5529 29.9182 65.6223 -0.553 -0.297 -0.778 166 173 165
-22.8593 29.8894 66.1904 -0.161 -0.159 -0.974 175 176 168
-22.0593 29.7539 65.8706 -0.159 -0.246 -0.956 92 93 85
-21.3316 29.6426 65.6940 -0.700 -0.068 -0.710 65 65 55
-20.5254 29.5329 65.6284 -0.109 -0.146 -0.983 64 61 52
-20.3202 29.4857 65.4280 -0.342 -0.394 -0.853 55 52 43
-19.5961 29.3473 64.9889 -0.551 -0.172 -0.817 82 79 60
-19.4771 29.3242 64.9136 -0.551 -0.172 -0.817 72 67 48
-18.2020 29.1711 65.0032 -0.261 -0.525 -0.810 81 67 56
-18.0518 29.1484 64.9695 -0.261 -0.525 -0.810 80 66 55
-17.2707 29.0352 64.8394 -0.362 -0.092 -0.927 96 88 75
-17.1328 29.0122 64.7878 -0.362 -0.092 -0.927 115 109 93
-16.7290 28.9183 64.3836 -0.848 0.087 -0.523 93 87 71
-16.5922 28.8953 64.3309 -0.736 -0.153 -0.659 89 83 69
-16.4941 28.8719 64.2268 -0.736 -0.153 -0.659 85 77 66
-13.5004 28.4353 63.7031 -0.569 -0.024 -0.822 86 72 61
-8.6767 27.7725 63.2471 -0.476 -0.292 -0.830 92 78 67
-6.6114 27.5925 64.0403 0.306 -0.477 -0.824 89 72 64
-3.4728 27.0999 63.1592 -0.344 -0.236 -0.909 83 70 62
-3.2156 27.0731 63.2166 -0.261 -0.118 -0.958 84 71 62
-3.0707 27.0485 63.1584 -0.382 -0.171 -0.908 83 70 61
-2.9048 27.0235 63.1215 -0.259 -0.247 -0.934 81 68 60
-2.7486 26.9987 63.0746 -0.457 -0.191 -0.869 81 68 60
-2.5287 26.9725 63.0920 -0.575 -0.445 -0.687 80 67 59
-2.4277 26.9488 62.9889 -0.572 -0.431 -0.698 81 68 60
-2.1734 26.9217 63.0403 -0.520 -0.586 -0.621 80 67 59
-0.6922 26.7590 63.2891 0.252 -0.057 -0.966 83 69 58
-0.5133 26.7333 63.2613 -0.017 -0.467 -0.884 83 69 58
-0.2623 26.7058 63.3040 -0.005 -0.463 -0.886 83 69 60
0.0896 26.6757 63.4447 0.130 -0.117 -0.985 82 68 59
0.3649 26.6474 63.5094 0.150 -0.128 -0.980 80 68 56
4.5271 26.1478 63.8050 -0.120 -0.452 -0.884 70 64 50
4.9309 26.1142 63.9750 -0.281 0.477 -0.833 77 71 55
6.9286 25.9231 64.5809 -0.068 0.562 -0.824 77 71 59
7.5486 25.7758 63.9300 0.092 -0.429 -0.899 72 64 53
7.9507 25.7409 64.0859 0.075 -0.357 -0.931 71 63 52
8.3095 25.7074 64.2024 0.210 -0.397 -0.893 80 72 61
8.6887 25.6730 64.3356 0.242 -0.471 -0.848 81 73 62
9.2160 25.6122 64.3970 0.285 -0.500 -0.818 99 93 81
12.4353 25.1984 64.3644 0.244 0.447 -0.861 83 79 67
14.0916 25.0278 64.7501 -0.148 -0.841 -0.521 60 54 42
14.5268 24.9683 64.7121 -0.174 -0.832 -0.527 87 81 69
-62.4406 39.3284 106.3190 -0.976 -0.041 -0.216 109 119 110
-60.9408 38.8412 103.5318 -0.848 0.292 -0.443 36 45 44
-60.6148 38.8145 103.6688 -0.575 0.467 -0.672 50 56 56
-58.4457 37.9221 97.8770 -0.488 -0.045 -0.872 53 64 66
-56.9259 37.3191 94.0279 -0.449 -0.070 -0.891 63 74 76
-56.7800 37.2943 93.9689 -0.475 -0.034 -0.879 67 78 80
-53.6783 36.4192 89.4477 -0.837 0.098 -0.538 87 97 96
-53.5553 36.3825 89.2496 -0.837 0.098 -0.538 94 105 101
-51.5949 35.7335 85.4923 -0.394 0.386 -0.834 82 89 82
-51.4603 35.7084 85.4170 -0.394 0.386 -0.834 75 82 74
-51.1903 35.6587 85.2720 -0.503 0.371 -0.780 76 82 72
-50.6435 35.5629 85.0228 -0.813 0.150 -0.562 75 87 70
-49.8939 35.3872 84.2660 -0.435 0.016 -0.900 66 80 58
-49.6121 35.3436 84.1920 -0.473 0.226 -0.852 56 77 50
-49.4844 35.3160 84.0845 -0.479 0.221 -0.850 54 77 49
-49.3363 35.2973 84.0847 -0.747 0.052 -0.663 56 76 49
-49.2250 35.2628 83.8935 -0.419 0.134 -0.898 50 70 43
-48.1020 34.9340 82.1444 -0.729 -0.271 -0.629 57 83 45
-47.8841 34.8681 81.7856 -0.765 -0.391 -0.511 56 85 39
-45.0811 34.2461 79.2827 -0.609 -0.305 -0.732 105 112 109
-44.5817 34.2660 80.0628 -0.565 -0.330 -0.756 102 111 106
-44.0428 33.9967 78.1769 -0.623 -0.255 -0.740 57 58 53
