ply
format ascii 1.0
element vertex 897
property float x
property float y
property float z
property float nx
property float ny
property float nz
property uchar diffuse_red
property uchar diffuse_green
property uchar diffuse_blue
end_header
31.3931 4.8651 78.6997 0.211 -0.551 -0.807 44 48 51
31.5486 4.8595 78.7063 0.347 -0.349 -0.871 41 45 48
31.6919 4.8602 78.7421 0.591 -0.003 -0.806 43 46 51
32.6960 4.9425 79.3779 -0.076 -0.203 -0.976 67 72 78
33.9539 4.9652 79.7721 0.575 -0.430 -0.696 50 55 61
34.0751 4.9782 79.8643 0.575 -0.430 -0.696 52 57 61
34.5549 5.0343 80.2517 0.607 -0.131 -0.784 42 54 54
34.6844 5.0429 80.3236 0.550 -0.161 -0.819 35 49 49
34.8023 5.0584 80.4274 0.558 -0.147 -0.817 31 46 45
34.9272 5.0698 80.5125 0.684 -0.350 -0.640 123 140 139
35.0513 5.0817 80.5999 0.672 -0.352 -0.652 132 151 149
35.1547 5.1063 80.7459 0.720 -0.365 -0.591 86 106 104
35.4196 5.1205 80.8759 0.653 -0.286 -0.701 65 85 83
35.5378 5.1364 80.9818 0.232 -0.593 -0.771 52 71 67
35.6679 5.1450 81.0540 0.240 -0.589 -0.772 43 62 58
35.8007 5.1521 81.1187 0.330 -0.646 -0.688 50 70 68
35.9284 5.1622 81.1981 0.320 -0.655 -0.684 51 71 69
37.4557 5.2922 82.1889 0.298 -0.425 -0.854 80 90 82
37.5756 5.3084 82.2965 0.209 -0.468 -0.859 49 56 47
37.7384 5.2956 82.2693 0.255 -0.346 -0.903 44 52 39
37.8780 5.2985 82.3149 0.466 -0.361 -0.808 52 60 45
38.0830 5.3553 82.6443 0.310 -0.725 -0.615 81 93 79
38.4862 5.2748 82.3325 -0.073 -0.695 -0.716 70 84 64
39.0966 5.4535 83.3618 0.629 -0.678 -0.382 76 83 72
40.3777 5.5734 84.2470 0.484 -0.670 -0.563 76 99 78
42.5589 5.7957 85.8455 0.047 -0.686 -0.726 128 153 131
43.1094 5.8193 86.0864 0.767 0.437 -0.470 92 114 101
43.2184 5.8510 86.2693 0.773 0.422 -0.474 51 71 62
44.5033 6.1441 88.0210 0.274 -0.266 -0.924 61 66 72
45.8497 6.2586 88.8937 0.315 -0.868 -0.385 93 104 106
45.9808 6.2743 89.0017 0.408 -0.827 -0.387 79 90 92
46.1104 6.2920 89.1189 0.403 -0.831 -0.384 114 125 127
46.2536 6.2949 89.1656 0.580 -0.685 -0.440 122 133 135
46.3770 6.3197 89.3171 0.842 -0.416 -0.343 129 140 144
47.2940 6.4408 90.1272 0.808 -0.063 -0.586 144 156 154
47.5402 6.4967 90.4613 0.908 -0.241 -0.342 114 124 123
47.9795 6.6811 91.4809 0.772 -0.394 -0.498 88 95 90
48.0934 6.7240 91.7209 0.106 -0.392 -0.914 59 64 60
48.2389 6.7270 91.7684 -0.106 -0.455 -0.884 66 71 67
48.3914 6.7208 91.7712 -0.122 -0.484 -0.866 76 81 77
48.7550 6.6296 91.3967 -0.032 -0.709 -0.705 67 72 68
48.9053 6.6245 91.4053 -0.008 -0.704 -0.710 81 86 82
49.0527 6.6233 91.4323 -0.218 -0.409 -0.886 104 109 103
51.9254 7.2108 95.0096 0.911 -0.288 -0.296 131 142 124
52.0485 7.2583 95.2744 0.922 -0.245 -0.299 136 150 131
52.1680 7.3136 95.5776 0.579 0.097 -0.809 137 154 137
52.3046 7.3382 95.7310 0.326 0.339 -0.883 140 157 141
53.1198 7.5081 96.7622 0.283 -0.763 -0.581 132 147 150
54.6123 7.9091 99.0992 0.583 0.670 -0.460 90 102 102
54.7825 9.5781 107.4765 -0.394 -0.626 -0.673 69 84 79
57.4768 5.7860 89.1318 0.166 -0.235 -0.958 85 96 82
60.2143 6.3933 92.7779 0.836 -0.105 -0.539 97 107 98
60.3509 6.4007 92.8456 0.708 -0.019 -0.706 87 99 89
61.4367 6.6500 94.3338 0.748 -0.184 -0.638 112 120 105
61.5746 6.6693 94.4608 0.838 -0.298 -0.457 127 135 120
61.7123 6.7026 94.6581 0.846 -0.340 -0.411 98 106 93
61.8503 6.7460 94.9059 0.846 -0.340 -0.411 85 93 82
62.5477 6.9020 95.8412 0.458 -0.770 -0.444 52 59 52
62.6883 6.9314 96.0197 0.441 -0.777 -0.450 52 59 52
62.8291 6.9564 96.1760 0.648 -0.664 -0.373 68 75 68
63.1140 7.0536 96.7253 0.795 -0.429 -0.430 74 82 71
63.2562 7.0813 96.8954 0.790 -0.446 -0.421 77 85 72
-20.7465 6.7801 75.7129 -0.109 -0.871 -0.479 148 194 224
-19.0439 6.5358 74.8860 0.027 -0.105 -0.994 166 212 233
-16.4144 6.4195 74.9022 -0.178 -0.002 -0.984 114 153 156
-6.6638 5.5941 73.0092 0.043 -0.684 -0.728 78 103 106
-6.7672 5.6627 73.3262 0.086 -0.714 -0.694 77 102 106
-5.9607 5.5946 73.1701 0.113 0.042 -0.993 60 86 87
-5.7659 5.5899 73.1909 -0.137 -0.184 -0.973 51 75 77
-5.5340 5.5760 73.1740 -0.182 -0.188 -0.965 47 71 74
-4.6958 5.5416 73.1925 -0.095 -0.527 -0.845 76 95 102
-4.4660 5.5277 73.1754 -0.095 -0.527 -0.845 93 112 119
-3.7987 5.4910 73.1439 0.200 -0.873 -0.444 114 135 140
-2.8430 5.4238 73.0262 0.179 -0.405 -0.897 78 103 100
-1.7552 5.3647 72.9787 -0.169 -0.532 -0.830 66 81 88
-1.4939 5.3412 72.9211 -0.194 -0.483 -0.854 52 67 73
-0.9232 5.3258 72.9732 0.101 -0.549 -0.829 82 97 100
-0.6419 5.3414 73.1138 0.151 -0.470 -0.870 65 83 87
-0.4283 5.4203 73.5532 0.667 0.330 -0.668 96 112 118
-0.3248 5.4383 73.6653 0.667 0.330 -0.668 99 118 116
1.7591 5.0149 72.0370 0.300 -0.237 -0.924 112 127 124
1.9140 5.0178 72.0866 0.300 -0.237 -0.924 113 128 124
1.9865 5.0431 72.2282 0.041 -0.466 -0.884 108 123 120
1.7794 5.2814 73.3620 0.075 0.119 -0.990 107 124 131
6.0474 4.8705 72.2880 -0.078 -0.469 -0.880 89 108 106
6.6654 4.8787 72.4678 0.439 -0.533 -0.723 113 132 129
7.8973 4.8002 72.3561 0.498 -0.282 -0.820 104 123 120
8.4089 5.1297 74.1043 0.673 0.068 -0.737 100 116 117
8.4747 5.1591 74.2647 0.458 -0.041 -0.888 108 123 125
8.6155 5.1657 74.3288 0.409 -0.055 -0.911 115 128 131
8.7452 5.1756 74.4073 0.299 -0.009 -0.954 109 122 125
8.8985 5.1783 74.4553 0.299 -0.009 -0.954 96 110 111
9.0361 5.1859 74.5236 0.299 0.006 -0.954 80 94 96
9.2423 5.1721 74.5020 0.093 -0.191 -0.977 74 89 91
9.3843 5.1782 74.5642 -0.252 -0.109 -0.962 75 90 94
9.5862 5.1657 74.5474 -0.238 -0.118 -0.964 83 98 104
10.1099 5.2039 74.8550 0.466 -0.834 -0.296 82 97 104
10.6852 5.0726 74.3342 0.077 -0.275 -0.958 87 102 107
10.8205 5.0804 74.4033 -0.238 -0.082 -0.968 92 107 110
11.4756 5.0240 74.2710 0.238 -0.415 -0.878 89 101 101
11.5924 5.0375 74.3646 0.269 -0.526 -0.807 99 111 109
11.7568 5.0358 74.3930 0.396 -0.544 -0.740 104 114 113
11.8712 5.0502 74.4901 0.539 -0.522 -0.661 99 109 108
12.8482 5.0941 74.9278 0.223 -0.968 -0.112 102 115 123
14.4827 4.6546 73.1185 0.289 0.313 -0.905 104 117 125
13.5799 5.0082 74.6673 0.001 -0.792 -0.611 103 116 124
13.7440 5.0060 74.6930 0.620 -0.779 -0.089 106 119 125
13.9266 5.0504 74.9544 0.832 -0.546 -0.101 96 109 115
13.9683 5.1433 75.4238 0.184 -0.748 -0.638 90 105 112
14.5638 5.1015 75.3509 0.035 0.122 -0.992 103 117 128
14.7642 5.0867 75.3225 0.164 0.099 -0.981 107 121 132
14.9700 5.0698 75.2854 0.202 0.118 -0.972 106 120 129
15.1652 5.0565 75.2633 0.222 0.177 -0.959 90 104 111
15.3245 5.0555 75.2944 0.202 0.188 -0.961 75 90 93
15.4824 5.0550 75.3274 0.202 0.188 -0.961 76 92 92
15.6358 5.0560 75.3671 0.134 0.174 -0.976 82 98 98
15.7908 5.0564 75.4040 0.256 0.262 -0.930 87 103 103
16.8601 5.1202 75.9607 0.209 0.082 -0.975 112 132 131
17.0945 5.1482 76.1525 0.323 -0.563 -0.761 108 128 126
17.2233 5.1581 76.2303 0.456 -0.665 -0.592 104 123 121
17.3748 5.1597 76.2724 0.312 -0.545 -0.778 88 106 105
17.3870 5.2124 76.5366 0.010 -0.828 -0.560 75 91 93
17.5460 5.2114 76.5672 0.016 -0.834 -0.552 83 97 99
18.2070 5.1973 76.6464 0.415 -0.629 -0.657 93 102 103
19.9387 4.6055 74.1041 0.005 -0.400 -0.916 101 112 114
18.4862 5.2092 76.7683 0.647 -0.553 -0.526 108 122 123
18.6091 5.2215 76.8567 0.544 -0.623 -0.561 113 129 128
18.7077 5.2430 76.9857 0.563 -0.488 -0.666 115 131 130
18.8285 5.2562 77.0782 0.563 -0.488 -0.666 119 134 137
18.9731 5.2603 77.1313 0.522 -0.626 -0.579 121 136 141
19.0934 5.2738 77.2251 0.522 -0.626 -0.579 122 137 145
19.8698 5.3343 77.6999 0.687 -0.590 -0.424 118 136 140
21.6406 4.6985 74.9487 0.301 -0.642 -0.705 112 130 132
21.9899 4.7376 75.2208 0.451 -0.526 -0.721 117 135 137
22.1998 4.7134 75.1482 0.481 -0.423 -0.768 120 138 140
22.2898 5.3559 78.3519 0.582 -0.356 -0.731 100 114 117
22.4781 5.4059 78.6421 0.206 -0.283 -0.937 88 102 105
22.6325 5.4057 78.6760 0.206 -0.283 -0.937 88 99 103
22.7288 5.4301 78.8185 0.578 -0.159 -0.800 83 94 98
22.8777 5.4323 78.8628 0.723 -0.301 -0.622 80 91 95
23.1433 5.3847 78.6867 0.521 -0.183 -0.834 80 91 96
26.9263 4.8413 76.8469 0.487 -0.467 -0.738 54 66 66
27.1687 4.8647 77.0173 0.483 -0.546 -0.685 51 62 64
27.2886 4.8771 77.1057 0.480 -0.531 -0.698 53 64 68
27.4135 4.8872 77.1839 0.480 -0.531 -0.698 64 75 77
27.5486 4.8926 77.2410 0.379 -0.654 -0.655 81 92 94
27.8288 4.8986 77.3341 0.217 -0.452 -0.865 66 80 81
28.7883 4.8588 77.3532 -0.116 -0.141 -0.983 94 106 106
29.4393 4.8246 77.3303 0.772 -0.400 -0.494 67 77 79
29.5076 4.8623 77.5325 0.190 -0.381 -0.905 86 94 97
29.6465 4.8653 77.5787 0.184 -0.385 -0.904 88 96 99
30.6572 5.0151 78.5483 0.091 -0.570 -0.817 53 56 61
30.9546 5.0115 78.5978 0.079 -0.606 -0.792 54 55 59
31.0967 5.0132 78.6379 0.082 -0.617 -0.783 54 58 57
31.2358 5.0163 78.6845 0.103 -0.598 -0.795 51 55 54
31.4296 4.9905 78.6005 0.151 -0.359 -0.921 46 50 51
32.1156 5.0101 78.8522 0.519 0.125 -0.846 50 53 60
32.2066 5.0391 79.0163 0.801 -0.185 -0.569 48 52 61
32.3098 5.0617 79.1514 0.786 -0.217 -0.579 47 51 60
32.4165 5.0824 79.2784 0.413 -0.289 -0.864 52 55 64
32.5601 5.0831 79.3138 0.330 -0.195 -0.924 55 58 65
32.7171 5.0762 79.3150 -0.114 -0.273 -0.955 53 56 63
33.9783 5.0965 79.6999 0.467 -0.145 -0.872 51 59 65
34.1002 5.1092 79.7902 0.665 -0.225 -0.713 44 53 55
34.2199 5.1233 79.8869 0.616 -0.377 -0.692 57 66 68
34.5543 5.1807 80.2469 0.592 -0.131 -0.795 43 54 55
34.8092 5.2005 80.4024 0.327 -0.105 -0.939 32 45 45
34.9387 5.2092 80.4747 0.339 -0.090 -0.937 33 49 48
35.0777 5.2122 80.5209 0.409 -0.074 -0.910 26 44 42
35.7233 5.2576 80.8912 0.041 -0.583 -0.811 93 112 108
38.0127 5.4535 82.3773 0.320 -0.806 -0.498 33 44 30
38.1163 5.4813 82.5388 0.275 -0.752 -0.599 32 42 31
39.1376 5.5739 83.2273 0.479 -0.835 -0.272 58 62 55
39.8621 5.6780 83.9063 0.197 -0.662 -0.723 59 80 55
40.0048 5.6791 83.9441 0.197 -0.662 -0.723 32 52 30
40.1533 5.6757 83.9608 0.174 -0.648 -0.741 17 34 17
40.2921 5.6797 84.0116 0.567 -0.335 -0.752 30 45 32
40.5373 5.7130 84.2318 0.300 -0.481 -0.824 27 44 29
40.6843 5.7106 84.2532 0.607 -0.587 -0.536 46 62 44
41.8109 5.8489 85.1922 0.537 -0.470 -0.701 139 155 141
41.9463 5.8563 85.2592 0.727 -0.539 -0.426 74 91 76
42.0639 5.8789 85.3977 0.748 -0.518 -0.414 43 60 44
42.4269 5.9393 85.7789 0.719 -0.249 -0.649 81 105 82
42.5578 5.9511 85.8670 0.591 -0.451 -0.669 88 112 87
44.6177 6.1893 87.5110 0.093 -0.243 -0.966 94 101 107
45.8273 6.2868 88.2666 0.813 -0.445 -0.377 99 113 116
45.9522 6.3084 88.4017 0.825 -0.421 -0.376 103 114 116
46.1761 6.3810 88.8120 0.825 -0.421 -0.376 122 133 135
46.2826 6.4242 89.0499 0.816 -0.431 -0.384 114 125 127
46.3964 6.4599 89.2522 0.837 -0.423 -0.346 103 117 118
46.8932 6.5598 89.8592 0.660 0.108 -0.743 106 122 119
48.0441 6.7658 91.1393 0.432 -0.492 -0.756 132 136 138
48.1880 6.7699 91.1919 0.438 -0.510 -0.740 96 100 101
48.3208 6.7884 91.3134 0.285 -0.517 -0.807 87 91 91
48.5999 6.8081 91.4743 0.494 -0.399 -0.773 76 81 75
48.7832 6.7592 91.2732 -0.008 -0.704 -0.710 69 74 68
48.9341 6.7532 91.2775 -0.008 -0.704 -0.710 87 92 86
51.8334 7.2882 94.5812 0.885 -0.305 -0.352 131 142 119
51.9353 7.3732 95.0253 0.938 -0.170 -0.302 130 143 119
52.0650 7.4090 95.2318 0.920 -0.250 -0.302 126 141 117
52.3164 7.4986 95.7326 0.311 0.324 -0.893 106 123 104
57.4932 5.9207 89.0807 0.196 -0.238 -0.951 97 107 96
59.5366 6.5766 92.7909 0.337 -0.842 -0.421 133 142 126
60.3677 6.5401 92.7973 0.724 -0.350 -0.595 88 99 91
60.5037 6.5534 92.8939 0.717 -0.409 -0.564 93 104 98
60.6371 6.5994 93.1516 0.575 -0.646 -0.501 105 116 110
60.7742 6.6052 93.2112 0.536 -0.602 -0.592 98 107 102
60.9109 6.6179 93.3049 0.617 -0.631 -0.471 98 107 102
61.0476 6.6315 93.4033 0.608 -0.633 -0.479 114 121 116
61.3188 6.7126 93.8663 0.648 -0.622 -0.440 108 116 104
61.4550 6.7567 94.1156 0.691 -0.622 -0.369 123 131 116
61.5928 6.7732 94.2282 0.720 -0.621 -0.310 135 144 127
61.7298 6.8246 94.5135 0.807 -0.252 -0.534 113 121 107
61.8676 6.8741 94.7899 0.848 -0.336 -0.409 101 109 98
62.5643 7.0148 95.6442 0.514 -0.690 -0.510 57 64 57
62.7048 7.0464 95.8325 0.433 -0.780 -0.451 64 71 64
62.8453 7.0704 95.9831 0.570 -0.677 -0.465 70 77 69
62.9857 7.0847 96.0853 0.631 -0.653 -0.419 72 79 71
63.1288 7.1473 96.4279 0.829 -0.318 -0.459 79 87 76
63.2700 7.1648 96.5464 0.862 -0.331 -0.384 82 90 79
63.7060 7.3523 97.5733 0.547 -0.713 -0.438 105 113 104
63.8501 7.3830 97.7581 0.558 -0.708 -0.432 83 91 80
64.5923 7.6592 99.2936 -0.164 -0.785 -0.597 94 102 89
65.1731 7.7141 99.6966 0.857 -0.467 -0.218 70 79 62
65.4733 7.7934 100.1569 0.640 -0.754 -0.145 76 82 68
-19.1004 6.7168 74.8895 0.019 -0.103 -0.995 175 220 235
-18.7848 6.6896 74.8274 -0.253 -0.489 -0.835 161 203 217
-18.4225 6.6945 74.9336 -0.201 -0.124 -0.972 111 149 158
-18.0934 6.6639 74.8580 -0.222 -0.148 -0.964 117 154 163
-13.2080 6.3668 74.5073 -0.166 -0.964 -0.206 116 150 151
-6.3526 5.8056 73.3062 -0.196 -0.349 -0.916 52 80 83
-5.9641 5.7527 73.1344 0.178 -0.013 -0.984 44 72 75
-5.5966 5.7487 73.1980 -0.137 0.267 -0.954 70 93 99
-5.3877 5.7403 73.2042 -0.026 0.093 -0.995 73 96 103
-4.8090 5.7268 73.2692 0.131 -0.149 -0.980 68 85 93
-4.6281 5.7252 73.3026 0.076 -0.175 -0.982 60 77 87
-4.2010 5.6608 73.0834 -0.097 -0.572 -0.815 77 94 104
-3.9581 5.6432 73.0518 0.185 -0.572 -0.800 92 110 120
-3.0427 5.5858 72.9778 0.039 -0.572 -0.819 80 106 103
-2.8441 5.5791 72.9896 0.161 -0.412 -0.897 70 95 91
-0.9954 5.4536 72.7926 0.383 -0.209 -0.900 70 85 91
-0.9341 5.4824 72.9481 0.427 -0.549 -0.718 74 89 96
-0.7984 5.4915 73.0239 0.409 -0.538 -0.737 64 81 88
-0.7175 5.5153 73.1590 0.864 -0.301 -0.403 64 81 88
-0.4491 5.5346 73.3146 0.508 -0.848 -0.151 78 95 103
2.0202 5.1845 72.1552 0.041 -0.466 -0.884 105 117 115
2.1801 5.1861 72.1994 -0.104 -0.463 -0.880 106 117 119
1.5980 5.4377 73.3036 0.306 -0.622 -0.720 120 134 142
1.6607 5.4668 73.4607 0.315 -0.627 -0.713 108 125 133
5.7394 5.0142 72.1629 0.054 -0.338 -0.940 102 120 121
5.9946 5.0340 72.3179 0.068 -0.707 -0.704 100 118 118
6.3493 5.0249 72.3536 0.551 -0.477 -0.685 93 111 110
8.2720 5.2718 74.0035 0.510 0.214 -0.833 77 91 90
8.4479 5.2675 74.0221 0.664 0.174 -0.727 88 103 101
8.5575 5.2836 74.1259 0.664 0.174 -0.727 86 98 96
9.4788 5.2985 74.4084 -0.284 -0.502 -0.817 69 83 84
9.7021 5.2789 74.3628 -0.308 -0.494 -0.813 74 87 91
9.9412 5.2542 74.2957 0.341 -0.871 -0.354 77 90 96
10.5145 5.2760 74.5331 0.056 -0.923 -0.381 87 102 107
10.7355 5.3081 74.7406 -0.129 -0.878 -0.461 85 99 100
12.4304 4.8124 72.6901 0.150 -0.537 -0.830 78 92 92
12.5760 4.8156 72.7390 0.245 -0.451 -0.858 79 91 91
11.7983 5.1705 74.3059 0.086 -0.361 -0.929 94 107 104
11.8809 5.1953 74.4467 0.543 -0.532 -0.650 98 110 110
13.7453 5.1531 74.6623 0.766 -0.597 -0.237 105 120 125
13.8967 5.2085 74.9690 0.812 -0.526 -0.252 101 116 123
14.7553 5.2377 75.3075 0.060 0.074 -0.995 110 126 138
14.9169 5.2361 75.3363 0.106 0.050 -0.993 115 132 141
15.1269 5.2175 75.2926 0.247 0.085 -0.965 113 130 136
15.3037 5.2104 75.2978 0.227 0.077 -0.971 128 146 149
15.4377 5.2183 75.3670 0.233 0.077 -0.969 126 144 144
15.5893 5.2200 75.4097 0.162 0.061 -0.985 119 137 137
15.7597 5.2150 75.4237 0.209 0.044 -0.977 118 133 136
15.9780 5.2485 75.6379 0.616 0.516 -0.596 95 110 117
17.1519 5.2752 76.0355 0.472 0.110 -0.875 113 130 129
17.2841 5.2838 76.1079 0.472 0.110 -0.875 115 131 130
17.4238 5.2896 76.1683 0.293 0.068 -0.954 109 124 124
17.5823 5.2885 76.1988 0.284 0.054 -0.957 98 110 113
17.7434 5.2864 76.2249 0.309 0.040 -0.950 90 101 102
19.8387 4.7295 73.9645 -0.006 -0.313 -0.950 95 104 103
20.0082 4.7220 73.9660 -0.006 -0.313 -0.950 105 116 115
18.5247 5.3429 76.6797 0.641 -0.559 -0.526 117 132 130
18.6252 5.3637 76.8050 0.664 -0.535 -0.523 123 139 136
18.7222 5.3860 76.9365 0.574 -0.501 -0.647 120 136 135
18.8770 5.3862 76.9726 0.572 -0.493 -0.656 122 137 139
19.0438 5.3817 76.9885 0.689 -0.574 -0.443 117 132 138
19.1112 5.4157 77.1705 0.498 -0.584 -0.641 120 134 143
20.9985 4.8008 74.5781 0.238 -0.650 -0.721 113 127 138
21.5712 4.8103 74.7547 0.148 -0.594 -0.791 119 137 141
21.7273 4.8075 74.7762 0.161 -0.629 -0.761 110 128 130
22.2448 4.8386 75.0468 0.311 -0.688 -0.656 115 133 135
22.1156 5.5133 78.3323 0.389 -0.538 -0.748 105 120 123
22.2988 5.5010 78.3135 0.542 -0.449 -0.711 102 117 120
22.4171 5.5159 78.4137 0.514 -0.451 -0.730 108 122 125
22.5429 5.5278 78.5003 0.517 -0.458 -0.723 82 96 97
22.6404 5.5516 78.6397 0.457 -0.641 -0.617 81 95 96
22.7614 5.5657 78.7361 0.244 -0.627 -0.740 83 94 96
22.8807 5.5804 78.8359 0.579 -0.734 -0.355 78 89 91
23.1383 5.5358 78.6751 0.412 -0.581 -0.702 82 93 95
24.8652 5.5838 79.3030 0.165 -0.641 -0.750 76 86 88
26.6011 4.9996 76.8265 0.470 -0.545 -0.694 76 86 88
26.8999 4.9973 76.8830 0.474 -0.435 -0.765 54 64 65
27.1442 5.0201 77.0503 0.443 -0.392 -0.807 50 59 64
27.2844 5.0231 77.0970 0.429 -0.433 -0.793 61 70 75
27.4037 5.0359 77.1869 0.362 -0.457 -0.813 63 73 75
27.5556 5.0334 77.2094 0.367 -0.472 -0.802 70 80 82
27.8320 5.0413 77.3106 0.181 -0.383 -0.906 65 80 81
28.7917 5.0009 77.3303 -0.125 -0.137 -0.983 86 97 99
29.1056 4.9895 77.3456 0.114 -0.267 -0.957 84 93 95
29.5445 4.9876 77.4359 0.137 -0.543 -0.829 62 70 73
30.1871 5.1026 78.1465 0.421 -0.398 -0.815 70 73 78
30.2791 5.1299 78.3019 0.213 -0.414 -0.885 66 69 76
30.3822 5.1517 78.4324 0.197 -0.516 -0.834 63 66 72
30.5320 5.1495 78.4553 0.259 -0.435 -0.862 63 66 71
30.6865 5.1447 78.4670 0.416 -0.346 -0.841 58 62 65
30.8463 5.1371 78.4658 0.486 -0.291 -0.824 71 75 77
31.6156 5.1130 78.5219 0.338 -0.537 -0.773 47 51 54
32.0550 5.1880 78.9901 0.748 -0.464 -0.475 54 57 66
32.5898 5.2120 79.2294 0.049 -0.550 -0.834 51 54 61
32.7292 5.2147 79.2747 -0.132 -0.498 -0.857 50 53 60
32.8259 5.2416 79.4284 0.453 -0.295 -0.841 51 54 61
34.5713 5.3168 80.1944 0.603 -0.141 -0.785 50 58 60
34.9465 5.3510 80.4477 0.391 -0.058 -0.919 33 47 46
35.0869 5.3532 80.4901 0.373 -0.159 -0.914 27 43 42
36.7955 5.5490 81.8401 0.646 0.117 -0.755 68 88 76
36.9167 5.5643 81.9427 0.647 0.086 -0.758 69 87 75
37.0374 5.5800 82.0474 0.647 0.086 -0.758 41 59 47
37.2739 5.5179 81.7957 0.184 -0.470 -0.863 49 65 54
37.4117 5.5218 81.8462 0.257 -0.469 -0.845 41 54 45
37.5523 5.5238 81.8878 0.257 -0.469 -0.845 111 123 113
37.9163 5.5695 82.1953 0.401 -0.753 -0.521 67 75 60
38.2032 5.5696 82.2607 -0.023 -0.927 -0.375 31 42 28
40.0308 5.8105 83.8592 0.243 -0.672 -0.699 54 88 60
40.1746 5.8105 83.8921 0.272 -0.597 -0.755 75 103 82
40.3082 5.8186 83.9619 0.567 -0.335 -0.752 61 83 67
40.5530 5.8524 84.1839 0.281 -0.465 -0.840 30 48 33
40.7053 5.8457 84.1855 0.413 -0.468 -0.782 27 42 27
41.8330 5.9836 85.1189 0.537 -0.470 -0.701 64 80 70
41.9824 5.9791 85.1306 0.742 -0.528 -0.414 51 65 54
42.2070 6.0338 85.4502 0.847 -0.232 -0.478 117 132 114
42.3362 6.0469 85.5440 0.864 -0.116 -0.490 121 138 117
42.4406 6.0818 85.7393 0.719 -0.249 -0.649 73 95 70
44.3768 6.4426 87.9515 0.206 -0.970 -0.126 103 111 114
45.9594 6.4608 88.4000 0.805 -0.337 -0.489 73 84 88
46.0818 6.4856 88.5497 0.809 -0.383 -0.446 56 67 69
46.1982 6.5175 88.7330 0.812 -0.371 -0.451 39 50 52
46.5563 6.6059 89.2488 0.693 -0.467 -0.550 83 99 99
46.9223 6.6891 89.7405 0.611 -0.631 -0.478 103 119 116
47.4377 6.7726 90.2678 0.762 -0.033 -0.646 117 126 125
53.1804 7.7561 96.4036 0.105 -0.718 -0.688 95 111 107
54.2194 8.1439 98.5446 0.684 -0.583 -0.438 91 103 103
54.3530 8.1906 98.8046 0.754 -0.562 -0.340 100 110 111
60.3850 6.6734 92.7195 0.718 -0.445 -0.535 104 115 107
60.9278 6.7573 93.2545 0.554 -0.559 -0.617 102 111 106
61.0640 6.7784 93.3895 0.539 -0.647 -0.539 112 119 113
61.3360 6.8469 93.7878 0.602 -0.677 -0.424 107 115 102
61.7472 6.9547 94.4105 0.782 -0.317 -0.536 94 102 87
61.8847 7.0146 94.7363 0.796 -0.436 -0.421 82 90 77
62.3019 7.1154 95.3262 0.778 -0.457 -0.430 79 84 77
62.5816 7.1602 95.6097 0.625 -0.518 -0.585 67 72 65
62.7221 7.1925 95.8001 0.607 -0.532 -0.590 78 83 76
62.8624 7.2068 95.9025 0.630 -0.499 -0.595 71 78 70
63.0032 7.2313 96.0550 0.637 -0.465 -0.615 71 78 70
63.1454 7.2749 96.3013 0.828 -0.318 -0.462 77 84 76
63.7176 7.4253 97.1702 0.747 -0.516 -0.419 89 96 88
63.8623 7.4676 97.4108 0.520 -0.697 -0.493 90 97 89
65.0294 7.7391 99.0097 0.712 -0.611 -0.345 88 97 78
65.7757 7.9258 100.0963 0.399 -0.892 -0.211 71 76 68
66.0934 8.0790 100.9214 0.425 -0.825 -0.373 95 101 99
66.2374 8.0773 100.9458 0.550 -0.767 -0.331 94 100 95
63.9764 -3.4980 43.5593 0.063 0.799 -0.598 96 102 103
-19.1310 6.8924 74.8708 0.019 -0.103 -0.995 108 152 164
-18.7070 6.8406 74.7154 -0.253 -0.489 -0.835 111 152 162
-18.6700 6.8753 74.8931 -0.242 -0.157 -0.957 118 156 165
-16.8656 6.7697 74.7911 0.347 -0.205 -0.915 128 161 166
-16.1621 6.7389 74.8018 -0.181 -0.607 -0.774 126 159 164
-6.8679 6.0040 73.3467 -0.119 -0.776 -0.619 86 114 121
-4.1028 5.7917 72.9443 -0.111 -0.212 -0.971 71 89 102
-2.7923 5.7206 72.8977 0.125 -0.434 -0.892 70 94 100
-1.6780 5.6528 72.8222 -0.071 -0.138 -0.988 75 89 98
-1.4444 5.6361 72.7941 -0.074 -0.120 -0.990 76 90 99
-0.9907 5.6059 72.7506 0.086 -0.201 -0.976 73 91 98
-0.9081 5.6292 72.8832 0.397 -0.554 -0.732 68 86 93
-0.7767 5.6395 72.9636 0.396 -0.546 -0.739 66 85 93
-0.6809 5.6595 73.0826 0.858 -0.347 -0.378 69 87 97
-0.3730 5.6681 73.1949 0.541 -0.833 -0.115 88 106 116
-0.0845 5.7282 73.5539 0.196 -0.967 -0.164 108 126 122
1.5704 5.5982 73.2990 0.716 -0.445 -0.538 102 116 125
1.6477 5.6235 73.4397 0.712 -0.443 -0.545 105 119 128
5.2432 5.5471 73.8899 0.313 -0.443 -0.840 119 137 140
5.4570 5.5326 73.8681 0.178 -0.313 -0.933 118 136 139
7.8637 5.1046 72.3331 0.148 -0.508 -0.849 112 128 127
8.6017 5.0742 72.3534 0.169 -0.449 -0.878 97 113 110
8.7938 5.0640 72.3479 0.224 -0.408 -0.885 95 111 108
8.3701 5.3913 73.8458 0.366 -0.092 -0.926 74 86 82
9.1231 5.4587 74.3465 -0.012 -0.557 -0.831 71 78 74
9.4661 5.4523 74.3936 -0.231 -0.581 -0.780 68 78 77
9.6685 5.4392 74.3759 -0.272 -0.623 -0.733 65 75 76
10.3949 5.4123 74.4109 0.358 -0.900 -0.250 87 100 106
12.5768 4.9604 72.7082 0.185 -0.500 -0.846 75 89 89
11.5692 5.3418 74.3359 0.031 -0.435 -0.900 81 97 96
11.7286 5.3416 74.3716 0.156 -0.308 -0.939 93 109 108
11.9209 5.3305 74.3615 0.197 -0.421 -0.885 95 111 110
12.0937 5.3257 74.3778 0.031 -0.442 -0.897 100 116 116
12.3720 5.2859 74.2474 -0.106 -0.270 -0.957 103 119 119
12.6695 5.2919 74.3448 0.059 -0.009 -0.998 100 115 118
14.0730 5.3500 74.9487 0.965 0.089 -0.246 99 113 122
14.5502 5.4027 75.3145 0.077 0.096 -0.992 86 104 116
14.7229 5.3972 75.3273 0.077 0.096 -0.992 83 101 112
14.8944 5.3921 75.3417 0.106 0.050 -0.993 110 129 136
15.1132 5.3702 75.2851 0.230 0.089 -0.969 135 154 159
15.2805 5.3664 75.3048 0.227 0.077 -0.971 139 157 159
15.4147 5.3743 75.3739 0.233 0.077 -0.969 141 159 159
15.5666 5.3759 75.4164 0.227 0.079 -0.971 136 154 154
16.0068 5.4425 75.8416 0.494 0.554 -0.670 75 88 97
16.2345 5.4166 75.7677 -0.034 0.217 -0.976 83 96 105
16.3675 5.4250 75.8390 0.047 0.195 -0.980 89 103 111
16.5009 5.4333 75.9099 -0.145 -0.059 -0.988 90 105 112
16.7466 5.4005 75.8059 -0.127 -0.106 -0.986 89 104 108
17.4746 5.4187 76.0614 0.585 -0.545 -0.600 116 128 129
17.9008 5.4335 76.2308 -0.088 -0.796 -0.599 116 122 122
19.6953 4.8700 73.8957 0.047 -0.199 -0.979 106 112 109
18.9587 5.5031 76.8119 0.618 -0.424 -0.662 115 131 132
19.1003 5.5082 76.8694 0.673 -0.590 -0.446 114 129 134
19.2221 5.5211 76.9600 0.659 -0.567 -0.495 115 130 137
19.2832 5.6188 77.4501 0.734 0.127 -0.667 110 125 132
21.1415 4.9465 74.5992 0.159 -0.524 -0.837 115 130 135
19.5864 5.6218 77.5341 -0.080 0.343 -0.936 117 132 137
21.3979 4.9632 74.7388 0.315 -0.527 -0.790 121 136 140
19.8358 5.6462 77.7099 0.658 -0.185 -0.730 122 140 143
21.3826 5.5830 77.7559 0.320 -0.925 -0.205 118 133 138
22.6930 5.4829 77.5673 0.845 -0.071 -0.531 106 121 124
22.8068 5.4992 77.6729 0.906 0.109 -0.408 105 121 121
22.7555 5.7176 78.7256 0.637 -0.763 -0.113 80 91 93
22.9123 5.7163 78.7551 0.578 -0.805 -0.138 78 90 91
23.2041 5.6564 78.5300 0.465 -0.566 -0.680 77 88 91
25.2220 5.0364 75.9704 0.628 -0.219 -0.746 70 79 86
25.3781 5.0324 75.9865 0.502 -0.437 -0.747 36 45 52
25.5023 5.0425 76.0640 0.502 -0.437 -0.747 65 74 81
25.6053 5.0621 76.1830 0.315 -0.434 -0.844 98 107 114
25.7370 5.0689 76.2465 0.112 -0.577 -0.809 97 106 111
25.1138 5.6892 79.1265 0.290 -0.416 -0.862 76 86 88
25.3417 5.6544 79.0087 0.334 0.096 -0.938 78 88 90
26.9427 5.1214 76.7780 0.511 -0.472 -0.718 56 64 67
27.1485 5.1622 77.0240 0.309 -0.677 -0.668 50 57 63
27.2807 5.1690 77.0872 0.345 -0.716 -0.607 67 74 80
27.3905 5.1864 77.1972 0.306 -0.712 -0.632 69 76 82
27.8934 5.1562 77.1648 0.264 -0.817 -0.512 67 82 83
28.2736 5.1842 77.3882 -0.042 -0.186 -0.982 57 73 73
28.4393 5.1746 77.3796 -0.182 -0.416 -0.891 62 76 77
28.7717 5.1546 77.3579 -0.272 -0.501 -0.822 75 86 90
29.5325 5.1373 77.4478 0.335 -0.540 -0.772 68 76 78
29.6929 5.1295 77.4464 0.679 -0.396 -0.618 84 92 94
30.3958 5.2897 78.3877 0.181 -0.542 -0.821 76 79 84
30.7017 5.2817 78.4186 0.182 -0.531 -0.828 68 72 74
30.8641 5.2726 78.4115 0.459 -0.282 -0.842 71 75 74
31.0281 5.2625 78.3998 0.050 -0.319 -0.946 48 53 50
31.5083 5.2376 78.3885 0.338 -0.537 -0.773 49 53 52
31.6432 5.2427 78.4439 0.338 -0.537 -0.773 53 57 60
32.5982 5.3527 79.1983 0.128 -0.532 -0.837 55 58 65
34.9099 5.5202 80.5432 -0.078 -0.435 -0.897 34 46 46
36.4859 5.5226 80.9152 0.823 -0.257 -0.506 17 36 34
36.5420 5.5797 81.2064 0.849 -0.218 -0.482 33 50 47
36.6425 5.6080 81.3674 0.844 -0.228 -0.485 39 58 51
36.8441 5.6651 81.6917 0.844 -0.228 -0.485 49 66 55
36.9299 5.7041 81.9014 0.844 -0.234 -0.483 64 81 70
37.0560 5.7163 81.9897 0.833 -0.272 -0.482 71 87 76
37.3132 5.6395 81.6741 0.386 -0.731 -0.563 42 58 47
38.2001 5.6197 81.7806 -0.101 -0.763 -0.638 57 68 52
39.0006 5.7636 82.6647 0.062 -0.899 -0.433 82 101 86
40.8086 6.0305 84.3787 0.369 -0.233 -0.900 111 126 109
40.9319 6.0473 84.4888 0.426 -0.222 -0.877 81 82 72
41.8552 6.1183 85.0457 0.537 -0.470 -0.701 52 66 55
42.0131 6.1063 85.0235 0.742 -0.528 -0.414 74 86 75
42.2158 6.1803 85.4304 0.842 -0.235 -0.485 207 220 202
42.6730 6.1581 85.4267 -0.047 -0.646 -0.762 75 97 74
44.3114 6.5215 87.5724 0.092 -0.989 -0.119 70 81 83
45.8543 6.5774 88.1973 0.828 -0.243 -0.505 73 84 90
45.9849 6.5931 88.3038 0.819 -0.358 -0.449 73 84 87
46.2231 6.6507 88.6391 0.822 -0.371 -0.432 57 68 70
46.3421 6.6803 88.8103 0.821 -0.362 -0.441 58 69 71
50.5231 7.1196 91.9071 0.845 -0.300 -0.443 125 130 123
52.0714 7.4828 94.0310 0.623 -0.443 -0.645 96 107 88
52.1109 7.6864 95.0319 0.870 -0.289 -0.400 109 122 103
52.3713 7.7595 95.4478 0.104 0.206 -0.973 105 122 104
52.5011 7.7982 95.6662 0.097 0.175 -0.980 109 126 110
52.6444 7.8110 95.7611 0.330 0.166 -0.929 115 131 118
52.9087 7.8833 96.1740 0.915 -0.347 -0.206 121 137 126
53.0391 7.9246 96.4052 0.846 -0.256 -0.468 117 133 124
53.1749 7.9556 96.5870 0.839 -0.264 -0.476 106 123 117
53.8658 8.0964 97.4311 0.879 -0.418 -0.228 75 91 89
53.9729 8.2007 97.9641 0.869 -0.414 -0.273 74 88 89
54.2495 8.2669 98.3499 0.655 -0.669 -0.351 76 90 90
58.6039 6.1645 89.1013 0.577 -0.728 -0.370 122 129 121
59.8711 6.6635 91.8224 0.626 -0.425 -0.654 107 114 105
61.4899 7.0142 93.9017 0.721 -0.541 -0.434 120 128 112
61.6272 7.0421 94.0687 0.719 -0.548 -0.427 112 121 104
61.7647 7.0741 94.2562 0.692 -0.579 -0.431 89 97 82
62.1796 7.1966 94.9481 0.745 -0.614 -0.261 78 84 72
62.7391 7.3244 95.6987 0.607 -0.532 -0.590 83 89 79
62.8795 7.3459 95.8355 0.514 -0.670 -0.536 70 76 66
63.0203 7.3687 95.9789 0.512 -0.677 -0.529 65 73 62
63.1631 7.4260 96.2907 0.726 -0.632 -0.270 66 73 65
63.7338 7.5533 97.0415 0.747 -0.516 -0.419 63 70 62
63.8778 7.5901 97.2540 0.520 -0.697 -0.493 81 88 80
64.8950 7.8173 98.5937 0.712 -0.611 -0.345 87 95 79
65.0431 7.8583 98.8271 0.712 -0.611 -0.345 81 90 73
65.1922 7.9018 99.0734 0.777 -0.585 -0.230 75 84 66
65.3438 7.9571 99.3775 0.769 -0.598 -0.227 67 74 59
65.9490 8.1344 100.3796 0.351 -0.896 -0.273 92 97 91
66.1135 8.2371 100.9176 0.522 -0.818 -0.241 102 108 104
63.9293 -3.4230 43.6023 0.028 0.771 -0.636 106 114 100
-4.4475 3.4398 60.7070 -0.062 -0.010 -0.998 145 190 220
-19.1084 7.0562 74.8064 0.038 -0.083 -0.996 124 165 175
-17.5642 6.9229 74.5181 -0.008 -0.068 -0.998 129 165 176
-17.3430 6.9158 74.5347 -0.003 -0.078 -0.997 132 165 176
-16.9930 6.8791 74.4381 -0.037 -0.080 -0.996 130 163 174
-16.8437 6.8884 74.5171 -0.092 -0.400 -0.912 130 164 174
-16.5247 6.8585 74.4463 0.255 -0.401 -0.880 128 162 171
-6.2389 5.9597 72.4720 0.527 -0.585 -0.617 89 113 123
-6.7478 6.1322 73.1882 -0.118 -0.776 -0.619 88 115 124
-5.3612 6.0030 72.8834 -0.056 -0.707 -0.705 75 99 109
-5.1592 5.9959 72.8959 -0.036 -0.700 -0.713 66 88 101
-4.3569 5.9686 72.9485 -0.105 -0.715 -0.691 64 81 96
-0.4159 5.7415 72.7591 0.221 -0.429 -0.876 71 91 102
-0.1868 5.7252 72.7328 0.425 -0.788 -0.445 83 103 113
0.0692 5.7014 72.6767 0.332 -0.869 -0.367 93 113 122
1.6041 5.7417 73.2253 0.716 -0.445 -0.538 95 108 116
1.7252 5.7548 73.3165 0.687 -0.479 -0.547 119 134 141
6.1156 5.2952 72.1064 -0.091 -0.467 -0.880 75 92 100
6.3265 5.2804 72.0838 -0.092 -0.530 -0.843 77 94 101
6.7465 5.2511 72.0390 0.198 -0.723 -0.661 115 132 139
5.3289 5.7224 73.9898 0.356 -0.174 -0.918 114 131 138
6.8764 5.5521 73.5232 0.205 -0.231 -0.951 112 128 127
7.0949 5.5350 73.4911 0.430 -0.059 -0.901 113 129 128
7.1660 5.5628 73.6420 0.423 -0.131 -0.896 112 126 126
7.3499 5.5563 73.6525 0.407 -0.116 -0.906 108 122 122
8.0999 5.5246 73.6722 -0.321 0.087 -0.943 85 102 96
8.2563 5.5262 73.7158 -0.053 0.263 -0.963 74 89 84
8.4060 5.5297 73.7677 0.402 -0.036 -0.915 76 88 84
8.5717 5.5284 73.7992 0.915 0.163 -0.368 86 97 93
8.8042 5.6075 74.2351 0.943 0.090 -0.320 71 75 72
8.8961 5.6295 74.3629 0.670 0.084 -0.737 70 75 72
9.1650 5.5954 74.2600 -0.006 -0.552 -0.834 69 75 72
9.4389 5.5595 74.1494 -0.118 -0.658 -0.744 68 75 73
9.5374 5.5794 74.2682 -0.246 -0.540 -0.805 64 73 72
12.0412 5.4388 74.1656 0.394 -0.387 -0.834 90 106 106
12.1103 5.4685 74.3250 0.275 -0.446 -0.852 97 113 113
12.3610 5.4375 74.2328 -0.050 -0.182 -0.982 101 117 117
12.6522 5.4457 74.3395 -0.175 -0.242 -0.954 94 110 109
14.6949 5.5555 75.3407 0.003 -0.163 -0.987 76 94 104
14.9459 5.5221 75.2371 0.222 -0.576 -0.787 98 117 123
15.1322 5.5115 75.2288 0.173 -0.586 -0.792 111 128 132
15.2873 5.5119 75.2668 0.160 -0.496 -0.853 96 112 112
15.4390 5.5136 75.3097 0.145 -0.504 -0.852 78 94 94
15.5956 5.5134 75.3450 0.122 -0.538 -0.834 68 84 84
15.6668 5.5441 75.5095 0.265 0.057 -0.963 71 86 91
15.8760 5.5816 75.7391 0.483 0.554 -0.678 93 107 118
15.9741 5.6029 75.8644 0.490 0.551 -0.676 98 112 123
16.5433 5.5660 75.8172 -0.115 0.183 -0.976 92 105 114
16.7505 5.5470 75.7731 -0.122 -0.085 -0.989 81 94 101
16.9034 5.5479 75.8130 0.461 -0.692 -0.555 86 97 101
17.0254 5.5604 75.9012 0.378 -0.763 -0.525 89 100 102
20.0421 4.9945 73.8615 0.120 0.003 -0.993 115 126 121
20.1763 5.0003 73.9206 0.341 -0.104 -0.934 119 132 127
20.4208 5.0212 74.0778 0.625 -0.345 -0.701 104 120 117
19.0707 5.6683 76.8938 0.755 -0.462 -0.465 109 124 127
19.2501 5.6586 76.8885 0.732 -0.471 -0.492 109 124 129
19.2106 5.7354 77.2502 0.897 -0.187 -0.400 107 122 127
19.2899 5.7655 77.4140 0.897 -0.187 -0.400 105 120 123
21.2434 5.0493 74.4030 0.269 -0.264 -0.926 109 124 127
19.4956 5.8074 77.6642 -0.232 -0.053 -0.971 111 126 129
21.5542 5.1037 74.7375 0.299 -0.478 -0.826 125 143 144
21.7798 5.0727 74.6396 0.205 -0.426 -0.881 117 135 135
21.3751 5.7348 77.7464 0.114 -0.920 -0.374 113 128 133
22.8291 5.8353 78.5666 0.185 -0.978 -0.095 71 82 84
25.4006 5.1658 75.9236 0.502 -0.437 -0.747 32 39 47
25.5248 5.1759 76.0011 0.502 -0.437 -0.747 54 61 69
25.6272 5.1959 76.1212 0.324 -0.428 -0.844 61 68 76
25.7715 5.1970 76.1598 0.112 -0.577 -0.809 57 67 70
25.1477 5.8226 79.0396 0.320 0.097 -0.943 76 86 88
25.3223 5.8120 79.0287 0.323 0.083 -0.943 78 88 90
27.0943 5.2630 76.7833 0.315 -0.707 -0.633 42 49 55
27.2030 5.2808 76.8945 0.317 -0.677 -0.664 45 52 58
27.3213 5.2941 76.9861 0.333 -0.717 -0.613 59 66 74
27.4532 5.3010 77.0498 0.218 -0.734 -0.643 67 74 82
27.8583 5.2469 76.8819 0.498 -0.743 -0.448 67 75 81
28.1200 5.3322 77.3543 -0.003 -0.045 -0.999 61 77 77
28.3049 5.3133 77.3052 -0.127 -0.269 -0.955 62 78 78
28.4691 5.3043 77.2997 -0.283 -0.178 -0.942 66 80 81
29.1604 5.1776 76.8469 0.672 -0.320 -0.668 76 86 88
29.6039 5.2450 77.2748 0.679 -0.396 -0.618 90 95 98
29.7141 5.2625 77.3845 0.679 -0.396 -0.618 102 107 110
29.8319 5.2761 77.4776 0.484 -0.445 -0.754 97 102 105
37.0534 5.8671 81.9969 0.558 -0.575 -0.598 71 84 74
38.7757 5.8681 82.3985 0.287 -0.840 -0.460 57 79 61
38.9196 5.8674 82.4284 0.225 -0.849 -0.478 58 75 64
39.0632 5.8669 82.4592 0.062 -0.899 -0.433 51 76 69
39.1834 5.8838 82.5683 0.039 -0.861 -0.507 10 48 38
41.0617 6.2119 84.5866 0.418 -0.205 -0.885 61 80 60
41.2175 6.2021 84.5754 0.573 -0.288 -0.767 53 77 54
41.3769 6.1892 84.5494 0.443 -0.474 -0.761 58 78 54
41.5196 6.1900 84.5864 -0.002 -0.773 -0.634 65 85 65
41.7503 6.2384 84.8734 0.447 -0.179 -0.877 65 82 65
41.8692 6.2599 85.0046 0.517 -0.148 -0.843 92 106 92
44.6706 6.6105 87.3442 0.661 -0.118 -0.741 93 104 106
46.2402 6.7927 88.5865 0.828 -0.363 -0.427 89 99 100
46.3550 6.8273 88.7800 0.828 -0.363 -0.427 83 93 94
46.4702 6.8620 88.9741 0.828 -0.363 -0.427 84 95 96
46.7397 6.8870 89.1570 0.682 -0.421 -0.598 83 98 97
51.9268 7.6562 94.0695 0.870 0.365 -0.331 107 114 101
53.9062 8.1948 97.1282 0.883 -0.329 -0.336 75 91 90
54.0155 8.2938 97.6317 0.665 -0.714 -0.217 80 96 96
54.1480 8.3399 97.8853 0.665 -0.714 -0.217 86 100 101
54.2853 8.3752 98.0876 0.638 -0.699 -0.322 80 94 94
58.4879 6.2926 88.9910 0.478 0.331 -0.814 131 139 126
62.1967 7.3064 94.7447 0.692 -0.690 -0.212 95 101 87
62.3360 7.3634 95.0524 0.762 -0.574 -0.301 104 110 98
62.7559 7.4522 95.5782 0.654 -0.508 -0.560 91 97 85
62.8956 7.4566 95.6316 0.455 -0.665 -0.592 79 87 74
63.1797 7.5534 96.1646 0.743 -0.596 -0.304 64 72 61
63.3214 7.5812 96.3318 0.730 -0.592 -0.341 63 71 60
63.4639 7.6160 96.5327 0.713 -0.624 -0.318 61 69 56
63.8934 7.7124 97.0975 0.520 -0.697 -0.493 81 89 78
64.7796 8.0291 98.8323 0.362 -0.044 -0.931 94 102 87
64.9222 8.0292 98.8656 0.723 -0.149 -0.674 91 99 85
65.0663 8.0402 98.9519 0.718 -0.166 -0.676 78 84 71
65.6571 8.1590 99.6622 0.396 -0.684 -0.613 67 73 63
63.9425 -3.3372 43.7097 -0.048 0.726 -0.686 105 113 99
-4.8363 3.6276 60.8287 0.008 -0.025 -1.000 147 188 211
-19.6108 7.2518 74.7727 0.245 -0.615 -0.749 120 160 170
-19.4177 7.2517 74.8170 0.089 -0.664 -0.743 122 162 172
-19.1394 7.2321 74.7879 0.086 -0.690 -0.719 125 163 174
-18.4140 7.1979 74.7920 -0.160 -0.610 -0.776 130 168 179
-12.5690 6.7505 74.0037 0.050 -0.334 -0.941 40 70 80
-12.3542 6.7431 74.0177 0.050 -0.334 -0.941 42 74 85
-11.5612 6.6840 73.9188 -0.342 -0.035 -0.939 43 73 79
-8.6206 6.2719 72.6253 -0.069 -0.664 -0.744 76 101 98
-7.0301 6.0515 71.9381 0.113 -0.368 -0.923 74 99 96
-6.8394 6.0475 71.9631 0.113 -0.368 -0.923 68 93 90
-6.6481 6.0433 71.9874 0.124 -0.375 -0.919 78 104 103
-7.0467 6.2321 72.7998 0.146 -0.157 -0.977 67 92 96
-6.1200 6.0862 72.3154 0.491 -0.617 -0.615 84 109 115
-6.6043 6.2539 73.0068 0.047 -0.249 -0.967 72 99 106
-6.1512 6.2279 72.9875 -0.306 -0.304 -0.902 71 100 106
-5.4226 6.1307 72.6908 -0.117 -0.758 -0.642 85 112 119
-3.4152 6.0592 72.8135 0.529 -0.361 -0.768 79 103 115
-3.0869 6.0179 72.6917 0.562 -0.363 -0.743 79 105 117
0.0066 5.9182 72.9315 0.572 -0.603 -0.556 102 122 127
1.7705 5.8476 73.0024 0.686 -0.680 -0.258 106 119 125
3.7651 5.5614 72.0931 0.575 -0.115 -0.810 104 128 130
4.1865 5.5813 72.2866 0.135 -0.211 -0.968 102 126 126
4.3199 5.5901 72.3593 0.138 -0.155 -0.978 96 117 120
4.5014 5.5848 72.3761 0.136 -0.181 -0.974 99 120 125
6.5750 5.4022 71.9823 -0.020 -0.429 -0.903 95 112 119
5.2421 5.8509 73.8234 0.433 -0.420 -0.798 117 134 141
5.3569 5.8659 73.9220 0.242 -0.234 -0.942 116 133 140
5.5394 5.8605 73.9384 0.118 -0.091 -0.989 111 129 133
7.0790 5.7399 73.7176 0.172 -0.416 -0.893 111 125 125
7.2297 5.7435 73.7701 0.179 -0.424 -0.888 108 122 122
7.6673 5.7084 73.7031 -0.148 -0.233 -0.961 104 123 119
8.1158 5.6693 73.6197 -0.310 -0.100 -0.945 82 99 93
8.2558 5.6760 73.6842 0.060 0.158 -0.986 74 89 86
9.2261 5.7259 74.1485 -0.112 -0.470 -0.875 71 78 78
9.4515 5.7051 74.1014 -0.120 -0.479 -0.870 69 77 78
9.6682 5.6870 74.0648 -0.371 -0.489 -0.789 72 81 82
12.0637 5.5794 74.1046 0.389 -0.398 -0.831 109 123 126
12.2058 5.5846 74.1629 0.274 -0.340 -0.900 110 124 125
12.4050 5.5706 74.1420 0.063 -0.087 -0.994 112 126 126
12.4797 5.5987 74.2940 0.030 -0.345 -0.938 100 114 112
12.6584 5.5916 74.3012 0.003 -0.332 -0.943 93 107 102
12.8170 5.5912 74.3362 -0.056 -0.328 -0.943 91 104 99
12.9784 5.5899 74.3671 0.651 0.084 -0.755 92 106 101
14.8961 5.6881 75.2831 -0.028 -0.185 -0.982 87 105 110
15.0847 5.6766 75.2717 0.311 0.190 -0.931 80 94 98
15.2461 5.6749 75.3007 0.411 0.306 -0.859 74 87 88
15.3747 5.6849 75.3785 0.429 0.298 -0.853 81 92 94
15.5086 5.6930 75.4486 0.429 0.298 -0.853 84 96 97
15.6543 5.6969 75.5009 0.451 0.307 -0.838 77 90 96
15.7697 5.7118 75.5992 0.458 0.302 -0.836 93 106 115
15.9814 5.7488 75.8259 0.450 0.533 -0.717 110 124 135
16.2012 5.7254 75.7645 -0.104 -0.039 -0.994 105 119 128
16.3078 5.7438 75.8772 0.089 -0.274 -0.957 98 112 123
16.5094 5.7268 75.8428 -0.120 -0.208 -0.971 86 100 110
16.6429 5.7352 75.9138 -0.314 -0.668 -0.674 77 90 98
19.1871 5.8322 76.9690 0.589 -0.806 -0.060 82 100 100
21.8028 5.2065 74.5770 0.207 -0.435 -0.876 113 131 131
21.4718 5.8431 77.5513 0.043 -0.825 -0.564 115 130 133
22.0982 5.8372 77.6684 0.087 -0.861 -0.501 101 116 119
22.2628 5.8321 77.6824 0.141 -0.854 -0.501 104 122 124
22.4129 5.8333 77.7226 0.141 -0.854 -0.501 107 122 125
23.0149 5.8366 77.8784 0.107 -0.870 -0.481 83 94 98
25.6573 5.3259 76.0433 0.473 0.071 -0.878 69 76 82
25.8046 5.3256 76.0761 0.478 -0.090 -0.874 67 77 79
25.1327 5.9787 79.0505 0.320 0.097 -0.943 67 77 79
25.2774 5.9820 79.0999 0.320 0.097 -0.943 63 73 75
27.8780 5.3813 76.8239 0.359 -0.866 -0.348 68 76 85
29.6299 5.3754 77.2024 0.590 -0.442 -0.675 74 77 83
29.7302 5.3981 77.3341 0.065 -0.578 -0.814 83 86 92
30.3811 5.5111 78.0271 0.374 -0.570 -0.732 52 56 59
30.5098 5.5197 78.0980 0.364 -0.720 -0.591 52 55 60
30.6439 5.5254 78.1566 0.032 -0.769 -0.639 48 52 56
30.7981 5.5204 78.1683 0.027 -0.769 -0.639 41 45 47
32.6847 5.5946 78.9614 0.716 -0.485 -0.502 60 63 72
32.7965 5.6130 79.0758 0.539 -0.630 -0.559 61 63 75
33.1657 5.6495 79.3361 0.664 -0.365 -0.653 57 61 77
33.2845 5.6643 79.4346 0.499 -0.191 -0.845 54 65 75
33.4203 5.6691 79.4895 0.450 -0.150 -0.880 51 61 69
34.5830 5.7492 80.1432 0.354 -0.710 -0.609 37 42 45
34.7045 5.7630 80.2376 0.458 -0.548 -0.700 32 36 39
34.8427 5.7666 80.2865 0.410 -0.206 -0.889 31 38 40
34.9838 5.7683 80.3273 0.567 -0.198 -0.799 32 43 43
37.0354 6.0286 82.0510 0.475 -0.633 -0.611 49 60 52
38.0468 5.9239 81.7838 0.401 -0.753 -0.521 37 47 38
38.2343 5.8919 81.6741 0.148 -0.838 -0.525 41 53 44
38.3369 5.9207 81.8357 0.067 -0.727 -0.683 44 57 47
39.1299 5.9666 82.2398 0.700 -0.427 -0.572 11 72 68
39.2449 5.9872 82.3652 0.700 -0.427 -0.572 23 141 129
40.9523 6.3361 84.4338 0.043 0.150 -0.988 132 158 128
41.0926 6.3392 84.4813 0.413 -0.223 -0.883 130 155 127
41.2386 6.3375 84.5070 0.477 -0.227 -0.849 146 166 141
41.4069 6.3168 84.4466 0.322 -0.424 -0.847 85 104 80
41.5766 6.2945 84.3793 0.068 -0.778 -0.625 29 47 25
41.8971 6.3894 84.9088 0.712 -0.130 -0.690 102 116 99
45.8969 6.8510 88.0488 0.866 -0.252 -0.431 81 91 94
46.0203 6.8747 88.1914 0.877 -0.259 -0.405 95 103 105
46.1342 6.9097 88.3855 0.838 -0.313 -0.447 102 110 112
46.2490 6.9440 88.5767 0.838 -0.313 -0.447 111 119 121
46.3732 6.9682 88.7213 0.658 -0.322 -0.681 114 122 124
46.4854 7.0066 88.9312 0.833 -0.357 -0.423 119 129 130
46.6188 7.0207 89.0298 0.641 -0.646 -0.414 121 133 135
46.7546 7.0321 89.1161 0.636 -0.646 -0.422 103 117 116
53.3894 8.1933 96.2215 0.720 -0.169 -0.673 77 93 92
53.5352 8.2026 96.2995 0.150 -0.022 -0.988 95 111 110
53.6811 8.2114 96.3758 0.166 -0.046 -0.985 100 116 115
53.8319 8.2091 96.3998 0.111 -0.072 -0.991 100 115 117
53.9704 8.2356 96.5586 0.597 -0.391 -0.700 90 105 107
57.7207 6.3501 88.3914 0.904 0.058 -0.423 116 123 115
57.9875 6.3505 88.4547 0.341 0.379 -0.860 114 122 108
58.5038 6.4288 88.9500 0.497 0.432 -0.752 129 137 124
62.2137 7.4125 94.5258 0.699 -0.681 -0.220 95 101 87
62.4925 7.5155 95.0843 0.745 -0.466 -0.476 91 98 83
62.6325 7.5541 95.3016 0.756 -0.456 -0.469 84 90 75
62.7725 7.5738 95.4289 0.520 -0.400 -0.755 89 96 81
62.9122 7.5825 95.5029 0.437 -0.543 -0.717 91 99 84
63.0535 7.6248 95.7383 0.723 -0.344 -0.599 85 93 80
63.1950 7.6599 95.9394 0.766 -0.544 -0.343 74 82 71
63.3360 7.6790 96.0637 0.760 -0.565 -0.321 67 75 64
64.2057 7.9824 97.7198 0.782 -0.565 -0.263 77 85 74
64.7999 8.1943 98.8732 0.273 -0.416 -0.868 96 104 89
64.9411 8.1830 98.8519 0.723 -0.149 -0.674 90 98 86
65.0873 8.2075 99.0033 0.723 -0.149 -0.674 80 85 78
66.1093 8.3325 99.8395 0.379 -0.893 -0.242 93 100 93
-18.9989 7.3690 74.6224 0.086 -0.721 -0.688 126 164 174
-7.3763 6.2071 71.8136 0.276 -0.494 -0.824 82 107 104
-7.2305 6.2144 71.8823 0.183 -0.732 -0.656 78 102 102
-6.9823 6.1959 71.8522 0.136 -0.556 -0.820 59 83 83
-6.7633 6.1846 71.8498 0.157 -0.573 -0.804 55 79 79
-6.8346 6.3808 72.7657 0.196 -0.272 -0.942 65 90 94
-6.0287 6.2193 72.1863 0.495 -0.593 -0.635 67 92 96
-6.6029 6.4115 72.9659 -0.005 -0.294 -0.956 69 95 99
-5.1673 6.2663 72.6109 0.264 -0.870 -0.416 73 100 107
-5.0254 6.2746 72.6835 0.264 -0.870 -0.416 72 96 106
-4.3929 6.2908 72.9081 -0.074 -0.690 -0.720 63 85 99
-3.0107 6.1527 72.5748 0.559 -0.344 -0.755 76 102 112
-2.0592 6.1268 72.6736 -0.071 -0.497 -0.865 87 106 112
-0.9178 6.0472 72.5618 -0.167 -0.518 -0.839 106 125 132
-0.7054 6.0353 72.5549 -0.003 -0.627 -0.779 108 126 135
1.9058 5.7731 71.9185 -0.144 -0.383 -0.913 118 135 129
2.1488 5.7511 71.8704 -0.146 -0.379 -0.914 126 141 139
1.5926 6.0034 72.9400 0.552 -0.483 -0.680 111 125 129
1.7471 6.0069 72.9931 0.550 -0.522 -0.652 112 126 130
1.9355 6.0008 73.0078 -0.087 -0.317 -0.945 116 133 135
2.0880 6.0049 73.0630 -0.120 -0.389 -0.914 120 139 141
2.7405 5.9606 73.0049 0.277 0.184 -0.943 116 140 142
2.9183 5.9572 73.0300 0.594 0.018 -0.804 110 134 136
3.0954 5.9539 73.0557 -0.071 -0.107 -0.992 110 131 134
3.2504 5.9570 73.1067 0.326 0.257 -0.910 107 131 133
4.2578 5.7104 72.1696 -0.010 -0.580 -0.814 97 121 123
4.2975 5.7466 72.3511 0.129 -0.406 -0.905 98 119 124
4.5169 5.9241 73.2463 0.323 -0.397 -0.859 98 116 128
6.8941 5.5020 71.7948 -0.163 -0.388 -0.907 121 139 144
7.0995 5.4881 71.7767 0.339 -0.576 -0.744 109 127 132
6.0014 5.9213 73.5799 0.531 -0.603 -0.596 113 130 137
7.5858 5.5345 72.1108 0.384 -0.407 -0.828 114 132 133
7.7253 5.5406 72.1726 0.384 -0.407 -0.828 112 128 128
7.9237 5.5285 72.1615 0.221 -0.439 -0.871 110 126 124
8.6748 5.4925 72.1657 0.336 -0.231 -0.913 108 126 124
7.5841 5.8847 73.7754 -0.254 -0.470 -0.845 101 120 116
8.0077 5.8531 73.7244 -0.242 -0.492 -0.836 71 90 86
8.0253 5.8987 73.9452 0.664 -0.228 -0.712 66 82 79
8.3574 5.9995 74.5018 0.843 -0.385 -0.375 70 75 80
8.4685 6.0159 74.6060 0.842 -0.373 -0.390 74 80 84
9.6961 5.8275 73.9967 -0.372 -0.546 -0.751 81 90 94
10.2029 5.7663 73.8244 0.462 -0.547 -0.698 80 91 94
10.5555 5.7028 73.6048 0.595 -0.072 -0.801 78 89 91
10.7324 5.6968 73.6175 0.570 -0.064 -0.819 81 93 94
11.8443 5.3816 72.3789 0.179 -0.426 -0.887 93 103 105
12.1247 5.7068 73.9905 0.084 -0.505 -0.859 112 123 128
13.2339 5.4360 72.9619 0.357 -0.662 -0.659 112 124 124
13.2004 5.6612 74.0250 0.465 -0.587 -0.663 79 90 84
14.3902 5.8493 75.1972 -0.187 -0.636 -0.749 104 123 130
14.5780 5.8382 75.1885 -0.194 -0.628 -0.753 95 114 121
15.0986 5.8199 75.2230 0.490 -0.102 -0.866 81 95 97
15.5663 5.8203 75.3340 0.664 -0.476 -0.577 75 85 88
15.8848 5.8755 75.6708 0.641 -0.485 -0.595 112 126 139
15.9958 5.8923 75.7766 0.641 -0.485 -0.595 111 125 136
16.1624 5.8884 75.7971 0.622 -0.667 -0.411 107 121 133
16.2689 5.9069 75.9100 0.511 -0.584 -0.631 90 106 118
16.5126 5.8741 75.8109 -0.120 -0.208 -0.971 77 94 104
16.7230 5.8535 75.7623 -0.321 -0.652 -0.687 78 93 100
19.3394 5.9200 76.6894 0.513 -0.821 -0.250 75 93 93
21.1105 5.3292 74.2944 0.399 -0.380 -0.835 97 112 115
21.2437 5.3355 74.3554 0.279 -0.438 -0.854 96 112 114
20.8654 5.9885 77.3716 0.132 -0.000 -0.991 114 132 132
21.0828 6.0262 77.6019 0.187 -0.789 -0.586 107 125 125
21.6857 6.0312 77.7661 0.034 -0.795 -0.606 119 134 137
21.8512 6.0260 77.7802 0.038 -0.782 -0.622 118 133 136
22.0061 6.0252 77.8129 0.164 -0.811 -0.562 112 128 128
22.3731 5.9989 77.7732 0.389 -0.861 -0.328 89 104 107
22.5130 6.0045 77.8324 0.154 -0.788 -0.596 86 101 104
22.9528 5.9454 77.6545 0.287 0.394 -0.873 104 117 123
22.9363 6.0196 78.0032 0.529 -0.739 -0.418 105 116 122
23.0377 6.0422 78.1342 0.561 -0.725 -0.399 94 105 111
25.4026 5.4519 75.8805 0.255 -0.079 -0.964 37 42 46
25.5579 5.4480 75.8981 0.277 -0.363 -0.890 71 79 82
25.6998 5.4502 75.9414 0.277 -0.363 -0.890 78 86 89
25.8416 5.4523 75.9847 0.277 -0.363 -0.890 66 76 78
25.2340 6.1517 79.1682 0.331 0.103 -0.938 60 70 72
28.0093 5.4610 76.5324 0.728 -0.658 -0.195 75 81 90
28.3134 5.5980 77.2548 -0.083 -0.245 -0.966 61 75 76
28.6265 5.5871 77.2764 -0.279 -0.115 -0.954 64 75 77
28.8204 5.5627 77.2055 -0.057 -0.306 -0.950 63 74 76
29.5304 5.4961 77.0549 0.610 -0.482 -0.630 57 60 68
29.5868 5.5414 77.2833 0.057 -0.588 -0.807 65 68 77
34.0032 5.8107 79.5955 0.251 -0.566 -0.785 51 61 60
34.1624 5.8012 79.5875 0.314 -0.631 -0.709 49 59 60
34.3045 5.8021 79.6247 0.314 -0.654 -0.688 48 58 60
34.7528 5.8798 80.0992 0.500 -0.674 -0.543 28 32 35
34.8694 5.8968 80.2071 0.523 -0.272 -0.808 30 36 38
34.9967 5.9071 80.2860 0.523 -0.272 -0.808 29 39 40
36.6283 6.0621 81.4039 0.370 -0.924 -0.099 22 28 28
38.0782 6.0500 81.6853 0.110 -0.389 -0.915 35 45 39
38.2627 6.0198 81.5846 0.249 -0.503 -0.828 36 48 41
39.2919 6.1010 82.2113 0.058 -0.778 -0.625 41 244 228
39.3864 6.1375 82.4068 0.706 -0.424 -0.567 16 248 241
44.5808 6.8710 87.1074 0.595 -0.134 -0.792 54 67 67
44.7062 6.8908 87.2311 0.637 -0.078 -0.767 57 69 69
46.1504 7.0525 88.3373 0.747 -0.222 -0.626 72 81 80
46.2749 7.0759 88.4777 0.747 -0.222 -0.626 75 83 84
46.3946 7.1054 88.6457 0.662 -0.336 -0.670 66 75 75
46.5254 7.1222 88.7562 0.681 -0.353 -0.642 62 70 72
46.6556 7.1399 88.8708 0.690 -0.341 -0.638 71 82 83
53.1863 8.1723 95.3050 0.878 -0.476 -0.053 82 97 95
53.2822 8.2884 95.8792 0.839 -0.513 -0.181 63 78 80
53.4057 8.3464 96.1839 0.751 -0.242 -0.614 41 56 59
53.5501 8.3588 96.2767 0.720 -0.166 -0.674 40 55 58
53.6945 8.3715 96.3705 0.166 -0.046 -0.985 50 65 69
53.8442 8.3717 96.4066 -0.094 -0.162 -0.982 53 68 74
53.9994 8.3587 96.3813 -0.088 -0.164 -0.983 55 69 76
54.1435 8.3720 96.4782 -0.115 -0.221 -0.968 60 73 76
54.2722 8.4240 96.7551 0.477 -0.615 -0.628 65 76 77
54.4150 8.4421 96.8745 0.469 -0.723 -0.508 75 86 87
57.8707 6.4829 88.3671 0.681 0.375 -0.630 116 124 112
60.3254 7.1254 91.9955 0.717 -0.380 -0.584 132 141 136
60.4596 7.1501 92.1442 0.717 -0.380 -0.584 132 143 137
60.5946 7.1695 92.2678 0.723 -0.381 -0.576 118 129 123
60.7301 7.1856 92.3759 0.599 -0.600 -0.531 81 92 86
60.8638 7.2281 92.6091 0.555 -0.668 -0.496 80 89 84
60.9988 7.2599 92.7918 0.684 -0.513 -0.518 62 72 64
61.1344 7.2868 92.9518 0.703 -0.513 -0.493 83 90 83
61.4074 7.3199 93.1728 0.702 -0.522 -0.486 104 112 102
61.5443 7.3338 93.2709 0.518 -0.584 -0.625 111 119 105
62.5090 7.6224 94.8686 0.652 -0.593 -0.473 70 76 60
62.7890 7.6937 95.2727 0.541 -0.582 -0.607 80 89 72
62.9291 7.7161 95.4121 0.437 -0.543 -0.717 85 94 77
63.0703 7.7556 95.6327 0.759 -0.287 -0.584 92 100 85
63.2110 7.7787 95.7752 0.768 -0.569 -0.292 85 93 80
64.8149 8.3196 98.7220 0.221 -0.644 -0.732 102 110 95
65.1068 8.3647 99.0044 0.671 -0.642 -0.371 94 99 93
65.2530 8.3867 99.1431 0.404 -0.646 -0.648 57 62 58
65.3973 8.3960 99.2213 0.561 -0.263 -0.785 50 54 51
65.5426 8.4103 99.3230 0.585 -0.244 -0.773 72 77 71
65.6834 8.3991 99.3027 0.311 -0.483 -0.818 93 98 92
65.8268 8.4030 99.3548 0.311 -0.483 -0.818 99 102 96
65.9787 8.4512 99.6194 0.910 0.094 -0.404 105 111 101
66.1217 8.4522 99.6574 0.391 -0.729 -0.562 90 97 90
66.2733 8.4942 99.8929 0.540 -0.651 -0.533 85 92 89
-5.1830 3.9439 60.8770 0.307 0.456 -0.836 9 17 19
-19.8773 7.5635 74.4917 0.031 -0.608 -0.793 125 164 171
-19.1574 7.5302 74.5042 0.125 -0.647 -0.752 125 165 175
-13.6222 7.1999 74.2480 0.231 0.336 -0.913 46 72 93
-11.9238 6.9194 73.3247 0.681 -0.348 -0.645 44 75 91
-12.1430 7.0180 73.7381 0.633 -0.399 -0.663 46 78 95
-10.9753 6.7752 72.8678 0.248 -0.281 -0.927 49 82 100
-6.9701 6.3492 71.8008 0.225 -0.333 -0.916 34 58 58
-6.7077 6.3267 71.7565 0.265 -0.432 -0.862 35 59 62
