ply
format ascii 1.0
element vertex 878
property float x
property float y
property float z
property float nx
property float ny
property float nz
property uchar diffuse_red
property uchar diffuse_green
property uchar diffuse_blue
end_header
-44.7445 26.1557 85.9630 0.007 0.730 -0.683 51 62 64
-43.9693 25.4875 84.6996 0.241 -0.912 -0.331 46 57 59
-41.8906 24.7199 83.8035 -0.531 0.382 -0.757 81 85 86
-39.7894 23.5077 81.8364 -0.337 -0.653 -0.678 112 127 139
-39.4631 23.4016 81.7307 -0.484 -0.731 -0.480 203 231 237
-39.3030 23.3552 81.6927 -0.647 -0.593 -0.479 207 237 240
-39.1256 23.2674 81.5618 -0.647 -0.593 -0.479 203 237 237
-38.0843 22.7783 80.8586 -0.584 -0.595 -0.552 178 211 221
-37.9151 22.7047 80.7587 -0.584 -0.595 -0.552 172 204 215
-37.7288 22.5864 80.5579 -0.566 -0.334 -0.754 149 181 192
-37.5665 22.5289 80.4939 -0.676 -0.412 -0.611 139 171 182
-37.0380 22.2424 80.0436 -0.715 -0.419 -0.560 118 149 152
-36.5313 22.0047 79.7021 -0.466 0.220 -0.857 92 124 122
-36.3607 21.9188 79.5729 -0.516 -0.037 -0.856 89 121 120
-36.1956 21.8474 79.4764 -0.516 -0.037 -0.856 93 124 126
-36.0361 21.7910 79.4137 -0.284 -0.083 -0.955 100 130 138
-35.8713 21.7190 79.3156 -0.308 0.002 -0.951 101 131 141
-35.6995 21.6256 79.1687 -0.499 -0.009 -0.867 103 133 143
-35.5252 21.5238 79.0025 -0.324 0.087 -0.942 111 141 151
-35.3625 21.4550 78.9109 -0.419 0.056 -0.906 118 148 158
-35.0273 21.2846 78.6531 -0.544 -0.133 -0.829 119 149 159
-34.8980 21.3162 78.7903 -0.281 0.120 -0.952 125 153 164
-34.7285 21.2236 78.6442 -0.312 0.174 -0.934 133 161 172
-32.9054 20.2445 77.1144 -0.642 -0.614 -0.459 148 175 185
-32.4926 20.2632 77.3527 -0.520 -0.661 -0.541 157 185 195
-27.9707 18.8176 75.9485 -0.275 -0.959 -0.067 170 195 207
-27.8228 18.7772 75.9192 -0.275 -0.959 -0.067 170 195 207
-26.9333 18.5022 75.6658 -0.332 -0.937 -0.107 172 196 209
-26.7886 18.4873 75.6971 -0.232 -0.963 -0.134 170 197 209
-26.6399 18.4346 75.6383 -0.239 -0.963 -0.122 170 197 208
-26.0459 18.2094 75.3680 0.054 0.677 -0.734 173 196 204
-25.1545 17.7592 74.6894 -0.116 0.083 -0.990 174 180 184
-24.1303 17.1891 73.7810 -0.059 0.422 -0.905 65 67 66
-22.7000 16.5743 72.9538 -0.066 -0.214 -0.975 68 67 65
-22.5578 16.5368 72.9290 -0.050 -0.191 -0.980 64 63 61
-21.4174 16.3008 72.8874 -0.535 -0.845 -0.004 71 70 68
-21.2669 16.3849 73.1624 -0.639 -0.762 -0.106 75 74 72
-21.1272 16.3070 73.0381 -0.645 -0.759 -0.094 74 73 71
-20.9893 16.2109 72.8687 -0.645 -0.759 -0.094 73 72 68
-20.0547 15.4145 71.3682 -0.901 -0.209 -0.379 58 54 51
-17.5345 14.8453 71.1606 -0.374 -0.562 -0.738 71 70 66
-17.3967 14.8025 71.1210 -0.369 -0.564 -0.739 86 82 79
-17.2523 14.7920 71.1629 -0.328 -0.502 -0.800 64 60 57
-16.8421 14.6514 71.0126 -0.473 -0.323 -0.820 118 114 111
-16.7598 14.3690 70.3640 -0.208 -0.669 -0.713 117 113 110
-13.2386 13.7244 70.4407 -0.403 -0.053 -0.913 80 79 75
-11.5439 13.0335 69.5518 -0.094 -0.333 -0.938 85 86 81
-9.9684 12.7985 69.7162 -0.238 -0.181 -0.954 55 54 52
-9.8323 12.7614 69.6893 -0.238 -0.181 -0.954 55 54 52
-9.3977 12.7017 69.7471 -0.026 -0.354 -0.935 64 63 61
-9.2401 12.7056 69.8303 -0.031 -0.655 -0.755 66 65 63
-8.7029 12.5427 69.6851 -0.308 -0.290 -0.906 80 80 80
-8.2162 12.2938 69.3070 -0.603 -0.071 -0.794 95 95 95
-7.8601 12.0983 68.9977 -0.347 -0.510 -0.787 86 82 80
-6.6743 11.7286 68.6524 -0.185 -0.262 -0.947 73 67 67
-6.5380 11.6954 68.6351 -0.185 -0.262 -0.947 73 67 67
-6.3967 11.6700 68.6394 -0.179 -0.110 -0.978 74 68 68
-5.7992 11.8519 69.3609 -0.351 0.536 -0.768 80 74 74
-3.7297 11.3555 69.1203 -0.008 -0.419 -0.908 77 75 76
-2.2763 10.9166 68.7314 -0.318 -0.077 -0.945 77 77 75
3.8470 10.0151 69.3988 -0.029 -0.692 -0.721 101 103 98
3.9873 9.9823 69.3845 -0.082 -0.566 -0.820 115 117 112
4.1364 9.9573 69.3934 -0.085 -0.560 -0.824 115 117 112
4.2851 9.9319 69.4010 -0.351 -0.531 -0.771 116 118 113
4.3986 9.8757 69.3172 -0.346 -0.527 -0.776 106 108 103
6.2449 9.6151 69.5457 -0.026 -0.468 -0.884 76 73 68
6.1899 9.4244 69.0562 -0.239 -0.621 -0.747 74 71 66
6.3461 9.4045 69.0809 0.018 -0.534 -0.845 76 73 67
7.5954 9.2404 69.2653 -0.162 -0.688 -0.707 70 67 62
8.2359 9.1668 69.3853 -0.157 -0.392 -0.906 76 76 67
9.9482 9.0497 69.9002 -0.039 -0.547 -0.836 99 100 97
10.1161 9.0343 69.9413 -0.025 -0.548 -0.836 98 98 94
12.0250 8.7658 70.1799 0.136 -0.612 -0.779 103 97 89
12.2036 8.7554 70.2379 0.142 -0.623 -0.769 94 87 80
12.3252 8.7079 70.1791 -0.146 -0.299 -0.943 91 90 83
12.5761 8.7436 70.3832 0.082 -0.442 -0.893 82 81 76
12.7366 8.7208 70.4027 -0.028 -0.430 -0.902 70 70 64
13.7088 8.7108 70.8324 -0.274 0.139 -0.951 102 102 98
14.3784 8.5090 70.6543 0.224 -0.250 -0.942 85 87 84
19.1895 8.1906 72.1271 -0.081 -0.602 -0.794 116 123 121
19.3572 8.1663 72.1463 -0.156 -0.464 -0.872 109 115 113
19.5125 8.1354 72.1437 -0.186 -0.463 -0.867 103 110 107
20.0027 8.1669 72.4492 0.310 -0.487 -0.817 100 111 110
20.8622 7.9412 72.3018 -0.015 -0.510 -0.860 95 105 104
21.0443 7.9232 72.3430 -0.018 -0.525 -0.851 94 104 103
21.2235 7.9036 72.3791 -0.013 -0.593 -0.805 92 102 103
22.7081 7.9815 73.2620 -0.637 -0.734 -0.238 86 95 90
25.1703 7.7518 73.8532 0.517 -0.345 -0.783 79 85 85
25.4791 7.7870 74.0833 0.444 -0.306 -0.842 75 81 81
25.7232 7.7925 74.2106 0.454 -0.307 -0.837 67 73 73
26.6369 7.6788 74.3607 -0.090 -0.270 -0.959 75 77 76
30.7602 7.5838 76.0557 0.038 -0.318 -0.947 86 96 95
31.1253 7.5303 76.0961 0.150 -0.385 -0.911 83 92 89
31.3448 7.5182 76.1692 0.285 -0.500 -0.818 72 81 78
31.9389 7.5548 76.5357 0.570 -0.349 -0.744 55 64 61
32.5138 7.5819 76.8701 0.497 -0.214 -0.841 79 85 83
-39.9164 23.6806 81.7689 -0.356 -0.526 -0.772 82 90 99
-39.7553 23.6325 81.7274 -0.356 -0.526 -0.772 112 124 139
-39.5859 23.5646 81.6418 -0.371 -0.648 -0.665 195 211 225
-39.4206 23.5059 81.5765 -0.468 -0.721 -0.511 176 202 211
-39.2596 23.4570 81.5328 -0.643 -0.604 -0.471 174 204 208
-38.9096 23.2907 81.2929 -0.643 -0.566 -0.517 154 188 188
-38.3867 23.0401 80.9291 -0.565 -0.637 -0.524 133 164 170
-37.7006 22.7216 80.4769 -0.566 -0.334 -0.754 96 128 142
-37.5320 22.6474 80.3756 -0.676 -0.412 -0.611 96 125 139
-35.8675 21.9216 79.3918 -0.223 0.312 -0.923 147 177 188
-35.6946 21.8254 79.2393 -0.334 0.187 -0.924 147 177 188
-35.5114 21.6970 79.0137 -0.324 0.087 -0.942 148 178 189
-34.8809 21.4808 78.7830 -0.278 0.122 -0.953 152 182 193
-34.7165 21.4041 78.6739 -0.312 0.174 -0.934 152 182 193
-34.5303 21.2569 78.4041 -0.478 -0.175 -0.861 154 184 195
-33.1157 20.2318 76.5799 -0.618 -0.209 -0.758 184 211 222
-32.9853 20.2587 76.7056 -0.146 -0.272 -0.951 143 170 181
-32.8298 20.1955 76.6250 -0.394 -0.511 -0.764 157 185 197
-32.6949 20.2081 76.7181 -0.401 -0.467 -0.788 163 193 204
-32.6643 20.6145 77.7157 -0.504 -0.657 -0.561 167 196 207
-32.5082 20.5550 77.6441 -0.442 -0.211 -0.872 166 196 207
-32.3699 20.5641 77.7303 -0.234 -0.452 -0.861 166 195 207
-32.1072 20.0839 76.6902 0.022 -0.499 -0.866 167 196 209
-31.9627 20.0627 76.7060 0.022 -0.499 -0.866 166 195 208
-31.4696 19.7509 76.1803 -0.487 -0.872 -0.039 168 197 211
-26.0281 18.4277 75.5043 0.077 0.662 -0.745 173 195 206
-25.8801 18.3764 75.4489 -0.005 0.651 -0.759 174 196 207
-25.1284 17.8621 74.5531 -0.201 0.007 -0.980 174 180 184
-20.8508 15.9692 71.9581 0.511 -0.794 -0.329 68 64 61
-20.7141 15.8889 71.8272 0.203 -0.741 -0.640 66 63 58
-20.1672 15.6089 71.4036 -0.920 -0.192 -0.341 64 61 56
-20.0341 15.5150 71.2381 -0.902 -0.212 -0.375 64 61 56
-17.7673 15.1615 71.4349 -0.323 -0.598 -0.733 102 101 99
-13.8514 13.7477 69.8315 0.336 -0.129 -0.933 89 85 82
-13.5767 13.6789 69.7924 -0.406 -0.076 -0.911 93 89 86
-13.3608 13.8662 70.3458 0.117 0.001 -0.993 95 91 88
-13.2215 13.8338 70.3321 -0.308 -0.077 -0.948 82 81 77
-11.4499 13.3240 69.9209 0.139 -0.566 -0.812 75 76 71
-9.7986 12.9087 69.6823 -0.045 -0.272 -0.961 55 54 52
-9.6649 12.8668 69.6431 -0.072 -0.271 -0.960 55 54 52
-9.5143 12.8581 69.6919 0.011 -0.355 -0.935 55 54 52
-9.3721 12.8328 69.6967 -0.026 -0.354 -0.935 56 55 53
-9.2119 12.8417 69.7926 -0.129 -0.705 -0.698 63 62 60
-8.0163 12.1837 68.7553 -0.178 -0.631 -0.755 92 91 90
-7.8692 12.1688 68.7875 -0.180 -0.649 -0.740 97 93 91
-6.7600 12.1822 69.3348 -0.021 -0.720 -0.694 77 72 69
-6.4443 12.1784 69.4722 -0.501 -0.649 -0.572 80 74 74
-6.3248 12.1162 69.3771 -0.469 -0.494 -0.732 80 74 74
-6.1997 12.0631 69.3066 -0.436 -0.511 -0.741 80 74 74
-5.9301 11.9872 69.2481 -0.022 -0.392 -0.920 80 74 74
-5.6235 11.9667 69.3407 -0.349 0.539 -0.767 79 73 73
-5.5016 11.9097 69.2593 -0.446 0.478 -0.756 65 61 60
-5.3872 11.8422 69.1491 -0.446 0.478 -0.756 65 61 60
-4.4030 11.4174 68.5782 0.142 -0.487 -0.862 76 74 75
-4.0703 11.6485 69.2918 -0.197 -0.215 -0.957 76 74 75
-3.9307 11.6172 69.2808 0.007 -0.465 -0.885 78 76 77
-3.0043 11.3330 69.0231 -0.299 -0.403 -0.865 123 123 123
-2.8716 11.2934 68.9888 -0.288 -0.372 -0.882 99 99 99
-2.7349 11.2588 68.9686 -0.345 -0.207 -0.916 78 78 78
-2.6135 11.2054 68.8957 -0.253 -0.171 -0.952 78 78 78
3.3760 10.1742 69.1805 -0.113 -0.603 -0.790 83 83 81
4.0284 10.1264 69.3676 0.060 -0.717 -0.695 122 123 118
4.1354 10.0639 69.2662 -0.118 -0.664 -0.738 122 123 118
4.2929 10.0464 69.2970 -0.319 -0.529 -0.787 121 122 117
4.4310 10.0118 69.2773 -0.392 -0.527 -0.754 116 117 112
6.1954 9.5379 68.9496 -0.238 -0.612 -0.754 75 71 68
6.3567 9.5223 68.9867 -0.010 -0.487 -0.873 75 71 68
8.4599 9.1695 69.1093 -0.222 -0.462 -0.859 79 79 71
9.6325 9.2071 69.7445 0.191 -0.207 -0.960 100 102 101
9.9773 9.1836 69.8476 0.051 -0.384 -0.922 100 102 101
10.0883 9.1283 69.7654 0.161 -0.495 -0.854 95 97 93
12.2625 8.9094 70.2448 0.185 -0.560 -0.808 105 103 101
12.3187 8.8192 70.0526 -0.252 -0.334 -0.908 96 98 94
13.6395 8.9092 70.8837 -0.397 -0.401 -0.825 95 98 96
13.7044 8.8253 70.7106 -0.397 -0.139 -0.908 100 102 100
13.7745 8.7451 70.5491 -0.348 -0.033 -0.937 102 104 101
13.9023 8.7012 70.5021 -0.347 -0.336 -0.876 93 95 92
14.0197 8.6510 70.4351 -0.362 -0.394 -0.845 88 88 86
14.1520 8.6100 70.3975 -0.362 -0.394 -0.845 90 90 88
15.6332 8.5337 70.9002 -0.498 -0.424 -0.756 73 74 69
16.1263 8.3472 70.6779 -0.330 -0.182 -0.926 88 90 86
17.2948 8.4265 71.4123 -0.588 -0.443 -0.677 107 109 104
17.6978 8.3036 71.3019 -0.569 -0.474 -0.672 111 113 108
17.8938 8.2966 71.3760 -0.314 -0.597 -0.738 114 116 111
19.2860 8.3644 72.1862 0.185 -0.171 -0.968 99 102 98
20.7582 8.1223 72.2837 -0.051 -0.852 -0.522 107 116 115
22.2604 7.8889 72.4163 0.140 -0.480 -0.866 82 88 84
22.7363 8.0126 72.9366 0.342 -0.709 -0.617 84 90 86
23.3582 8.2053 73.6915 -0.371 -0.807 -0.460 91 97 93
23.5715 7.9834 73.2534 -0.100 -0.563 -0.821 92 98 94
24.0080 7.8695 73.1805 -0.339 -0.186 -0.922 83 89 85
24.1429 7.8267 73.1395 -0.339 -0.186 -0.922 84 90 88
26.8939 7.9221 74.6473 -0.009 -0.491 -0.871 75 77 76
27.5494 7.7945 74.6428 -0.073 -0.623 -0.779 58 62 61
31.1675 7.6812 76.0480 0.087 -0.303 -0.949 83 92 89
31.3650 7.6603 76.0893 0.283 -0.479 -0.831 84 93 90
32.3096 7.7368 76.7128 0.553 -0.365 -0.749 63 72 69
32.5649 7.7376 76.8332 0.493 -0.275 -0.826 73 82 79
-40.9354 24.5936 83.0720 -0.419 -0.671 -0.613 79 83 83
-40.7800 24.5633 83.0707 -0.394 -0.736 -0.551 69 74 71
-40.5993 24.4761 82.9443 -0.836 0.075 -0.543 79 86 79
-39.5410 23.6633 81.4756 -0.373 -0.651 -0.662 197 209 228
-39.3709 23.5928 81.3844 -0.481 -0.724 -0.494 122 144 159
-39.2037 23.5285 81.3067 -0.594 -0.648 -0.477 107 135 147
-39.0475 23.4902 81.2867 -0.682 -0.319 -0.658 93 123 133
-38.8659 23.3902 81.1297 -0.643 -0.566 -0.517 87 120 129
-38.6854 23.2915 80.9753 -0.642 -0.569 -0.514 104 134 143
-38.3432 23.1379 80.7633 -0.565 -0.637 -0.524 104 134 147
-38.0119 23.0091 80.6061 -0.602 -0.295 -0.741 115 144 160
-37.6725 22.8568 80.3959 -0.566 -0.334 -0.754 126 155 171
-36.0243 22.1836 79.5356 -0.325 0.370 -0.871 154 183 196
-35.8633 22.1235 79.4652 -0.122 0.402 -0.907 155 184 198
-35.6983 22.0510 79.3668 -0.096 0.404 -0.910 154 183 197
-35.5423 22.0046 79.3271 -0.118 0.407 -0.906 156 185 197
-35.3862 21.9575 79.2855 -0.127 0.399 -0.908 158 187 201
-35.2236 21.8904 79.1991 -0.236 0.403 -0.884 157 186 200
-35.0766 21.8707 79.2195 -0.257 0.384 -0.887 158 187 201
-34.9189 21.8181 79.1655 -0.254 0.343 -0.904 158 187 201
-34.7467 21.7189 79.0061 -0.272 0.297 -0.915 159 188 202
-34.5879 21.6610 78.9400 -0.272 0.297 -0.915 158 187 201
-33.1241 20.4852 76.7847 -0.578 -0.192 -0.793 184 212 224
-32.9565 20.3798 76.6081 -0.073 -0.551 -0.831 142 170 182
-32.8288 20.4187 76.7607 -0.077 -0.549 -0.833 158 186 198
-32.7057 20.4768 76.9573 -0.231 -0.464 -0.855 163 192 206
-32.6283 20.7109 77.5566 -0.503 -0.783 -0.366 166 195 209
-26.0227 18.8046 76.0145 0.139 0.578 -0.804 173 195 208
-23.5054 16.9062 72.6053 0.118 -0.757 -0.642 63 63 63
-23.3636 16.9043 72.6662 0.066 -0.784 -0.617 63 63 63
-20.9772 16.0131 71.6215 0.185 -0.740 -0.646 62 61 57
-20.5491 15.9910 71.7658 0.211 -0.754 -0.623 66 63 58
-16.7353 14.5252 69.9962 -0.188 -0.626 -0.757 110 106 103
-16.5971 14.4936 69.9839 -0.267 -0.652 -0.709 81 80 76
-16.4356 14.5594 70.2168 0.000 -0.380 -0.925 85 84 80
-16.2885 14.5621 70.2911 -0.310 -0.380 -0.871 84 83 81
-16.1449 14.5492 70.3263 -0.353 -0.433 -0.829 84 83 81
-16.0127 14.4912 70.2477 -0.369 -0.368 -0.854 80 79 77
-14.7286 14.3206 70.4294 -0.003 -0.537 -0.844 83 79 78
-13.6714 13.8959 69.8946 -0.380 0.075 -0.922 87 83 80
-13.5422 13.8373 69.8131 -0.393 -0.116 -0.912 95 91 88
-13.4060 13.7990 69.7837 -0.385 -0.113 -0.916 102 98 95
-13.2492 13.8185 69.9031 -0.087 -0.698 -0.711 82 81 77
-12.1453 13.5502 69.7664 -0.604 -0.463 -0.649 72 73 68
-11.8995 13.4105 69.5433 -0.609 -0.394 -0.688 64 65 60
-11.4216 13.4622 69.8883 0.442 -0.634 -0.635 67 68 63
-10.7318 13.2914 69.7953 -0.494 -0.775 -0.395 62 58 57
-9.3438 12.9691 69.6597 -0.050 -0.297 -0.953 49 48 46
-9.0538 12.9284 69.6956 -0.251 -0.677 -0.692 75 74 72
-7.9940 12.3076 68.6899 -0.166 -0.632 -0.757 97 95 95
-6.7328 12.3151 69.2898 0.259 -0.287 -0.922 84 79 76
-6.5754 12.3128 69.3568 0.170 -0.221 -0.960 85 79 79
-6.0535 12.1335 69.1659 -0.379 -0.575 -0.725 80 74 74
-5.6780 12.2174 69.5410 -0.354 0.521 -0.776 80 74 74
-5.3288 12.0201 69.2272 -0.446 0.478 -0.756 65 61 60
-5.2208 11.9433 69.0922 -0.483 0.463 -0.743 65 61 60
-4.5170 11.5755 68.5313 -0.262 -0.466 -0.845 76 74 75
-4.3445 11.5914 68.6491 -0.340 -0.449 -0.826 76 74 75
-3.6574 11.6427 69.0897 -0.355 -0.456 -0.816 89 87 88
-3.3889 11.5666 69.0302 -0.318 -0.346 -0.883 89 87 88
-2.1895 11.2178 68.7437 -0.284 -0.309 -0.908 99 99 99
-0.0010 10.8578 68.8868 -0.068 -0.706 -0.705 84 84 82
0.1434 10.8313 68.8896 -0.069 -0.703 -0.707 85 85 85
0.6583 10.6591 68.7125 -0.509 -0.665 -0.547 96 96 98
2.3287 10.4429 68.9625 -0.217 -0.561 -0.799 77 77 77
2.7834 10.3796 69.0198 -0.148 -0.654 -0.742 82 82 82
3.5513 10.2804 69.1353 -0.096 -0.553 -0.827 90 91 86
3.7154 10.2697 69.1852 -0.116 -0.363 -0.924 96 97 92
3.8422 10.2249 69.1359 0.074 -0.413 -0.908 102 103 98
3.9876 10.1970 69.1358 0.094 -0.392 -0.915 129 130 125
4.1299 10.1663 69.1276 0.086 -0.396 -0.914 128 129 124
4.2937 10.1546 69.1749 -0.193 -0.506 -0.841 128 129 124
4.4312 10.1195 69.1540 -0.360 -0.492 -0.793 126 127 122
4.7970 10.1284 69.3439 0.397 -0.574 -0.716 112 113 108
9.2727 9.1960 69.1638 -0.054 -0.389 -0.920 106 108 107
9.4529 9.1911 69.2353 -0.099 -0.692 -0.715 101 102 104
9.6525 9.1998 69.3483 -0.146 -0.742 -0.654 101 103 102
11.4989 9.0313 69.7944 0.178 -0.550 -0.816 120 123 122
12.2803 9.0366 70.1677 0.152 -0.578 -0.802 113 114 115
13.6374 9.0252 70.7661 -0.357 -0.157 -0.921 100 104 105
13.7475 8.9695 70.6829 -0.389 -0.141 -0.910 98 101 101
13.7737 8.8616 70.4353 -0.498 0.161 -0.852 97 97 95
14.0412 8.7813 70.3651 -0.362 -0.394 -0.845 92 92 90
14.1735 8.7403 70.3276 -0.362 -0.394 -0.845 89 89 87
14.3259 8.7117 70.3291 -0.333 -0.344 -0.878 83 83 81
15.4175 8.6444 70.6705 0.355 -0.347 -0.868 90 90 88
16.0181 8.5211 70.6507 -0.489 -0.056 -0.870 62 64 62
16.1613 8.4861 70.6325 -0.314 -0.107 -0.943 74 78 77
18.9905 8.4423 71.8322 -0.037 -0.907 -0.420 99 100 95
19.3148 8.3886 71.8526 -0.041 -0.912 -0.409 99 99 94
19.4883 8.3676 71.8821 -0.041 -0.912 -0.409 104 106 101
19.7123 8.3733 71.9990 -0.152 0.204 -0.967 114 119 115
20.6385 8.2955 72.2390 0.331 -0.595 -0.733 109 115 111
21.1930 8.2460 72.3757 0.155 -0.500 -0.852 112 121 118
21.3773 8.2289 72.4195 0.176 -0.508 -0.843 111 120 119
21.9468 8.1848 72.5761 0.283 -0.385 -0.878 90 99 96
22.1392 8.1710 72.6316 0.282 -0.367 -0.887 80 86 82
24.5253 8.0261 73.3836 0.321 -0.187 -0.928 72 78 78
24.7482 8.0239 73.4809 0.439 -0.305 -0.845 70 75 78
25.0064 8.0376 73.6331 0.495 -0.323 -0.806 70 75 78
25.2119 8.0266 73.7015 0.423 -0.467 -0.777 74 79 82
28.6215 7.9758 75.1521 0.431 -0.174 -0.885 70 76 76
31.3500 7.8892 76.2021 0.112 0.083 -0.990 84 93 90
32.5735 7.8765 76.7359 0.480 -0.531 -0.699 70 79 76
36.3094 7.8181 78.3189 0.460 -0.855 -0.238 41 45 44
-46.8333 28.7630 89.9252 0.090 0.327 -0.941 52 59 65
-43.6959 25.8287 84.3352 -0.044 0.325 -0.945 49 56 62
-40.5618 24.5964 82.8205 -0.782 -0.289 -0.552 80 89 81
-39.0141 23.6151 81.1796 -0.666 -0.320 -0.674 124 152 168
-37.9880 23.1556 80.5495 -0.595 -0.283 -0.753 151 180 196
-37.6443 22.9919 80.3149 -0.566 -0.334 -0.754 155 184 202
-37.1159 22.7044 79.8687 -0.704 -0.362 -0.610 160 190 203
-35.9336 22.5451 80.0292 -0.296 0.483 -0.824 162 191 207
-35.7524 22.4276 79.8307 -0.477 0.348 -0.807 162 191 206
-35.5825 22.3419 79.7035 -0.498 0.339 -0.798 164 193 207
-35.2421 22.1656 79.4371 -0.453 0.417 -0.788 165 194 208
-35.0505 22.0087 79.1491 -0.485 0.387 -0.785 165 194 208
-34.8635 21.8633 78.8868 -0.546 0.069 -0.835 166 195 209
-34.6980 21.7841 78.7728 -0.551 0.022 -0.834 166 195 209
-34.5242 21.6767 78.5953 -0.543 0.014 -0.839 166 195 209
-33.0989 20.6199 76.7176 -0.188 -0.801 -0.569 182 210 222
-21.3788 16.1751 71.4444 -0.243 -0.969 0.037 61 60 58
-21.0959 16.1465 71.5056 0.029 -0.725 -0.688 61 60 58
-20.9547 16.1269 71.5236 0.106 -0.693 -0.713 61 60 56
-16.5542 14.7034 70.1313 0.139 -0.536 -0.833 93 92 88
-16.4114 14.6894 70.1633 0.000 -0.380 -0.925 84 83 79
-16.2738 14.6529 70.1391 -0.053 0.006 -0.999 78 77 75
-16.1453 14.5807 70.0250 0.097 -0.205 -0.974 93 92 90
-15.1535 14.4374 70.1365 -0.007 -0.797 -0.604 81 77 76
-15.0175 14.3958 70.0991 -0.484 -0.401 -0.778 81 77 76
-13.0583 13.9927 70.0320 -0.186 -0.642 -0.744 100 99 95
-10.7087 13.4176 69.7315 -0.677 -0.702 -0.220 58 54 53
-10.3203 13.2615 69.5358 -0.059 -0.907 -0.417 61 57 56
-7.1593 12.4817 69.1171 -0.203 -0.503 -0.840 108 103 100
-7.0196 12.4519 69.1097 -0.060 -0.583 -0.810 107 102 99
-6.8766 12.4274 69.1167 -0.060 -0.583 -0.810 106 101 98
-6.7425 12.3885 69.0851 -0.054 -0.617 -0.785 105 100 97
-6.4062 12.4186 69.3112 -0.596 0.205 -0.776 93 87 87
-6.2914 12.3488 69.1967 -0.641 0.110 -0.760 88 82 82
-5.4919 12.3472 69.5594 -0.482 0.421 -0.768 82 76 76
-5.3765 12.2793 69.4497 -0.482 0.421 -0.768 79 75 74
-4.6285 11.7373 68.4944 -0.182 -0.563 -0.806 69 65 64
-4.4679 11.7372 68.5678 -0.354 -0.406 -0.842 66 64 65
-4.3212 11.7174 68.5875 -0.315 -0.438 -0.842 71 69 70
-3.9069 11.8403 69.0719 -0.099 -0.647 -0.756 78 76 77
-3.5076 11.7212 68.9696 -0.284 -0.418 -0.863 92 90 91
-3.3689 11.6890 68.9561 -0.311 -0.413 -0.856 92 90 91
-3.2369 11.6481 68.9188 -0.242 -0.413 -0.878 88 88 88
-3.1059 11.6063 68.8786 -0.227 -0.420 -0.879 90 90 90
-2.4048 11.4555 68.8389 -0.285 -0.360 -0.889 83 83 83
-2.3509 11.3197 68.5385 -0.333 -0.369 -0.868 86 86 86
-1.4769 11.3755 69.0726 -0.311 -0.720 -0.620 106 106 106
-0.3926 11.0841 68.8719 -0.053 -0.599 -0.799 95 94 90
-0.2606 11.0441 68.8366 -0.291 -0.606 -0.740 96 95 91
0.0126 10.9743 68.7945 -0.303 -0.617 -0.726 83 83 81
0.1476 10.9378 68.7691 -0.303 -0.617 -0.726 91 91 91
0.2802 10.8987 68.7363 -0.397 -0.554 -0.732 102 102 102
2.3437 10.5622 68.8763 -0.232 -0.572 -0.787 80 80 80
2.4805 10.5272 68.8551 -0.322 -0.578 -0.750 73 73 73
4.0059 10.3205 69.0593 0.011 -0.295 -0.956 127 128 123
4.1506 10.2919 69.0573 0.019 -0.301 -0.953 126 127 122
4.3072 10.2740 69.0860 -0.179 -0.516 -0.838 124 125 120
4.4390 10.2339 69.0505 -0.350 -0.506 -0.788 122 123 118
5.9780 9.8724 68.8901 0.296 -0.409 -0.863 69 66 59
6.6500 9.8316 69.1006 0.179 -0.571 -0.801 76 72 69
9.4633 9.3108 69.1429 -0.102 -0.686 -0.720 100 101 103
9.6313 9.2970 69.1870 0.016 -0.717 -0.697 101 101 101
11.6543 9.1211 69.6931 0.189 -0.467 -0.864 88 89 91
12.2909 9.1591 70.0758 0.133 -0.566 -0.813 102 103 105
13.6128 9.2529 70.9066 -0.599 -0.045 -0.799 107 111 110
13.7210 9.1954 70.8185 -0.570 -0.188 -0.800 106 110 109
19.7686 8.8693 72.8099 0.668 -0.031 -0.744 94 91 86
21.8183 8.3549 72.5176 0.282 -0.460 -0.842 99 108 105
22.3434 8.1788 72.3363 0.219 -0.465 -0.858 81 86 82
25.3052 8.1976 73.7394 0.393 -0.496 -0.774 71 76 80
25.5892 8.2226 73.9293 0.559 -0.592 -0.581 72 77 80
31.2169 8.0705 76.1450 0.249 0.113 -0.962 77 87 86
31.4644 8.0701 76.2575 0.299 0.014 -0.954 81 90 89
31.6654 8.0504 76.3026 0.356 -0.056 -0.933 84 93 92
32.3677 8.0304 76.5767 0.395 -0.664 -0.635 62 71 68
32.5737 8.0119 76.6268 0.346 -0.648 -0.678 66 75 72
33.4175 7.9442 76.8515 -0.166 -0.957 -0.237 71 80 77
-47.0499 29.0962 90.1603 0.118 0.356 -0.927 52 60 63
-46.8558 29.0135 90.0517 0.093 0.337 -0.937 52 60 63
-43.6622 25.9622 84.2356 -0.097 -0.717 -0.690 50 57 63
-43.1268 25.7397 83.9493 -0.283 0.211 -0.936 51 58 66
-40.6940 24.7794 82.7694 -0.348 -0.818 -0.458 82 88 85
-39.1117 23.7169 80.9584 -0.609 -0.635 -0.475 139 165 180
-38.9836 23.7464 81.0871 -0.666 -0.320 -0.674 144 173 187
-38.5995 23.4911 80.6538 -0.636 -0.600 -0.486 155 185 197
-37.0875 22.8376 79.7853 -0.710 -0.358 -0.607 162 191 205
-35.7285 22.5735 79.7752 -0.136 0.578 -0.804 167 196 212
-34.2361 21.8775 78.7966 -0.245 0.416 -0.876 172 201 215
-25.5079 18.6380 75.0539 -0.343 0.592 -0.730 181 203 215
-23.1738 17.1244 72.5103 0.052 -0.510 -0.858 67 67 67
-15.1333 14.5532 70.0467 -0.350 -0.500 -0.792 86 82 81
-13.7289 14.2828 70.0423 -0.089 -0.466 -0.880 95 91 88
-13.6008 14.2189 69.9484 -0.254 -0.407 -0.877 96 92 89
-12.6202 13.6233 68.9758 -0.308 -0.585 -0.750 110 109 105
-8.3133 13.0194 69.4991 -0.093 -0.242 -0.966 115 115 115
-7.9535 12.8222 69.1930 -0.114 -0.022 -0.993 96 94 95
-7.1281 12.6212 69.0900 -0.141 -0.430 -0.892 93 88 85
-6.9894 12.5897 69.0782 -0.147 -0.441 -0.885 95 90 87
-4.8865 11.9182 68.4363 -0.328 -0.763 -0.557 71 67 66
-3.8955 11.9509 68.9657 -0.053 -0.552 -0.832 81 79 80
-3.7810 11.8863 68.8640 -0.118 -0.457 -0.882 76 74 75
-2.5024 11.0331 67.4133 0.003 -0.501 -0.865 89 89 89
-1.2267 10.9952 67.9043 0.183 -0.075 -0.980 104 103 99
-0.2342 11.1744 68.7835 -0.319 -0.628 -0.710 91 90 86
0.4154 10.9646 68.5795 -0.378 -0.616 -0.691 93 93 91
2.3470 10.6702 68.7580 -0.283 -0.597 -0.751 70 70 70
2.4858 10.6371 68.7424 -0.545 -0.438 -0.714 76 76 76
3.9083 10.4985 69.0602 0.149 -0.320 -0.936 104 105 100
4.0490 10.4663 69.0475 -0.026 -0.413 -0.910 118 119 114
4.1872 10.4318 69.0283 -0.029 -0.409 -0.912 112 113 108
4.3300 10.4015 69.0212 -0.341 -0.535 -0.773 106 107 102
4.4634 10.3628 68.9898 -0.393 -0.476 -0.787 103 104 99
7.5201 9.9089 69.3009 -0.081 -0.662 -0.745 68 64 65
9.4574 9.4185 69.0149 -0.200 -0.220 -0.955 104 106 107
12.0320 9.2308 69.7405 0.462 -0.670 -0.581 91 93 92
12.2593 9.2534 69.8980 -0.496 -0.619 -0.609 97 99 98
13.7557 9.3348 70.7739 -0.686 -0.325 -0.652 111 113 110
17.4820 8.8938 71.4207 -0.350 -0.271 -0.897 87 89 86
18.0211 8.8459 71.5521 -0.228 0.093 -0.969 85 87 82
18.2859 8.8770 71.7469 0.057 -0.151 -0.987 86 88 83
18.3306 8.6695 71.2727 -0.370 -0.896 -0.245 89 90 84
18.6582 8.6194 71.3028 -0.291 -0.274 -0.917 92 92 84
19.1735 8.7856 71.9335 0.542 -0.298 -0.786 93 90 85
19.4681 8.8302 72.1741 0.401 -0.659 -0.636 94 91 86
19.7038 8.8423 72.3103 0.401 -0.659 -0.636 100 98 93
20.0432 8.7948 72.3516 -0.708 -0.436 -0.556 103 107 101
20.7559 8.4912 71.9529 -0.038 -0.143 -0.989 113 119 117
20.9050 8.4568 71.9388 -0.054 -0.161 -0.986 112 121 118
21.0555 8.4231 71.9271 -0.054 -0.194 -0.979 112 121 118
22.6395 8.3408 72.4527 0.294 -0.266 -0.918 81 86 82
22.8620 8.3414 72.5556 0.308 -0.257 -0.916 88 93 89
31.7150 8.2052 76.2645 0.290 0.185 -0.939 81 90 89
-47.0142 29.2398 90.0573 0.353 0.099 -0.930 54 59 63
-43.7757 26.1068 84.0959 -0.066 -0.745 -0.664 51 59 62
-43.6469 26.1321 84.2144 -0.100 -0.747 -0.657 51 56 62
-40.6488 24.8820 82.6079 -0.346 -0.821 -0.455 77 83 81
-39.0644 23.8071 80.7771 -0.609 -0.635 -0.475 161 186 201
-38.8404 23.9469 81.2099 0.213 -0.657 -0.723 161 193 204
-38.6653 23.8621 81.0882 -0.307 -0.719 -0.624 161 193 204
-38.5056 23.8150 81.0489 -0.750 -0.375 -0.545 164 194 206
-36.8344 23.5237 81.1150 -0.258 0.474 -0.842 168 198 209
-36.6717 23.4678 81.0561 -0.248 0.483 -0.840 170 200 211
-36.5076 23.4075 80.9874 -0.270 0.483 -0.833 170 200 210
-36.3508 23.3678 80.9643 -0.237 0.480 -0.845 170 200 211
-36.1973 23.3379 80.9629 -0.284 0.475 -0.833 171 200 214
-36.0225 23.2446 80.8208 -0.275 0.479 -0.833 171 200 216
-33.3285 20.9015 76.4856 -0.477 -0.863 -0.166 175 203 215
-33.1766 20.8522 76.4374 -0.449 -0.867 -0.217 152 180 192
-32.5595 20.6133 76.1504 -0.527 -0.808 -0.265 172 202 213
-18.7403 16.3085 72.2019 -0.104 0.573 -0.813 96 91 85
-16.7783 15.0481 70.1021 -0.093 -0.146 -0.985 90 86 83
-11.8574 13.7213 69.1847 -0.028 -0.536 -0.844 72 73 68
-8.4195 13.1957 69.4953 -0.093 -0.274 -0.957 113 113 113
-8.1485 13.1186 69.4351 -0.016 -0.241 -0.970 100 100 100
-7.2647 12.7435 68.9461 -0.132 -0.535 -0.835 86 81 78
-7.1045 12.7481 69.0294 -0.011 -0.709 -0.705 84 79 76
-6.9665 12.7154 69.0145 -0.023 -0.698 -0.716 90 85 82
-4.4278 11.9802 68.4209 -0.076 -0.482 -0.873 75 73 74
-4.2874 11.9520 68.4176 -0.070 -0.483 -0.873 79 77 78
-3.8772 12.0708 68.8849 -0.053 -0.552 -0.832 87 85 86
-3.7552 12.0162 68.8107 -0.129 -0.451 -0.883 77 75 76
-2.1264 11.5890 68.5355 -0.300 -0.497 -0.814 94 94 94
-0.6041 11.0499 67.9468 -0.028 -0.180 -0.983 84 83 79
0.0361 11.2030 68.5996 -0.274 -0.642 -0.716 75 75 73
0.1725 11.1681 68.5786 -0.274 -0.642 -0.716 72 72 72
2.3583 10.7858 68.6619 -0.283 -0.597 -0.751 82 82 82
4.0846 10.6055 69.0161 -0.006 -0.417 -0.909 112 113 108
4.2155 10.5643 68.9779 0.012 -0.414 -0.910 107 108 103
4.3567 10.5325 68.9664 -0.275 -0.565 -0.778 100 101 96
4.4990 10.5017 68.9578 -0.284 -0.551 -0.785 102 103 98
4.6336 10.4641 68.9295 -0.387 -0.504 -0.772 118 119 114
4.7517 10.4119 68.8593 -0.539 -0.358 -0.762 118 119 114
5.9358 10.2040 68.9025 0.264 -0.655 -0.708 102 99 94
7.5265 10.0245 69.1974 -0.081 -0.662 -0.745 100 96 97
7.8432 9.9854 69.2480 -0.139 -0.704 -0.697 101 97 95
7.9889 9.9559 69.2440 -0.096 -0.729 -0.678 79 78 74
11.8634 9.3614 69.5890 0.229 -0.236 -0.944 93 95 94
12.1407 9.4183 69.8494 -0.203 -0.445 -0.872 92 94 93
12.2919 9.3902 69.8513 -0.207 -0.433 -0.877 94 96 93
12.3884 9.3258 69.7422 -0.497 -0.612 -0.615 91 95 94
13.8928 9.4132 70.6306 -0.673 -0.305 -0.674 110 112 109
17.8945 8.8955 71.2153 0.111 -0.483 -0.869 91 93 88
19.5056 8.9733 72.1292 0.259 -0.627 -0.735 96 95 90
19.6583 8.9406 72.1209 0.294 -0.605 -0.740 98 97 92
19.8493 8.9286 72.1790 -0.582 -0.777 -0.238 99 100 94
20.1035 8.8357 72.0739 -0.183 -0.778 -0.601 97 102 98
20.2577 8.8039 72.0681 -0.183 -0.778 -0.601 96 102 98
20.8079 8.6414 71.9321 -0.083 -0.231 -0.969 99 108 107
20.9461 8.6012 71.8994 -0.051 -0.151 -0.987 102 111 108
21.0975 8.5679 71.8890 -0.065 -0.180 -0.982 102 111 108
21.2407 8.5304 71.8650 -0.043 -0.195 -0.980 100 109 106
22.0620 8.6163 72.4404 -0.143 -0.669 -0.729 90 96 94
22.2359 8.5934 72.4649 -0.275 -0.686 -0.674 82 88 86
29.2807 8.7639 76.0590 0.743 0.034 -0.668 73 79 79
29.0458 8.5552 75.4578 0.568 -0.155 -0.808 74 82 84
32.0135 8.3599 76.3387 0.297 0.258 -0.919 79 88 87
32.1946 8.3319 76.3542 0.416 -0.028 -0.909 74 83 82
32.5302 8.2647 76.3469 0.349 -0.652 -0.673 62 73 69
33.2869 8.1640 76.4509 0.053 -0.359 -0.932 65 76 72
33.4856 8.1424 76.4895 -0.025 -0.285 -0.958 66 75 72
34.4276 8.1116 76.8432 0.479 -0.218 -0.850 61 65 64
34.9111 8.1993 77.2701 0.608 -0.313 -0.730 61 65 64
-43.1214 26.4255 84.7132 -0.678 0.318 -0.662 40 45 51
-42.8961 26.2554 84.4134 -0.799 0.218 -0.561 46 51 54
-42.6341 26.0064 83.9439 -0.799 0.218 -0.561 45 49 52
-41.3237 25.0169 82.1997 -0.233 0.480 -0.846 68 72 73
-41.0683 25.0750 82.4516 -0.178 -0.192 -0.965 68 72 73
-40.7613 25.0206 82.4614 -0.301 -0.581 -0.756 65 69 71
-40.5890 24.9508 82.3742 -0.287 -0.671 -0.684 64 70 67
-40.4323 24.9161 82.3631 -0.114 -0.392 -0.913 66 75 68
-33.2969 21.0130 76.3673 0.358 0.540 -0.762 175 203 215
-23.8368 17.6560 72.7060 -0.311 -0.239 -0.920 67 67 67
-23.6943 17.6058 72.6515 -0.676 -0.061 -0.735 67 67 67
-23.4095 17.3559 72.1902 0.378 -0.564 -0.734 79 79 79
-19.0248 16.3339 71.7528 0.430 -0.748 -0.505 108 103 97
-18.5743 16.4037 72.1201 0.622 -0.090 -0.778 99 95 92
-18.4270 16.4023 72.1831 0.631 -0.054 -0.774 111 107 104
-17.4304 15.4238 70.3235 -0.452 -0.710 -0.540 59 58 54
-16.7531 15.1830 70.0604 -0.103 -0.164 -0.981 87 83 80
-16.6230 15.1132 69.9542 0.146 -0.243 -0.959 99 95 92
-15.5150 14.8569 69.8482 0.152 -0.275 -0.950 86 85 83
-13.2846 14.3847 69.7382 -0.120 -0.303 -0.945 89 85 82
-11.9967 12.7388 66.4353 0.208 -0.308 -0.928 65 66 61
-9.3084 13.3618 69.1147 -0.106 -0.321 -0.941 50 49 47
-9.1424 13.3839 69.2414 -0.043 -0.583 -0.811 61 60 58
-9.0067 13.3464 69.2142 -0.189 -0.593 -0.783 76 75 73
-8.7280 13.2855 69.1960 -0.071 -0.661 -0.747 99 99 98
-7.9667 13.2482 69.4505 0.015 -0.225 -0.974 91 90 89
-7.8378 13.1977 69.3895 -0.504 -0.254 -0.826 85 83 83
-7.2484 12.8580 68.8534 -0.168 -0.488 -0.857 81 77 74
-7.1051 12.8346 68.8626 -0.132 -0.535 -0.835 90 85 82
-6.9705 12.7967 68.8339 -0.168 -0.488 -0.857 101 96 93
-4.3932 12.1220 68.4020 -0.067 -0.372 -0.926 80 78 78
-4.2563 12.0887 68.3852 -0.146 -0.369 -0.918 84 83 83
-3.8623 12.1860 68.7921 -0.064 -0.548 -0.834 91 90 90
-3.7279 12.1482 68.7632 -0.313 -0.204 -0.928 78 76 76
-2.2290 11.7629 68.5289 -0.039 -0.406 -0.913 90 90 90
-2.0797 11.7441 68.5519 -0.040 -0.416 -0.909 100 100 100
0.0564 11.3265 68.5281 0.071 -0.106 -0.992 84 84 82
2.3696 10.9012 68.5659 -0.283 -0.597 -0.751 95 95 94
4.2272 10.6818 68.8842 0.233 -0.613 -0.755 100 101 96
4.3772 10.6581 68.8958 -0.193 -0.798 -0.571 93 94 89
4.5469 10.6518 68.9574 -0.347 -0.492 -0.798 94 95 90
4.6715 10.6051 68.9033 -0.524 -0.517 -0.677 111 112 107
4.7944 10.5570 68.8452 -0.525 -0.522 -0.672 111 112 106
5.0296 10.4522 68.7038 -0.525 -0.349 -0.776 110 111 106
5.8628 10.4022 68.9608 -0.251 -0.504 -0.826 102 98 95
5.9907 10.3587 68.9158 -0.065 -0.698 -0.713 103 100 95
6.1280 10.3233 68.8941 0.050 -0.692 -0.720 102 99 95
8.1260 10.0305 69.1026 -0.119 -0.711 -0.693 125 124 116
11.9390 9.5270 69.6308 0.192 0.115 -0.975 87 89 88
12.1605 9.5466 69.7766 -0.072 -0.540 -0.839 85 87 84
12.3130 9.5194 69.7811 -0.072 -0.540 -0.839 85 87 85
13.4931 9.3998 70.0302 0.013 -0.942 -0.335 110 114 113
13.8512 9.3775 70.1386 -0.028 -0.432 -0.901 98 98 96
14.0084 9.3521 70.1495 -0.125 -0.506 -0.853 98 98 96
19.8738 9.0648 72.1114 -0.331 0.276 -0.902 97 98 92
20.6552 8.9102 72.0984 -0.026 -0.227 -0.974 91 97 93
20.6796 8.8098 71.8726 -0.053 -0.554 -0.831 92 98 96
20.8209 8.7713 71.8453 -0.080 -0.518 -0.852 91 99 97
20.9752 8.7395 71.8398 -0.124 -0.467 -0.876 91 100 97
21.1446 8.7155 71.8595 -0.057 -0.222 -0.973 91 100 97
21.3109 8.6899 71.8739 -0.031 -0.159 -0.987 89 98 95
28.3664 8.1813 73.8493 -0.514 -0.248 -0.821 74 81 87
30.5578 8.4009 75.3535 0.726 -0.347 -0.594 75 84 81
32.2679 8.5996 76.5918 -0.015 0.218 -0.976 77 86 85
34.7537 8.3756 77.1822 0.367 -0.850 -0.378 61 65 64
35.1174 8.4169 77.4431 0.367 -0.850 -0.378 61 65 64
35.4875 8.4599 77.7112 0.349 -0.863 -0.365 55 61 57
36.8496 8.5801 78.6076 0.359 -0.833 -0.422 39 45 43
-41.0530 25.2447 82.4363 -0.208 -0.318 -0.925 68 72 73
-40.7222 25.1365 82.3304 -0.365 -0.604 -0.709 64 70 71
-23.8130 17.8027 72.6810 -0.324 -0.233 -0.917 70 70 68
-23.6705 17.7573 72.6384 -0.674 -0.071 -0.735 71 71 69
-21.6785 17.2709 72.3876 -0.103 -0.243 -0.965 74 73 71
-19.7566 16.2170 70.7739 0.233 -0.003 -0.973 75 72 67
-17.5293 15.6692 70.4845 -0.378 0.064 -0.923 89 88 86
-17.4041 15.5650 70.2959 -0.589 -0.114 -0.800 85 84 82
-16.7264 15.3243 70.0339 -0.103 -0.164 -0.981 87 86 84
-13.1053 14.1102 68.8043 -0.272 -0.318 -0.908 94 91 86
-10.5617 13.7055 68.9921 -0.053 -0.300 -0.952 54 53 51
-10.4459 13.6257 68.8565 -0.232 -0.696 -0.679 53 52 50
-10.3139 13.5816 68.8121 -0.326 -0.547 -0.771 51 50 48
-10.1793 13.5433 68.7825 -0.326 -0.547 -0.771 50 49 47
-9.4216 13.5237 69.0754 -0.098 -0.177 -0.979 31 30 28
-9.1230 13.5027 69.1596 -0.143 -0.493 -0.858 48 47 45
-8.9913 13.4577 69.1128 -0.147 -0.510 -0.847 70 69 67
-8.8612 13.4095 69.0579 -0.003 -0.529 -0.849 85 84 82
-8.7133 13.3957 69.0916 0.002 -0.557 -0.830 90 88 83
-8.5683 13.3760 69.1102 -0.021 -0.551 -0.834 91 88 82
-7.9423 13.3771 69.3928 0.059 -0.658 -0.751 82 78 74
-7.8128 13.3276 69.3346 -0.157 0.220 -0.963 82 78 74
-7.0582 13.0005 68.9045 -0.445 -0.710 -0.545 93 91 90
-4.3543 12.2699 68.3990 -0.158 -0.392 -0.906 99 97 94
-4.2157 12.2388 68.3882 -0.158 -0.392 -0.906 99 98 94
-3.8440 12.3059 68.7119 -0.064 -0.548 -0.834 96 95 92
-3.6984 12.2832 68.7236 -0.313 -0.204 -0.928 83 82 78
-1.4745 11.3849 67.6100 -0.168 -0.765 -0.622 92 92 94
-0.8568 11.7198 68.6724 -0.364 -0.440 -0.821 89 91 89
0.1869 11.3865 68.3569 0.016 -0.291 -0.957 86 86 86
0.3342 11.3637 68.3694 -0.205 -0.159 -0.966 78 78 78
4.2049 10.7682 68.7029 0.083 -0.532 -0.843 96 96 94
4.3430 10.7340 68.6843 0.105 -0.591 -0.800 92 93 88
4.5531 10.7645 68.8500 -0.230 -0.394 -0.890 92 93 87
4.6689 10.7099 68.7737 -0.363 -0.455 -0.813 104 103 96
4.7930 10.6630 68.7190 -0.407 -0.464 -0.787 104 103 96
4.9094 10.6095 68.6456 -0.370 -0.454 -0.811 104 103 96
5.0370 10.5661 68.6007 -0.470 -0.482 -0.740 104 104 97
5.8906 10.5344 68.9081 -0.125 -0.528 -0.840 100 100 92
6.0356 10.5053 68.9047 -0.125 -0.528 -0.840 100 100 92
6.1370 10.4395 68.7957 0.109 -0.653 -0.750 103 100 92
6.2885 10.4160 68.8083 0.118 -0.646 -0.754 101 98 90
6.8713 10.3022 68.8018 0.172 -0.603 -0.779 96 93 88
7.7070 10.2435 69.0380 -0.147 -0.491 -0.859 101 100 98
7.8576 10.2180 69.0454 -0.159 -0.501 -0.851 104 101 98
7.9925 10.1802 69.0170 -0.112 -0.496 -0.861 115 111 105
8.1240 10.1397 68.9808 -0.100 -0.520 -0.849 117 113 104
8.2586 10.1018 68.9520 -0.102 -0.714 -0.692 116 112 103
8.6328 10.1064 69.1301 0.065 0.273 -0.960 112 109 101
12.5712 9.6778 69.8859 0.398 -0.291 -0.870 100 103 100
13.3912 9.5767 70.0153 0.010 0.056 -0.998 111 115 110
13.5425 9.5479 70.0152 0.010 0.056 -0.998 113 114 110
14.0257 9.4797 70.0713 -0.125 -0.506 -0.853 107 109 106
15.1800 9.3332 70.2438 0.314 -0.486 -0.816 100 100 98
20.1745 9.1196 71.9764 0.247 -0.045 -0.968 95 101 97
20.3602 9.1046 72.0244 0.247 -0.045 -0.968 95 101 97
20.6988 9.0566 72.0631 -0.026 -0.227 -0.974 91 97 93
20.7792 8.9854 71.9319 0.096 -0.161 -0.982 93 99 95
20.9499 8.9621 71.9537 0.084 -0.101 -0.991 93 99 95
28.1792 8.3319 73.7080 -0.211 0.041 -0.977 73 83 84
28.3212 8.2910 73.6755 -0.211 0.041 -0.977 72 82 84
35.0010 8.5089 77.1744 0.536 -0.608 -0.585 39 45 43
35.4155 8.5700 77.5033 0.293 -0.832 -0.472 40 46 44
35.7172 8.5864 77.6767 0.266 -0.843 -0.468 43 49 47
36.2039 8.6739 78.0998 0.498 -0.661 -0.561 44 50 48
36.5703 8.7140 78.3577 0.521 -0.611 -0.596 44 50 48
-50.3851 30.8167 90.8805 -0.867 -0.144 -0.477 41 52 54
-41.6687 25.8707 83.2055 -0.922 -0.181 -0.343 71 75 76
-41.0252 25.3862 82.3602 -0.216 -0.314 -0.925 67 73 73
-40.5225 25.2084 82.1685 -0.574 -0.456 -0.680 65 70 68
-40.3728 25.1899 82.1918 -0.201 -0.425 -0.882 69 74 68
-19.7304 16.3664 70.7637 0.098 -0.853 -0.512 77 74 69
-17.9171 15.9324 70.5563 -0.635 -0.249 -0.731 101 97 96
-17.2540 15.5988 70.0721 -0.662 -0.280 -0.695 89 88 86
-16.7068 15.4340 69.9305 0.072 -0.391 -0.918 88 87 85
-12.5163 14.1547 68.8059 -0.391 -0.304 -0.869 93 90 85
-10.5175 13.8777 69.0475 -0.118 -0.252 -0.961 54 53 51
-10.1679 13.6441 68.6575 -0.335 -0.571 -0.750 57 56 54
-9.2598 13.6185 69.0014 -0.064 -0.208 -0.976 33 32 30
-8.9740 13.5723 69.0205 -0.094 -0.189 -0.977 63 62 60
-8.5283 13.5337 69.1284 0.137 -0.187 -0.973 77 74 67
-7.9141 13.5128 69.3528 0.094 -0.608 -0.788 68 65 58
-7.7879 13.4573 69.2792 -0.281 -0.292 -0.914 68 65 60
-7.4287 13.2601 68.9784 -0.649 -0.383 -0.657 83 82 78
-7.3081 13.1972 68.8853 -0.541 -0.614 -0.575 82 81 79
-7.1819 13.1444 68.8180 -0.445 -0.710 -0.545 86 85 83
-3.8236 12.4285 68.6391 -0.182 -0.577 -0.796 94 93 89
-3.6976 12.3792 68.5800 -0.137 -0.509 -0.850 83 82 78
-3.5514 12.3575 68.5944 -0.118 -0.519 -0.847 83 82 78
-1.2240 11.9753 68.7364 -0.527 -0.507 -0.682 92 92 94
-1.1056 11.9185 68.6564 -0.505 -0.513 -0.694 92 92 94
-0.9822 11.8677 68.5926 -0.292 -0.437 -0.850 94 94 96
-0.8476 11.8304 68.5655 -0.292 -0.437 -0.850 93 95 94
-0.6968 11.8119 68.5891 -0.277 -0.411 -0.868 94 96 95
0.4107 11.5485 68.4665 0.044 -0.702 -0.711 78 78 78
4.3601 10.8560 68.6049 0.100 -0.523 -0.846 91 92 87
4.5251 10.8462 68.6554 -0.093 -0.449 -0.889 94 95 89
4.6582 10.8073 68.6237 -0.327 -0.451 -0.830 103 103 95
4.7789 10.7575 68.5612 -0.345 -0.439 -0.830 103 103 93
4.9101 10.7172 68.5254 -0.287 -0.397 -0.872 104 104 96
5.0393 10.6753 68.4849 -0.350 -0.424 -0.835 99 99 91
5.1672 10.6323 68.4414 -0.209 -0.343 -0.916 95 95 87
5.8749 10.6294 68.7491 -0.140 -0.521 -0.842 100 100 92
6.4543 10.5132 68.7355 0.087 -0.175 -0.981 94 94 84
6.7647 10.4720 68.7772 0.108 -0.220 -0.970 98 98 90
7.4114 10.4087 68.9169 -0.092 -0.455 -0.886 86 83 78
7.7289 10.3712 68.9705 -0.085 -0.472 -0.877 94 93 88
7.8777 10.3444 68.9739 -0.149 -0.491 -0.858 100 97 90
8.1207 10.2477 68.8562 0.049 -0.613 -0.789 111 104 93
8.2521 10.2074 68.8206 0.012 -0.721 -0.693 110 104 93
8.4788 10.2408 68.9992 -0.057 -0.184 -0.981 109 104 93
8.6279 10.2138 69.0025 0.011 -0.165 -0.986 104 100 88
12.7562 9.7873 69.8417 0.282 -0.455 -0.845 109 109 103
14.7901 9.4553 69.9706 -0.630 -0.476 -0.613 96 96 91
14.9554 9.4348 69.9961 -0.608 -0.420 -0.674 92 93 91
15.0953 9.3983 69.9731 -0.627 -0.459 -0.629 92 94 91
15.2447 9.3677 69.9682 0.374 -0.661 -0.651 94 96 93
20.7329 9.0839 71.7450 0.065 -0.267 -0.962 93 99 95
25.5947 8.6503 72.8938 -0.535 0.193 -0.823 63 67 66
28.2462 8.4909 73.7002 -0.211 0.041 -0.977 73 81 83
33.4138 8.4186 75.8284 0.622 -0.494 -0.607 62 71 68
35.6185 8.6860 77.4329 0.274 -0.833 -0.481 42 48 46
36.1289 8.7837 77.8880 0.485 -0.673 -0.558 42 48 46
36.5328 8.8390 78.1966 0.521 -0.611 -0.596 45 51 49
-50.3124 30.9009 90.6529 -0.856 -0.172 -0.488 41 52 54
-41.6589 26.0541 83.2148 -0.914 -0.188 -0.360 76 80 83
-41.2145 25.6979 82.5835 -0.372 -0.533 -0.760 68 73 74
-41.0322 25.6067 82.4522 -0.442 -0.121 -0.889 62 70 72
-32.7045 21.5602 76.7297 0.153 -0.228 -0.962 164 192 203
-22.7744 17.4801 71.6370 -0.864 -0.230 -0.448 77 76 72
-16.6808 15.5726 69.8974 -0.043 -0.552 -0.833 88 87 85
-16.5429 15.5367 69.8748 0.108 -0.219 -0.970 89 88 85
-12.4888 14.2915 68.7727 -0.449 -0.271 -0.851 87 84 79
-11.9233 13.1178 66.2955 0.168 -0.226 -0.960 74 73 69
-11.4924 13.1009 66.4466 0.409 -0.379 -0.830 57 56 52
-10.4300 13.8109 68.5658 -0.114 -0.441 -0.890 50 49 47
-10.2893 13.7863 68.5707 -0.355 -0.620 -0.700 57 56 54
-10.1508 13.7567 68.5632 -0.336 -0.582 -0.740 68 67 65
-10.0134 13.7250 68.5501 -0.295 -0.568 -0.768 75 74 72
-9.2436 13.7306 68.9034 -0.199 -0.306 -0.931 54 53 51
-9.0892 13.7306 68.9715 -0.221 -0.215 -0.951 62 61 59
-8.9529 13.6945 68.9480 -0.221 -0.215 -0.951 71 70 68
-8.8272 13.6382 68.8725 -0.199 -0.270 -0.942 78 77 74
-8.2019 13.6437 69.1616 0.174 -0.939 -0.298 76 73 66
-8.0298 13.6722 69.3040 0.360 -0.890 -0.280 67 64 57
-3.8078 12.5448 68.5498 -0.113 -0.518 -0.848 89 88 84
-3.6616 12.5231 68.5639 -0.155 -0.467 -0.871 83 82 78
-3.5229 12.4912 68.5511 -0.088 -0.473 -0.877 83 82 78
-3.3805 12.4642 68.5513 -0.088 -0.473 -0.877 83 82 78
-2.7184 12.4756 68.8702 0.304 -0.456 -0.836 79 79 79
-0.8449 11.9333 68.4380 0.063 -0.479 -0.876 100 102 101
0.4276 11.6685 68.3850 0.026 -0.660 -0.751 85 85 85
1.5098 11.5567 68.6033 0.260 0.318 -0.912 87 86 82
4.3790 10.9798 68.5306 0.100 -0.523 -0.846 85 86 81
4.5409 10.9672 68.5728 -0.057 -0.466 -0.883 86 87 81
4.6743 10.9286 68.5422 -0.344 -0.457 -0.820 92 92 84
4.8092 10.8915 68.5157 -0.547 -0.481 -0.685 91 91 81
4.9383 10.8493 68.4746 -0.414 -0.479 -0.774 91 91 81
5.0692 10.8088 68.4382 -0.378 -0.455 -0.806 89 89 79
5.2031 10.7711 68.4097 -0.165 -0.337 -0.927 90 90 80
6.3994 10.8790 69.1892 -0.877 -0.433 -0.210 100 100 90
7.1102 10.2750 68.0996 -0.298 -0.561 -0.773 80 80 71
8.0353 10.4349 68.8799 -0.286 -0.405 -0.869 105 99 88
8.1644 10.3925 68.8385 -0.294 -0.403 -0.867 107 99 86
8.2959 10.3521 68.8028 -0.285 -0.409 -0.867 107 100 87
8.4273 10.3117 68.7669 -0.272 -0.401 -0.875 102 96 83
8.7175 10.3939 69.0862 -0.110 -0.311 -0.944 93 87 72
11.0794 10.0667 69.3695 0.129 -0.677 -0.725 96 98 93
12.7231 9.8804 69.6628 0.110 -0.708 -0.698 110 107 98
13.9549 9.7935 70.0051 0.230 -0.521 -0.822 120 113 104
15.2368 9.6032 70.1294 0.469 -0.498 -0.729 97 99 96
18.1657 9.5324 71.2590 0.575 -0.332 -0.748 96 97 92
18.8270 9.5534 71.5999 -0.220 -0.738 -0.638 97 98 93
19.0389 9.5548 71.6967 -0.143 -0.700 -0.700 97 98 93
19.1894 9.5213 71.6854 -0.100 -0.739 -0.667 96 98 93
19.3550 9.4963 71.7004 -0.129 -0.697 -0.706 94 96 93
19.5001 9.4597 71.6796 -0.018 -0.630 -0.777 89 91 88
20.7813 9.2325 71.7178 0.164 -0.229 -0.959 86 92 88
20.9550 9.2111 71.7446 -0.316 -0.207 -0.926 91 96 92
21.1896 9.2217 71.8730 0.243 -0.441 -0.864 92 99 95
21.3773 9.2073 71.9224 0.377 -0.376 -0.846 91 100 95
21.5936 9.2076 72.0186 0.377 -0.376 -0.846 91 100 95
22.5989 9.1652 72.3645 0.300 -0.111 -0.947 77 84 77
22.7980 9.1550 72.4287 0.300 -0.111 -0.947 77 84 77
25.4587 9.2553 73.8373 -0.692 -0.095 -0.716 85 89 89
25.4817 8.9388 73.1120 -0.661 0.012 -0.751 75 79 80
28.0547 8.8494 74.0411 -0.390 -0.451 -0.803 83 89 87
28.1199 8.7733 73.8930 -0.360 -0.475 -0.803 83 89 87
28.1904 8.6998 73.7535 -0.404 -0.487 -0.774 78 83 84
28.2754 8.6332 73.6362 -0.154 0.038 -0.987 75 80 81
33.3640 8.4324 75.4179 0.460 -0.808 -0.368 63 69 67
34.1295 8.6386 76.2353 0.573 -0.576 -0.583 63 69 67
36.1569 8.9333 77.8158 0.553 -0.423 -0.718 42 48 46
-50.2853 31.0614 90.5832 -0.813 0.105 -0.572 36 48 48
-41.0154 25.7738 82.4298 -0.430 -0.122 -0.895 60 68 70
-40.8417 25.7014 82.3386 -0.745 -0.447 -0.495 58 68 69
-40.4506 25.4528 81.9357 -0.808 -0.312 -0.499 62 66 66
-38.9752 24.6185 80.6547 0.158 -0.251 -0.955 160 188 209
-33.0586 22.0726 77.3672 0.221 -0.963 -0.156 168 196 208
-32.8087 22.1969 77.7643 0.288 -0.933 -0.216 165 193 204
-32.1198 20.5802 74.3291 0.521 0.078 -0.850 169 198 212
-19.6685 16.7462 70.9331 0.322 -0.153 -0.934 81 78 73
-13.2557 14.7057 69.0319 -0.183 -0.182 -0.966 109 108 105
-12.7151 14.5491 68.9072 -0.418 -0.235 -0.878 89 86 81
-12.4605 14.4307 68.7452 -0.398 -0.426 -0.812 82 79 74
-10.2742 13.8943 68.4653 -0.330 -0.614 -0.717 60 59 57
-9.9974 13.8354 68.4507 -0.189 -0.487 -0.852 85 84 82
-9.0655 13.8576 68.9113 -0.127 -0.602 -0.789 87 86 84
-8.9265 13.8270 68.9014 -0.160 -0.633 -0.758 92 91 89
-3.7811 12.6760 68.4999 -0.028 -0.477 -0.878 85 84 80
-3.6365 12.6522 68.5083 -0.028 -0.477 -0.878 83 82 78
-3.4918 12.6283 68.5168 -0.028 -0.477 -0.878 83 82 78
-3.3471 12.6044 68.5252 -0.028 -0.477 -0.878 83 82 78
-2.6524 12.6585 68.9553 -0.332 -0.474 -0.816 79 79 79
-0.8230 12.0584 68.3712 0.063 -0.479 -0.876 105 107 106
-0.3780 11.9945 68.4189 -0.401 -0.751 -0.525 104 106 105
-0.2388 11.9625 68.4060 -0.368 -0.552 -0.748 96 98 97
0.0107 11.8659 68.2923 -0.440 -0.512 -0.737 72 72 72
0.4413 11.7848 68.2940 0.002 -0.709 -0.705 97 97 97
1.5499 11.7016 68.5884 -0.292 -0.830 -0.475 87 86 82
1.6909 11.6706 68.5787 -0.247 -0.760 -0.601 88 87 83
1.8418 11.6498 68.5967 -0.276 -0.749 -0.603 88 87 83
1.9291 11.5636 68.4359 -0.145 -0.649 -0.747 93 92 88
2.0551 11.5175 68.3845 -0.408 -0.386 -0.828 93 92 88
2.1837 11.4743 68.3413 -0.408 -0.386 -0.828 93 92 88
2.5733 11.3491 68.2229 -0.500 -0.338 -0.797 77 77 75
2.6867 11.2915 68.1395 -0.258 -0.579 -0.773 78 78 76
2.8302 11.2636 68.1379 0.045 -0.471 -0.881 74 74 72
4.0901 11.1425 68.4113 -0.002 -0.545 -0.839 80 80 78
4.3890 11.0953 68.4334 0.168 -0.716 -0.677 79 80 75
4.5561 11.0876 68.4889 -0.063 -0.470 -0.881 78 79 73
5.0867 10.9314 68.3608 -0.378 -0.455 -0.806 79 79 69
5.2179 10.8912 68.3255 -0.169 -0.340 -0.925 83 83 73
5.9905 10.9452 68.7896 -0.443 -0.671 -0.595 101 101 91
6.4009 10.9895 69.0722 -0.768 -0.624 -0.143 100 100 90
7.1368 10.4051 68.0444 -0.282 -0.571 -0.771 84 84 74
7.5778 10.1822 67.7227 -0.340 -0.593 -0.730 99 93 82
8.6700 10.4683 68.8638 -0.791 -0.336 -0.512 98 89 74
10.3767 10.3536 69.3480 0.079 -0.266 -0.961 111 110 101
10.6504 10.2788 69.2953 0.063 -0.004 -0.998 104 106 101
10.7636 10.2245 69.2194 0.222 -0.704 -0.675 103 105 100
10.9440 10.2185 69.2848 0.222 -0.704 -0.675 104 106 101
11.1339 10.2190 69.3693 0.343 -0.723 -0.600 104 106 101
11.3317 10.2247 69.4695 0.357 -0.721 -0.593 105 106 101
15.3382 9.6600 69.9232 0.432 -0.603 -0.671 104 109 105
15.7348 9.6586 70.0943 0.432 -0.658 -0.617 105 110 106
18.6169 9.6740 71.3953 -0.057 -0.784 -0.618 91 92 86
18.7648 9.6395 71.3804 -0.178 -0.486 -0.856 91 92 87
18.9745 9.6400 71.4738 -0.228 -0.533 -0.815 90 92 89
19.1235 9.6059 71.4604 -0.225 -0.531 -0.817 90 92 89
19.3851 9.6351 71.6428 0.390 -0.514 -0.764 88 92 91
20.5234 9.4462 71.7058 -0.200 -0.402 -0.894 84 90 86
20.7902 9.4751 71.8900 0.158 -0.776 -0.611 87 93 89
21.7528 9.4152 72.1741 0.358 -0.804 -0.474 86 95 90
23.0456 9.2943 72.4623 -0.319 -0.666 -0.674 78 85 78
23.5370 9.2086 72.4799 -0.106 -0.524 -0.845 90 95 89
23.6758 9.1674 72.4456 -0.099 -0.525 -0.846 92 97 91
27.9452 9.0357 74.0159 -0.294 -0.394 -0.871 67 73 71
28.2017 8.8343 73.6630 -0.404 -0.487 -0.774 72 74 73
28.3482 8.7951 73.6367 -0.382 -0.063 -0.922 68 69 71
29.3942 8.5302 73.4837 -0.324 -0.163 -0.932 65 74 71
36.6688 9.1707 78.1589 0.593 0.009 -0.805 45 51 47
-50.5958 31.5411 91.1005 -0.810 0.104 -0.577 36 50 50
-49.2489 30.5044 89.3035 -0.605 0.341 -0.720 42 52 53
-45.4950 28.4449 86.2045 0.029 -0.658 -0.753 41 50 57
-45.3133 28.3735 86.1194 -0.521 -0.018 -0.853 42 49 57
-41.3187 26.0227 82.4552 -0.396 -0.520 -0.756 58 66 69
-40.3977 25.5350 81.7354 -0.759 -0.425 -0.493 70 74 74
-38.9822 24.8436 80.7628 0.050 -0.273 -0.961 158 188 209
-24.2861 18.4429 72.4530 -0.131 -0.974 -0.184 79 79 78
-21.4582 17.4563 71.4178 0.007 -0.601 -0.799 76 75 73
-19.6333 16.9708 71.0973 0.100 -0.308 -0.946 75 72 67
-17.5615 16.2801 70.4129 0.152 -0.505 -0.850 78 74 73
-13.1740 15.0002 69.3835 0.006 -0.684 -0.729 116 115 112
-12.4428 14.5418 68.6481 -0.400 -0.430 -0.809 91 88 83
-10.1338 13.9451 68.2834 0.037 -0.763 -0.645 65 64 62
-8.7589 13.9328 68.8550 -0.154 -0.353 -0.923 90 89 86
-5.1381 13.1316 68.5923 0.763 -0.463 -0.451 76 70 72
-4.5911 12.9924 68.5110 -0.452 -0.558 -0.696 80 74 76
-4.1840 12.8840 68.4393 -0.009 -0.609 -0.793 77 74 72
-4.0329 12.8696 68.4722 -0.162 -0.475 -0.865 77 76 72
-3.8932 12.8391 68.4629 -0.162 -0.475 -0.865 76 75 71
-3.7569 12.8038 68.4412 -0.112 -0.458 -0.882 73 72 68
-3.6120 12.7805 68.4507 -0.086 -0.445 -0.891 61 60 56
-3.4697 12.7534 68.4506 -0.086 -0.445 -0.891 62 61 57
-3.3273 12.7263 68.4504 -0.086 -0.445 -0.891 61 60 56
-2.9646 12.7757 68.7223 0.463 -0.487 -0.740 68 68 68
-2.8083 12.7659 68.7680 0.399 -0.386 -0.832 68 68 68
-2.6290 12.7860 68.8924 -0.217 -0.416 -0.883 68 68 68
-2.3539 12.7158 68.8511 -0.290 -0.400 -0.869 80 80 80
-0.7993 12.1857 68.3101 0.075 -0.485 -0.871 97 99 98
-0.3958 12.0741 68.2296 -0.440 -0.735 -0.516 97 99 98
-0.2389 12.0626 68.2716 -0.353 -0.558 -0.751 87 89 88
1.3592 11.7829 68.3258 -0.063 -0.015 -0.998 75 74 72
1.5658 11.8213 68.5043 -0.416 -0.444 -0.794 78 77 73
1.7122 11.7960 68.5100 -0.412 -0.447 -0.794 82 81 77
1.6521 11.5566 67.9330 0.013 -0.534 -0.845 84 83 79
1.9390 11.6771 68.3354 -0.145 -0.649 -0.747 82 81 77
2.4775 11.5287 68.2291 -0.453 -0.312 -0.835 81 81 79
2.5969 11.4766 68.1614 -0.417 -0.300 -0.858 81 81 79
2.7321 11.4404 68.1370 -0.289 -0.395 -0.872 81 81 79
2.9536 11.3203 67.9574 0.280 -0.598 -0.751 67 67 65
4.5706 11.2073 68.4034 -0.118 -0.392 -0.913 78 79 73
5.0936 11.0443 68.2567 -0.401 -0.431 -0.808 79 79 69
7.4300 10.3160 67.6010 -0.360 -0.604 -0.711 99 96 87
7.5378 10.2589 67.5166 -0.189 -0.523 -0.831 97 91 80
7.6651 10.2175 67.4769 -0.183 -0.545 -0.818 98 89 77
9.9584 10.4336 68.9750 0.030 -0.136 -0.990 118 112 98
10.5519 10.4572 69.2883 -0.213 -0.127 -0.969 109 111 105
