ply
format ascii 1.0
element vertex 865
property float x
property float y
property float z
property float nx
property float ny
property float nz
property uchar diffuse_red
property uchar diffuse_green
property uchar diffuse_blue
end_header
-15.4386 35.6968 62.8062 -0.451 -0.113 -0.885 87 83 71
-15.1880 35.6124 62.6972 -0.205 -0.270 -0.941 76 75 58
-14.7189 35.4253 62.4298 -0.196 -0.183 -0.963 113 110 93
-14.0580 35.3484 62.4618 -0.330 -0.573 -0.750 131 128 109
-13.9260 35.3099 62.4174 -0.272 -0.544 -0.793 118 115 96
-11.4440 34.7785 62.0061 -0.025 -0.589 -0.808 95 87 75
-11.3355 34.7270 61.9264 -0.483 -0.445 -0.754 99 91 78
-7.6657 34.0197 61.4898 -0.014 -0.439 -0.898 79 71 52
-7.4645 34.0115 61.5327 -0.063 -0.522 -0.851 72 61 43
-7.1864 33.9371 61.4541 -0.503 -0.405 -0.763 85 72 55
-7.0570 33.8954 61.4020 -0.288 -0.207 -0.935 92 79 62
-6.9494 33.8439 61.3218 -0.254 -0.242 -0.936 105 92 75
-6.8129 33.8055 61.2792 -0.371 -0.192 -0.908 108 95 78
-6.6822 33.7645 61.2291 -0.444 -0.093 -0.891 90 77 61
-5.5050 33.4941 60.9938 -0.100 -0.469 -0.878 117 109 96
-5.3270 33.4734 61.0025 0.026 -0.342 -0.939 119 111 100
-5.1435 33.4549 61.0175 -0.013 -0.394 -0.919 121 113 101
-3.7656 33.2626 61.0138 -0.395 0.175 -0.902 76 82 52
-3.6716 33.2055 60.9174 -0.298 0.109 -0.948 64 70 40
0.4844 32.5849 60.8178 -0.345 -0.066 -0.936 65 65 55
0.5898 32.5323 60.7347 -0.274 -0.188 -0.943 65 65 55
0.7213 32.4895 60.6808 -0.105 -0.414 -0.904 58 58 48
0.8753 32.4550 60.6518 0.191 -0.286 -0.939 51 51 41
1.2668 32.4161 60.6854 0.035 -0.142 -0.989 51 51 39
1.8011 32.3373 60.6748 -0.067 -0.110 -0.992 54 54 46
2.0249 32.3272 60.7203 -0.177 0.062 -0.982 46 46 37
3.6383 32.0859 60.6808 -0.351 -0.469 -0.811 70 68 55
6.6022 31.6632 60.6533 -0.166 -0.411 -0.896 39 38 33
6.7731 31.6311 60.6347 -0.194 -0.387 -0.901 40 39 34
6.9676 31.6064 60.6396 -0.126 -0.378 -0.917 40 39 34
9.0208 31.3842 60.7750 -0.130 0.028 -0.991 63 61 49
11.4628 31.0889 60.8685 -0.324 -0.174 -0.930 132 129 112
12.7537 30.9527 60.9611 0.059 -0.223 -0.973 137 134 115
15.1178 30.7690 61.2750 -0.570 -0.719 -0.398 143 143 117
15.6981 30.6754 61.2459 -0.082 -0.497 -0.864 130 126 101
16.2127 30.6461 61.3376 0.270 0.066 -0.961 134 130 103
18.2058 30.5022 61.6264 0.087 -0.361 -0.929 103 106 75
-46.2391 48.6809 81.5131 -0.467 0.482 -0.741 137 153 150
-46.1081 48.5905 81.3554 -0.459 0.484 -0.745 144 160 157
-45.9595 48.5693 81.3538 -0.395 0.553 -0.733 139 155 152
-45.8445 48.4208 81.0647 0.192 0.044 -0.980 137 153 150
-45.7046 48.3677 80.9910 0.130 -0.121 -0.984 136 152 149
-45.5421 48.3973 81.1042 0.188 -0.104 -0.977 140 156 153
-45.4079 48.3234 80.9834 0.253 -0.408 -0.877 143 159 156
-45.2832 48.2164 80.7878 0.205 -0.427 -0.881 142 158 155
-31.4155 41.0867 69.4129 -0.889 -0.439 -0.130 136 142 139
-31.0835 40.8918 69.0877 -0.350 -0.502 -0.791 135 141 137
-30.9972 40.7988 68.9111 -0.305 -0.632 -0.712 136 142 138
-30.8555 40.7714 68.8938 -0.268 -0.563 -0.782 136 142 138
-22.8319 37.9330 65.1161 -0.790 -0.157 -0.593 98 98 90
-22.8232 37.7976 64.8236 -0.761 0.052 -0.647 103 103 95
-22.5393 37.8809 65.0903 -0.184 -0.632 -0.753 105 100 92
-21.4967 37.5699 64.7254 -0.517 -0.387 -0.763 64 57 51
-21.3740 37.5252 64.6649 -0.517 -0.387 -0.763 61 54 48
-21.2734 37.4641 64.5619 -0.192 -0.356 -0.915 59 51 46
-20.9927 37.4015 64.5097 -0.280 0.122 -0.952 56 48 42
-20.8655 37.3603 64.4582 -0.360 -0.453 -0.816 57 48 43
-20.7317 37.3241 64.4193 -0.360 -0.453 -0.816 70 61 56
-20.5826 37.2989 64.4092 -0.324 -0.462 -0.826 77 68 62
-20.4440 37.2660 64.3791 -0.174 -0.458 -0.872 66 60 49
-19.4742 36.9036 63.8804 -0.431 -0.204 -0.879 92 90 78
-19.3577 36.8554 63.8102 -0.209 -0.237 -0.949 98 96 84
-18.7507 36.7589 63.7821 -0.107 -0.148 -0.983 110 108 96
-18.5826 36.7455 63.8033 -0.434 0.010 -0.901 96 94 82
-18.4573 36.7030 63.7483 -0.220 -0.198 -0.955 86 84 72
-18.3103 36.6751 63.7316 -0.214 -0.255 -0.943 93 90 76
-16.5244 36.1029 63.0206 -0.335 -0.275 -0.901 85 78 68
-16.3812 36.0719 62.9958 -0.335 -0.275 -0.901 76 70 58
-15.5497 35.8673 62.7994 -0.467 -0.068 -0.881 102 98 87
-15.1426 35.7592 62.6861 -0.146 -0.231 -0.962 90 92 74
-14.9906 35.7327 62.6739 -0.106 -0.282 -0.954 97 99 83
-14.8144 35.7204 62.6999 -0.077 -0.265 -0.961 99 101 84
-14.7109 35.6652 62.6108 -0.186 -0.368 -0.911 91 92 76
-13.9888 35.5086 62.4860 -0.286 -0.369 -0.885 121 118 99
-13.8464 35.4759 62.4575 -0.253 -0.199 -0.947 114 110 91
-13.1447 35.1939 62.0536 -0.298 -0.346 -0.890 92 86 74
-11.3321 34.8513 61.8508 -0.483 -0.445 -0.754 100 92 79
-10.5874 34.6990 61.7423 -0.595 -0.446 -0.669 113 106 100
-9.9114 34.4054 61.3054 -0.506 -0.398 -0.765 84 82 78
-8.4107 34.3055 61.5379 -0.321 0.350 -0.880 83 76 58
-7.6458 34.1543 61.4378 -0.013 -0.445 -0.895 107 98 81
-6.8815 34.0006 61.3321 -0.345 -0.461 -0.818 112 99 80
-6.7717 33.9500 61.2548 -0.312 -0.251 -0.916 121 108 91
-6.6470 33.9062 61.1968 -0.444 -0.093 -0.891 110 97 81
-5.3043 33.6099 60.9539 -0.046 -0.265 -0.963 127 121 109
-5.1447 33.5812 60.9392 -0.022 -0.388 -0.921 127 120 110
-4.4288 33.4982 60.9733 -0.287 -0.160 -0.945 83 79 66
-3.8971 33.3355 60.7782 0.017 -0.270 -0.963 76 83 51
-3.7762 33.2898 60.7150 0.023 -0.255 -0.967 69 76 45
-3.4818 33.3161 60.8605 0.049 0.073 -0.996 75 80 48
0.1336 32.6764 60.5511 -0.565 -0.097 -0.819 52 52 42
0.5242 32.7310 60.7871 -0.334 -0.071 -0.940 63 63 53
0.6579 32.6889 60.7355 -0.330 -0.072 -0.941 62 62 52
0.7412 32.6281 60.6279 -0.070 -0.374 -0.925 59 59 48
1.9299 32.5159 60.7402 -0.014 -0.160 -0.987 48 48 38
2.1415 32.5014 60.7720 -0.068 -0.068 -0.995 57 57 47
2.4441 32.4286 60.7042 -0.341 -0.216 -0.915 48 48 40
2.9302 32.3305 60.6361 -0.119 -0.374 -0.920 43 41 29
4.7053 32.0507 60.5591 -0.498 0.057 -0.865 28 29 24
6.0701 31.8881 60.6140 0.041 -0.336 -0.941 36 33 28
6.4004 31.8208 60.5664 -0.140 -0.272 -0.952 38 37 32
6.6614 31.8180 60.6387 -0.318 -0.097 -0.943 39 38 33
6.8063 31.7775 60.5940 -0.318 -0.097 -0.943 39 38 33
6.9992 31.7525 60.5972 -0.211 -0.394 -0.895 38 37 32
9.0502 31.5309 60.7296 -0.164 0.019 -0.986 50 48 35
10.7136 31.4334 61.0161 0.174 -0.284 -0.943 123 119 100
11.5011 31.2398 60.8304 -0.269 -0.130 -0.954 131 128 111
12.3464 31.2303 61.0633 -0.587 -0.198 -0.785 136 133 116
12.4965 31.1888 61.0178 -0.220 -0.470 -0.855 128 125 108
12.5567 31.1216 60.8896 -0.182 -0.397 -0.899 120 117 98
12.8125 31.1101 60.9413 0.138 -0.363 -0.922 137 135 114
13.1199 31.1130 61.0396 0.327 -0.325 -0.887 128 126 105
14.1811 31.1578 61.4557 0.067 -0.379 -0.923 119 117 96
14.5971 31.1047 61.4646 -0.261 -0.029 -0.965 94 94 70
14.7547 31.0640 61.4232 -0.261 -0.029 -0.965 92 92 68
14.8830 31.0152 61.3555 -0.736 -0.227 -0.637 97 97 71
15.7734 30.7559 61.0576 -0.035 -0.633 -0.773 122 118 93
15.9192 30.7120 61.0056 -0.015 -0.639 -0.769 123 119 94
16.5049 30.7016 61.1586 -0.016 -0.639 -0.769 117 118 89
18.2534 30.6602 61.5929 -0.003 -0.375 -0.927 113 116 85
22.2561 30.4187 62.2671 -0.014 0.007 -1.000 150 148 125
-54.3784 46.9951 75.0608 -0.674 -0.629 -0.388 87 90 79
-46.2200 48.7962 81.3917 -0.475 0.490 -0.731 136 152 149
-46.0702 48.7796 81.4001 -0.452 0.498 -0.741 143 159 156
-45.9370 48.6989 81.2646 -0.452 0.498 -0.741 143 159 156
-45.8477 48.4542 80.7603 0.330 0.170 -0.928 142 158 155
-45.6360 48.6685 81.2880 -0.104 -0.730 -0.676 142 158 155
-45.4866 48.6478 81.2875 -0.104 -0.730 -0.676 143 159 156
-45.3835 48.4608 80.9126 0.167 -0.637 -0.752 144 160 157
-41.0131 45.5122 75.8144 -0.521 0.573 -0.633 139 155 152
-40.8113 45.2670 75.3425 -0.512 0.262 -0.818 135 151 148
-31.4512 41.1488 69.1894 -0.571 0.048 -0.820 142 148 147
-31.2709 40.9701 68.8553 -0.603 0.383 -0.700 142 146 145
-22.5501 37.9869 64.9744 -0.205 0.186 -0.961 98 93 87
-21.3628 37.6492 64.5946 -0.517 -0.387 -0.763 59 54 50
-21.3098 37.5521 64.3998 -0.190 -0.540 -0.820 59 54 50
-21.0091 37.5050 64.3869 -0.108 -0.475 -0.873 75 69 65
-20.7175 37.4505 64.3553 -0.310 -0.514 -0.800 55 50 44
-20.5742 37.4212 64.3342 -0.310 -0.520 -0.796 69 64 56
-19.4288 37.0522 63.8741 -0.453 -0.193 -0.871 90 88 76
-18.5428 36.8901 63.7857 -0.434 0.010 -0.901 94 92 79
-18.4220 36.8445 63.7227 -0.232 -0.215 -0.949 82 80 67
-18.2835 36.8109 63.6910 -0.540 -0.317 -0.779 87 86 69
-16.9743 36.3011 62.9740 -0.381 -0.531 -0.757 101 94 84
-16.6369 36.2719 63.0109 -0.335 -0.275 -0.901 90 83 73
-16.5024 36.2356 62.9719 -0.335 -0.275 -0.901 83 79 68
-16.3678 36.1992 62.9330 -0.335 -0.275 -0.901 72 68 57
-16.0486 36.1573 62.9369 -0.034 -0.208 -0.978 92 88 77
-15.5213 36.0040 62.7611 -0.482 -0.049 -0.875 117 113 102
-15.3922 35.9641 62.7128 -0.388 -0.067 -0.919 115 113 101
-15.1135 35.8964 62.6488 -0.146 -0.231 -0.962 97 100 82
-14.7910 35.8544 62.6534 -0.075 -0.274 -0.959 76 79 62
-14.6836 35.8014 62.5705 -0.347 -0.137 -0.928 85 88 71
-14.5472 35.7656 62.5333 -0.350 -0.146 -0.925 85 88 71
-11.4530 34.8024 61.3630 -0.555 -0.297 -0.777 107 97 85
-11.3062 34.7717 61.3399 -0.561 -0.365 -0.743 113 104 94
-10.9026 34.7667 61.4490 -0.210 -0.487 -0.848 111 103 98
-10.5371 34.8478 61.7335 -0.528 -0.257 -0.809 106 101 95
-10.3803 34.8210 61.7221 -0.482 -0.282 -0.829 110 105 99
-8.3414 34.4636 61.5523 -0.309 0.357 -0.882 81 75 58
-7.6336 34.2852 61.3756 -0.015 -0.532 -0.846 96 87 70
-7.1337 34.2126 61.3667 -0.326 -0.557 -0.764 124 111 94
-6.9913 34.1770 61.3317 -0.227 -0.268 -0.936 111 100 82
-6.8588 34.1367 61.2838 -0.374 -0.046 -0.926 120 107 88
-6.7305 34.0945 61.2303 -0.386 -0.011 -0.922 134 121 104
-6.5947 34.0558 61.1866 -0.413 0.004 -0.911 128 116 100
0.5891 32.8866 60.7844 -0.383 -0.079 -0.920 55 55 44
0.6909 32.8324 60.6971 -0.282 -0.017 -0.959 56 57 44
1.4735 32.6638 60.5638 -0.153 -0.156 -0.976 73 73 61
1.7799 32.5935 60.5023 -0.491 -0.152 -0.858 46 46 34
2.7804 32.5004 60.5975 -0.044 -0.241 -0.970 26 26 14
2.9460 32.4689 60.5785 -0.117 -0.367 -0.923 47 45 33
3.6170 32.3453 60.5096 -0.347 -0.465 -0.815 53 51 38
10.5360 31.6053 60.9598 0.136 -0.291 -0.947 102 100 79
12.4811 31.3250 60.9297 -0.195 -0.485 -0.852 118 113 94
12.5898 31.2716 60.8461 -0.181 -0.397 -0.900 122 119 100
15.1911 30.9913 61.0108 -0.697 -0.180 -0.694 136 136 110
16.2286 31.0215 61.3846 0.062 -0.750 -0.659 122 116 92
16.5363 31.0204 61.4736 -0.280 -0.870 -0.407 122 118 93
16.6330 30.9627 61.3772 -0.280 -0.869 -0.408 119 119 91
16.8518 30.9375 61.3875 -0.015 -0.803 -0.596 117 119 88
18.0279 30.8305 61.5048 0.065 -0.534 -0.843 110 113 82
18.2737 30.8112 61.5360 0.065 -0.534 -0.843 120 123 92
22.3573 30.5928 62.2753 -0.366 0.405 -0.838 152 147 124
-45.9036 48.8698 81.2683 -0.457 0.452 -0.767 149 165 162
-41.4849 46.3159 77.0521 -0.116 -0.989 -0.094 144 159 156
-41.0365 45.8995 76.2847 -0.419 0.375 -0.827 153 169 166
-40.9072 45.8387 76.1915 -0.419 0.375 -0.827 148 164 161
-40.7082 45.5829 75.6974 -0.493 0.555 -0.669 138 154 151
-21.3628 37.7646 64.5028 -0.508 -0.383 -0.772 66 61 57
-21.2598 37.7051 64.4047 -0.215 -0.407 -0.888 66 61 57
-21.1182 37.6750 64.3814 -0.378 -0.200 -0.904 66 61 57
-20.8505 37.6030 64.3045 -0.248 -0.342 -0.906 58 53 49
-20.7017 37.5780 64.2944 -0.290 -0.383 -0.877 75 70 64
-20.5638 37.5448 64.2632 -0.290 -0.383 -0.877 95 90 83
-19.4133 37.1798 63.8134 -0.467 -0.161 -0.869 97 95 83
-18.5010 37.0362 63.7717 -0.525 -0.316 -0.790 87 85 72
-18.3889 36.9847 63.6934 -0.540 -0.317 -0.779 75 73 59
-18.2689 36.9385 63.6290 -0.540 -0.317 -0.779 80 79 62
-16.9562 36.5534 63.1834 -0.422 -0.457 -0.783 108 101 91
-16.6180 36.4026 62.9571 -0.293 -0.130 -0.947 90 83 73
-16.4823 36.3669 62.9200 -0.293 -0.130 -0.947 83 79 68
-16.3331 36.3398 62.9053 -0.288 -0.079 -0.954 97 93 82
-16.1837 36.3126 62.8906 -0.066 -0.092 -0.994 109 105 94
-14.6067 35.9670 62.6080 -0.551 -0.072 -0.831 79 80 66
-14.4922 35.9181 62.5363 -0.551 -0.072 -0.831 79 82 65
-14.4209 35.8440 62.3972 -0.310 0.077 -0.948 78 81 64
-14.2937 35.8029 62.3458 -0.289 -0.030 -0.957 83 83 65
-13.3809 35.6412 62.2650 -0.428 -0.334 -0.840 87 85 64
-13.2729 35.5889 62.1838 -0.431 -0.323 -0.843 87 84 66
-13.1221 35.5608 62.1675 -0.470 -0.274 -0.839 78 74 62
-11.3009 34.8962 61.2679 -0.556 -0.369 -0.745 110 101 92
-8.4892 34.5167 61.2756 -0.056 -0.446 -0.893 82 75 57
-7.1273 34.3411 61.2971 -0.247 -0.185 -0.951 128 115 98
-6.9819 34.3069 61.2660 -0.247 -0.185 -0.951 114 103 85
-6.5828 34.1869 61.1243 -0.162 0.131 -0.978 143 131 115
-3.5852 33.6252 60.7930 0.075 -0.505 -0.860 77 81 54
0.6551 33.0427 60.7826 -0.388 -0.036 -0.921 48 48 38
0.7429 32.9831 60.6798 -0.313 -0.041 -0.949 50 50 39
1.8502 32.7510 60.5041 -0.488 -0.204 -0.849 40 40 30
2.0612 32.7368 60.5355 -0.597 -0.459 -0.658 36 36 26
2.9644 32.6082 60.5237 -0.028 -0.282 -0.959 49 47 35
3.6160 32.4781 60.4343 -0.347 -0.465 -0.815 46 44 32
6.8707 32.0700 60.5105 -0.378 -0.029 -0.925 49 48 44
7.0063 32.0265 60.4565 -0.378 -0.029 -0.925 72 71 66
9.5774 31.6245 60.3447 -0.291 -0.363 -0.885 113 112 95
10.5971 31.7629 60.9437 0.105 -0.562 -0.821 97 95 74
10.8347 31.7485 60.9826 0.123 -0.586 -0.801 97 96 75
12.5049 31.4724 60.8777 -0.181 -0.647 -0.741 112 107 88
12.6901 31.4411 60.8645 -0.079 -0.220 -0.972 117 114 95
13.0584 31.4624 61.0188 0.035 -0.205 -0.978 122 119 100
-45.8590 49.0841 81.3679 -0.457 0.452 -0.767 149 165 162
-41.5042 46.3469 76.7506 -0.116 -0.989 -0.094 143 158 155
-40.9688 46.1391 76.4597 -0.524 -0.207 -0.826 153 169 166
-40.8351 46.0875 76.3878 -0.524 -0.207 -0.826 147 163 160
-40.7183 45.9969 76.2269 -0.548 0.053 -0.835 140 156 153
-31.4032 41.6200 69.5286 -0.338 -0.517 -0.786 151 158 156
-30.8512 41.2903 68.9805 -0.659 -0.016 -0.752 170 175 169
-30.5893 41.2093 68.8827 -0.290 -0.288 -0.913 170 172 167
-30.4242 41.2088 68.9296 -0.114 -0.469 -0.876 169 171 168
-29.6948 41.0898 68.8863 -0.417 0.111 -0.902 162 164 161
-26.8839 40.4604 68.3520 0.307 0.348 -0.886 157 160 153
-26.4364 38.9096 65.1472 -0.622 -0.006 -0.783 147 149 144
-26.3148 38.8652 65.0872 -0.716 -0.074 -0.694 155 157 152
-25.5733 39.0755 65.7554 -0.123 -0.078 -0.989 161 162 157
-25.4323 39.0469 65.7351 -0.131 -0.076 -0.988 161 162 157
-25.1387 39.1557 66.0547 -0.373 -0.111 -0.921 161 162 157
-23.8699 39.1906 66.4994 -0.328 -0.240 -0.913 131 131 119
-23.5734 38.8370 65.8254 -0.663 -0.038 -0.748 76 76 64
-23.1420 38.7514 65.7671 0.090 -0.533 -0.841 69 70 62
-21.1966 37.8684 64.4351 -0.263 -0.110 -0.958 71 66 62
-21.0398 37.8496 64.4404 -0.480 0.084 -0.873 70 65 61
-18.7423 37.2454 63.8106 -0.310 0.064 -0.949 94 92 80
-18.4797 37.1684 63.7214 -0.487 -0.052 -0.872 81 79 67
-18.3728 37.1132 63.6339 -0.511 0.001 -0.860 69 67 53
-18.2581 37.0635 63.5604 -0.616 -0.076 -0.784 77 75 59
-17.6464 36.8417 63.2618 -0.193 -0.262 -0.946 95 94 76
-16.9106 36.7013 63.1743 -0.514 -0.071 -0.855 107 100 90
-14.5189 36.0225 62.4114 -0.198 -0.015 -0.980 77 79 65
-13.2570 35.7188 62.1260 -0.431 -0.323 -0.843 76 70 54
-11.0101 35.1707 61.6022 -0.438 -0.193 -0.878 105 98 88
-10.8491 35.1469 61.5978 -0.438 -0.272 -0.857 92 85 78
-10.7214 35.1055 61.5460 -0.378 -0.222 -0.899 85 78 72
-10.5879 35.0671 61.5024 -0.475 -0.244 -0.846 79 71 68
-7.8071 34.5555 61.2125 -0.066 -0.517 -0.853 88 81 62
-7.1252 34.4675 61.2220 0.000 -0.342 -0.940 126 113 96
-6.9504 34.4471 61.2291 -0.251 -0.160 -0.955 102 89 72
-6.8057 34.4125 61.1968 -0.251 -0.160 -0.955 92 79 60
-6.5235 34.3399 61.1229 -0.379 -0.058 -0.923 133 121 105
-2.2197 33.2646 60.0646 -0.188 0.297 -0.936 52 56 36
0.2026 33.2807 60.8053 -0.577 -0.111 -0.809 40 40 32
0.3575 33.2467 60.7774 -0.608 -0.009 -0.794 40 40 32
0.7048 33.1929 60.7627 -0.417 -0.102 -0.903 43 43 35
0.7529 33.1181 60.6158 -0.097 -0.349 -0.932 44 44 35
2.0967 32.8818 60.4993 -0.623 -0.473 -0.622 46 45 39
3.0120 32.7580 60.4999 -0.126 -0.270 -0.954 48 45 37
6.8478 32.2863 60.6033 -0.524 0.102 -0.846 67 63 60
10.1579 31.9406 60.8246 -0.171 -0.078 -0.982 113 110 92
10.3440 31.9112 60.8155 0.160 -0.321 -0.933 105 103 82
10.5625 31.8915 60.8368 0.131 -0.335 -0.933 97 97 73
12.5315 31.6207 60.8284 -0.172 -0.657 -0.734 106 101 82
12.8041 31.5298 60.7123 0.015 0.248 -0.969 121 118 99
14.6414 31.5455 61.2815 -0.297 -0.121 -0.947 137 137 113
16.8610 31.2287 61.2472 0.157 -0.493 -0.856 115 117 86
-41.3581 46.4034 76.5535 -0.513 -0.666 -0.541 144 160 157
-41.0811 46.3222 76.4597 -0.507 -0.224 -0.832 170 186 183
-40.9434 46.2797 76.4084 -0.524 -0.207 -0.826 153 169 166
-40.8096 46.2281 76.3365 -0.524 -0.207 -0.826 147 163 160
-40.6836 46.1590 76.2248 -0.536 0.061 -0.842 141 157 154
-32.1363 42.2533 70.3286 -0.774 0.389 -0.500 158 167 166
-31.0491 40.7719 67.4702 -0.556 0.173 -0.813 161 163 160
-30.9101 40.7446 67.4518 -0.562 -0.139 -0.815 160 165 161
-30.7968 40.6872 67.3617 -0.414 -0.094 -0.905 163 168 164
-30.6704 40.6452 67.3083 -0.414 -0.094 -0.905 157 162 158
-30.5440 40.6032 67.2548 -0.414 -0.094 -0.905 149 154 150
-29.7617 41.1216 68.5906 -0.491 0.011 -0.871 153 158 154
-29.6434 41.0668 68.5074 -0.469 0.029 -0.883 153 158 154
-29.5552 40.9783 68.3435 -0.549 -0.357 -0.756 153 158 154
-29.4562 40.9025 68.2097 -0.513 -0.287 -0.809 151 157 153
-29.3307 40.8566 68.1475 -0.587 -0.357 -0.727 149 158 153
-29.1864 40.8314 68.1354 -0.592 -0.374 -0.714 149 158 153
-29.0653 40.7806 68.0616 -0.592 -0.374 -0.714 149 158 153
-28.2193 40.6050 67.9296 -0.244 -0.858 -0.452 159 166 159
-27.8515 40.4584 67.7219 -0.547 -0.708 -0.447 171 176 170
-24.7354 39.1618 65.8450 -0.388 0.006 -0.922 160 162 157
-21.0826 37.9325 64.2670 -0.066 -0.046 -0.997 74 69 66
-20.8770 37.9509 64.3656 -0.379 -0.043 -0.924 75 70 66
-20.7580 37.9035 64.2984 -0.130 0.135 -0.982 96 91 87
-19.1854 37.5746 64.0482 -0.371 -0.402 -0.837 77 75 63
-16.9732 36.9031 63.2488 -0.256 0.070 -0.964 95 88 78
-15.1537 36.3491 62.5878 -0.368 -0.195 -0.909 72 73 59
-15.0222 36.3105 62.5430 -0.368 -0.195 -0.909 70 73 56
-14.8774 36.2799 62.5193 -0.315 -0.256 -0.914 69 72 55
-14.7358 36.2473 62.4904 -0.325 -0.266 -0.907 72 73 59
-14.5882 36.2182 62.4706 -0.370 -0.260 -0.892 74 76 62
-14.4559 36.1799 62.4268 -0.370 -0.260 -0.892 81 84 67
-14.3049 36.1527 62.4122 -0.335 -0.051 -0.941 88 90 73
-13.2896 35.9351 62.2391 -0.252 -0.340 -0.906 86 83 64
-12.9618 35.8936 62.2450 -0.477 -0.089 -0.874 87 83 71
-12.7332 35.7957 62.1014 -0.377 -0.327 -0.867 88 84 73
-11.1216 35.3429 61.5969 -0.163 -0.382 -0.910 100 92 81
-10.9925 35.3023 61.5473 -0.227 -0.263 -0.938 97 90 80
-10.8528 35.2673 61.5127 -0.461 -0.249 -0.852 83 76 68
-10.7227 35.2273 61.4645 -0.483 -0.251 -0.839 76 69 63
-10.6026 35.1820 61.4022 -0.461 -0.249 -0.852 70 62 59
-10.4598 35.1485 61.3718 -0.417 -0.159 -0.895 65 58 52
-8.2852 34.7602 61.1680 -0.010 -0.454 -0.891 80 73 55
-7.9269 34.7261 61.1982 -0.187 -0.502 -0.844 81 74 56
-7.7819 34.6923 61.1677 -0.184 -0.472 -0.862 87 82 63
-7.1033 34.6031 61.1726 0.000 -0.342 -0.940 98 85 68
-6.7715 34.5540 61.1633 -0.247 -0.185 -0.951 91 78 61
-6.6259 34.5198 61.1321 -0.247 -0.185 -0.951 113 100 83
-6.4932 34.4796 61.0843 -0.360 -0.173 -0.917 124 112 96
-5.1311 34.1924 60.8626 -0.605 -0.254 -0.755 77 71 59
0.7545 33.3431 60.7427 -0.385 -0.152 -0.911 35 34 29
0.8448 33.1910 60.4432 0.190 -0.230 -0.955 35 34 29
1.9822 33.0633 60.4979 -0.277 0.099 -0.956 31 30 26
5.0911 32.6301 60.4677 -0.172 -0.208 -0.963 69 66 57
5.2318 32.5890 60.4202 -0.210 -0.250 -0.945 75 72 64
5.4005 32.5574 60.4012 -0.246 -0.240 -0.939 71 71 65
5.5789 32.5290 60.3920 -0.040 -0.196 -0.980 63 62 57
10.4903 32.0950 60.8804 0.127 0.144 -0.981 103 103 80
10.6587 32.0600 60.8539 -0.109 -0.127 -0.986 97 97 73
15.0558 31.5501 61.0314 -0.671 -0.081 -0.737 124 124 100
15.4917 31.5874 61.2370 -0.351 0.034 -0.936 132 132 108
15.6526 31.5475 61.1980 -0.679 -0.191 -0.709 132 129 103
15.7501 31.4055 60.9221 0.016 0.148 -0.989 126 120 96
16.0766 31.4112 61.0286 -0.501 0.106 -0.859 131 125 101
16.6763 31.4069 61.1925 0.014 -0.545 -0.838 130 129 101
17.3655 31.3411 61.2506 0.041 -0.323 -0.945 95 101 67
-41.2103 46.4644 76.3677 -0.519 -0.640 -0.566 147 162 159
-41.0559 46.4621 76.4067 -0.507 -0.224 -0.832 153 168 165
-40.9212 46.4126 76.3397 -0.521 -0.209 -0.827 148 163 160
-40.7874 46.3612 76.2683 -0.521 -0.209 -0.827 145 160 157
-40.6524 46.3127 76.2036 -0.548 0.053 -0.835 142 157 154
-31.8734 41.2458 67.9100 -0.778 -0.035 -0.627 174 183 182
-30.7935 41.5714 68.9129 -0.665 -0.089 -0.741 158 164 160
-31.0061 40.9271 67.4784 -0.621 -0.235 -0.747 158 163 159
-30.8891 40.8737 67.3980 -0.621 -0.235 -0.747 158 163 159
-30.7894 40.8004 67.2701 -0.466 -0.156 -0.871 165 170 166
-30.6654 40.7557 67.2102 -0.468 -0.129 -0.874 162 167 163
-30.5410 40.7115 67.1516 -0.415 -0.038 -0.909 159 164 160
-29.5571 41.0837 68.2265 -0.543 -0.242 -0.804 155 160 156
-29.4416 41.0264 68.1374 -0.476 -0.255 -0.842 152 160 155
-29.3114 40.9858 68.0879 -0.500 -0.288 -0.817 150 159 154
-22.0657 38.5456 64.9566 -0.548 -0.199 -0.812 77 72 66
-21.9686 38.4800 64.8444 -0.576 -0.200 -0.793 81 76 70
-21.1098 38.1652 64.4187 -0.366 0.006 -0.931 77 72 68
-20.9543 38.1455 64.4212 -0.554 0.063 -0.830 75 70 66
-20.8331 38.0996 64.3580 -0.389 -0.077 -0.918 80 75 71
-20.7206 38.0472 64.2784 -0.391 -0.070 -0.918 101 96 92
-20.5872 38.0106 64.2385 -0.258 -0.022 -0.966 92 87 83
-20.4514 37.9758 64.2031 -0.258 -0.022 -0.966 70 66 58
-20.3087 37.9461 64.1805 -0.119 0.064 -0.991 67 65 54
-19.7051 37.8500 64.1483 -0.075 -0.455 -0.887 60 58 46
-18.6267 37.5606 63.8395 -0.586 0.028 -0.810 86 84 72
-17.8562 37.1890 63.2675 -0.447 -0.144 -0.883 79 78 60
-17.7852 37.1103 63.1200 -0.717 0.001 -0.697 82 81 63
-17.6848 37.0516 63.0234 -0.636 0.010 -0.772 85 84 66
-17.6189 36.9700 62.8685 -0.296 -0.094 -0.951 90 87 70
-17.4750 36.9406 62.8469 -0.367 -0.085 -0.926 92 89 74
-15.4878 36.6217 62.7349 -0.301 0.035 -0.953 90 86 75
-14.3973 36.3349 62.4353 -0.335 -0.051 -0.941 80 84 67
-14.2655 36.2962 62.3904 -0.335 -0.051 -0.941 88 91 72
-14.1464 36.2500 62.3260 -0.403 -0.029 -0.915 89 90 70
-13.9925 36.2244 62.3153 -0.565 -0.288 -0.773 93 90 71
-13.8519 36.1908 62.2839 -0.356 -0.430 -0.830 100 98 77
-13.1220 36.0376 62.1659 -0.552 -0.092 -0.829 100 97 79
-12.9541 36.0192 62.1746 -0.536 -0.041 -0.843 104 102 87
-12.6809 35.9465 62.0977 -0.373 -0.257 -0.891 108 104 92
-12.5731 35.8939 62.0164 -0.363 -0.277 -0.890 108 104 93
-12.2848 35.8295 61.9616 -0.512 -0.184 -0.839 111 107 96
-12.0516 35.7345 61.8256 -0.558 -0.175 -0.811 111 105 93
-11.9442 35.6821 61.7446 -0.350 -0.203 -0.914 107 99 88
-11.7970 35.6515 61.7214 -0.344 -0.236 -0.909 103 95 82
-11.6723 35.6086 61.6657 -0.412 -0.191 -0.891 95 87 74
-11.5677 35.5548 61.5809 -0.263 -0.204 -0.943 92 84 71
-11.1137 35.4692 61.5282 -0.149 -0.232 -0.961 106 98 87
-10.9820 35.4301 61.4823 -0.230 -0.178 -0.957 104 96 87
-10.8411 35.3958 61.4495 -0.228 -0.170 -0.959 90 83 75
-10.7068 35.3580 61.4073 -0.461 -0.249 -0.852 83 76 70
-10.5683 35.3223 61.3709 -0.473 -0.235 -0.849 78 71 65
-10.4303 35.2864 61.3336 -0.417 -0.159 -0.895 68 61 53
-7.0533 34.7520 61.1597 -0.107 -0.383 -0.918 75 62 46
-6.7205 34.7035 61.1514 -0.548 -0.275 -0.790 107 94 78
-6.6041 34.6556 61.0825 -0.542 -0.280 -0.792 134 121 106
-5.5714 34.2210 60.4513 -0.634 0.106 -0.766 73 64 55
1.5521 33.2189 60.3510 -0.474 0.029 -0.880 38 37 33
1.8261 33.2292 60.4514 -0.289 0.247 -0.925 31 30 26
2.0270 33.2118 60.4717 -0.302 0.171 -0.938 31 30 28
3.3815 32.9744 60.3528 -0.298 -0.043 -0.954 45 42 37
4.6503 32.7908 60.3240 0.125 -0.335 -0.934 62 59 50
5.0958 32.7660 60.3984 -0.198 -0.277 -0.940 75 73 61
5.2569 32.7319 60.3718 -0.214 -0.301 -0.929 74 71 61
5.4185 32.6979 60.3456 -0.214 -0.301 -0.929 59 59 52
5.6149 32.6758 60.3546 -0.079 -0.293 -0.953 49 48 43
5.8651 32.6718 60.4177 0.044 -0.359 -0.932 44 43 38
10.6891 32.2084 60.8086 -0.032 -0.004 -0.999 99 99 75
13.2753 31.8632 60.8120 0.167 -0.104 -0.980 127 126 106
15.0640 31.6950 60.9646 -0.689 -0.091 -0.719 125 125 101
15.5407 31.7444 61.2064 -0.330 0.121 -0.936 132 132 108
15.9626 31.6075 61.0351 -0.606 0.169 -0.777 133 129 104
16.5562 31.5179 61.0138 -0.088 -0.142 -0.986 129 128 100
17.3926 31.4931 61.1998 0.041 -0.323 -0.945 97 103 69
17.9538 31.4759 61.3237 0.295 -0.428 -0.854 86 92 58
-40.0971 45.8936 75.1144 -0.580 -0.429 -0.693 139 154 149
-39.9525 45.8699 75.1050 -0.520 -0.514 -0.682 139 154 149
-39.8136 45.8336 75.0674 -0.453 -0.491 -0.744 139 154 149
-32.0965 42.7297 70.6626 -0.753 -0.544 -0.369 153 162 161
-32.0662 42.5537 70.2976 -0.794 -0.121 -0.595 151 160 157
-31.8622 41.3627 67.8267 -0.769 -0.042 -0.638 95 105 101
-30.7669 41.7093 68.8726 -0.665 -0.089 -0.741 135 141 136
-30.6356 41.6692 68.8246 -0.668 -0.079 -0.740 138 143 138
-30.8818 40.9867 67.3060 -0.463 -0.132 -0.877 144 148 144
-30.7630 40.9358 67.2316 -0.466 -0.156 -0.871 163 168 164
-30.6378 40.8925 67.1751 -0.468 -0.129 -0.874 169 174 170
-30.5096 40.8527 67.1269 -0.417 -0.041 -0.908 175 180 176
-30.3842 40.8097 67.0712 -0.417 -0.041 -0.908 175 180 176
-29.4088 41.1708 68.1139 -0.465 -0.354 -0.812 163 169 165
-29.2917 41.1154 68.0296 -0.513 -0.287 -0.809 163 169 165
-29.1690 41.0664 67.9603 -0.535 -0.223 -0.815 163 171 166
-22.0429 38.6787 64.9086 -0.548 -0.199 -0.812 76 71 65
-21.9491 38.6102 64.7898 -0.325 -0.051 -0.944 81 76 70
-20.8991 38.3032 64.4353 -0.597 0.072 -0.799 74 69 65
-20.7747 38.2596 64.3779 -0.475 -0.084 -0.876 66 61 57
-20.5322 38.1677 64.2515 -0.088 -0.225 -0.970 70 65 59
-20.3772 38.1472 64.2519 -0.093 -0.210 -0.973 67 63 55
-20.2387 38.1141 64.2209 -0.100 -0.209 -0.973 74 72 61
-19.9065 37.9534 63.9738 -0.318 0.227 -0.920 64 62 50
-18.8547 37.7798 63.9030 0.102 -0.086 -0.991 78 76 64
-18.5569 37.5964 63.5979 -0.208 -0.369 -0.906 86 84 72
-18.3928 37.5807 63.6110 -0.063 -0.080 -0.995 86 84 71
-17.6853 37.1686 62.9364 -0.682 -0.030 -0.731 84 83 65
-17.6024 37.0983 62.8107 -0.501 -0.094 -0.860 82 79 64
-17.4940 37.0453 62.7289 -0.620 -0.069 -0.781 89 86 71
-17.3486 37.0170 62.7099 -0.162 -0.581 -0.798 96 89 79
-16.6880 36.8307 62.5014 -0.380 0.026 -0.925 102 95 85
-16.6190 36.7529 62.3557 -0.324 -0.058 -0.944 101 97 86
-16.1913 36.9046 62.7991 -0.313 -0.486 -0.816 77 73 62
-13.9584 36.3648 62.2852 -0.565 -0.279 -0.777 106 103 84
-13.8160 36.3324 62.2567 -0.364 -0.420 -0.832 118 115 95
-12.9375 36.1498 62.1178 -0.367 -0.207 -0.907 110 107 92
-12.7602 36.1367 62.1401 -0.156 -0.286 -0.945 108 104 93
-12.6671 36.0755 62.0367 -0.551 -0.199 -0.810 109 105 93
-12.5730 36.0152 61.9351 -0.426 -0.166 -0.890 109 105 93
-12.1899 35.8914 61.7808 -0.274 -0.130 -0.953 108 102 90
-12.0481 35.8580 61.7500 -0.276 -0.177 -0.945 104 98 86
-11.9067 35.8243 61.7186 -0.314 -0.107 -0.943 107 99 88
-11.7716 35.7871 61.6778 -0.314 -0.107 -0.943 103 93 81
-11.4164 35.6482 61.4835 -0.066 -0.217 -0.974 96 86 74
-10.6540 35.5081 61.4020 -0.309 -0.143 -0.940 100 93 85
-10.5157 35.4723 61.3652 -0.528 -0.154 -0.835 96 87 80
-10.3607 35.4453 61.3517 -0.452 -0.131 -0.882 92 83 75
-6.5409 34.8108 61.0861 -0.126 -0.387 -0.914 154 142 130
-6.1270 34.6972 60.9622 -0.111 -0.560 -0.821 86 76 67
-5.5509 34.3558 60.4004 -0.643 0.109 -0.758 70 61 52
-3.5627 34.1450 60.5158 -0.127 -0.559 -0.819 49 49 40
1.9776 33.4180 60.5410 -0.195 -0.018 -0.981 31 30 28
2.9521 33.3177 60.6040 -0.387 -0.123 -0.914 33 32 30
3.0745 33.2704 60.5383 -0.393 -0.118 -0.912 28 27 23
3.1808 33.2173 60.4557 -0.374 -0.077 -0.924 29 26 21
4.0819 32.9948 60.2383 0.090 -0.309 -0.947 47 44 37
4.6757 32.9334 60.2762 0.125 -0.335 -0.934 50 47 38
5.1383 32.9150 60.3680 -0.205 -0.303 -0.930 73 70 61
5.3063 32.8833 60.3483 -0.202 -0.312 -0.928 66 63 54
5.4510 32.8435 60.3047 -0.202 -0.298 -0.933 44 43 37
5.6301 32.8155 60.2961 -0.089 -0.304 -0.949 33 32 27
5.8940 32.8165 60.3729 0.031 -0.369 -0.929 33 32 27
10.7637 32.3706 60.8050 -0.106 0.004 -0.994 99 99 75
12.2719 32.2230 60.9188 -0.531 0.040 -0.846 109 104 85
12.3837 32.1700 60.8378 -0.011 0.142 -0.990 111 106 87
14.8622 31.9508 61.0742 -0.816 -0.198 -0.542 123 123 99
15.6428 31.9165 61.2225 -0.314 0.067 -0.947 133 133 109
18.2735 31.6229 61.3439 0.245 -0.394 -0.886 117 120 91
-40.0801 46.0147 75.0236 -0.498 -0.533 -0.684 135 150 145
-39.9383 45.9852 75.0009 -0.510 -0.528 -0.679 132 147 142
-32.0449 42.6861 70.2401 -0.786 -0.096 -0.611 155 164 161
-31.9860 41.5111 67.7727 -0.875 -0.223 -0.429 53 59 55
-31.1199 41.9855 69.0183 -0.265 -0.070 -0.962 55 57 53
-30.9865 41.9477 68.9758 -0.419 -0.072 -0.905 54 56 50
-30.7403 41.8471 68.8322 -0.665 -0.089 -0.741 57 60 54
-31.0654 41.2579 67.4955 -0.558 0.135 -0.819 57 58 53
-30.9507 41.2014 67.4081 -0.558 0.135 -0.819 60 61 56
-30.8542 41.1236 67.2708 -0.463 -0.132 -0.877 58 60 55
-30.7341 41.0741 67.1999 -0.468 -0.129 -0.874 51 53 48
-30.6101 41.0294 67.1400 -0.468 -0.129 -0.874 56 58 53
-30.4869 40.9837 67.0781 -0.453 -0.076 -0.888 64 66 61
-30.3629 40.9392 67.0186 -0.453 -0.076 -0.888 71 73 68
-21.9555 38.8637 64.9886 -0.245 -0.256 -0.935 76 73 68
-21.0362 38.5927 64.6735 -0.161 0.405 -0.900 77 72 66
-20.3479 38.2851 64.2162 0.140 -0.048 -0.989 88 84 77
-20.1925 38.2647 64.2167 0.133 -0.057 -0.989 79 77 66
-19.7705 38.1698 64.1346 -0.684 -0.129 -0.718 65 63 51
-19.4105 38.0293 63.9384 -0.165 -0.010 -0.986 70 68 56
-19.2586 38.0057 63.9311 -0.173 0.002 -0.985 81 79 67
-19.6247 37.6091 62.9900 -0.682 -0.169 -0.711 89 87 74
-18.9705 37.9467 63.8871 0.034 -0.155 -0.987 82 80 67
-18.8064 37.9313 63.9007 0.078 -0.095 -0.992 73 71 59
-18.3278 37.7434 63.6376 -0.134 0.045 -0.990 87 85 72
-18.2013 37.7013 63.5841 -0.528 0.118 -0.841 87 85 72
-17.5743 37.2343 62.7727 -0.447 -0.066 -0.892 79 76 61
-17.4705 37.1782 62.6832 -0.556 -0.054 -0.829 91 87 73
-17.2270 37.0902 62.5654 -0.591 -0.399 -0.701 97 93 82
-17.0574 36.9540 62.3250 -0.350 0.020 -0.936 117 110 100
-13.6665 36.4244 62.1563 -0.215 -0.249 -0.944 112 105 92
-13.8694 36.0746 61.3599 -0.105 -0.183 -0.977 114 107 94
-12.9034 36.2904 62.0871 -0.453 -0.278 -0.847 111 105 93
-12.5334 36.1588 61.9125 -0.458 -0.153 -0.876 110 104 92
-12.4207 36.1090 61.8389 -0.275 -0.216 -0.937 118 114 102
-12.2462 36.0940 61.8561 -0.256 -0.112 -0.960 107 101 89
-12.1243 36.0494 61.7960 -0.255 -0.170 -0.952 107 101 89
-10.2918 35.6040 61.3684 -0.413 -0.229 -0.882 109 100 91
-10.1632 35.5629 61.3176 -0.194 -0.049 -0.980 100 92 81
-2.3347 34.1124 60.4463 -0.225 -0.388 -0.894 42 41 23
-1.4043 33.9195 60.2994 -0.214 0.223 -0.951 55 56 40
3.1208 33.4202 60.5129 -0.366 -0.070 -0.928 28 27 23
3.2573 33.3782 60.4623 -0.366 -0.070 -0.928 30 27 22
3.3383 33.3158 60.3530 -0.151 -0.267 -0.952 32 29 24
3.4969 33.2818 60.3258 -0.406 0.125 -0.905 35 32 27
4.1570 33.1548 60.2423 0.052 -0.112 -0.992 30 27 20
5.1794 33.0635 60.3360 -0.219 -0.151 -0.964 85 82 75
5.3370 33.0282 60.3056 -0.219 -0.151 -0.964 78 75 68
5.4397 32.9738 60.2193 -0.523 -0.223 -0.823 43 42 37
10.7316 32.5875 60.8866 -0.195 -0.011 -0.981 106 104 83
10.8830 32.4593 60.6580 -0.192 -0.154 -0.969 90 89 68
11.3406 32.4265 60.7172 -0.087 -0.241 -0.967 99 99 75
11.6143 32.3365 60.6036 -0.042 -0.262 -0.964 105 102 83
12.4422 32.4152 61.0020 -0.350 -0.044 -0.936 106 101 82
15.1915 32.0164 60.9300 0.007 0.100 -0.995 123 123 99
16.1223 31.8537 60.8471 -0.638 -0.489 -0.595 119 117 94
16.2486 31.8041 60.7777 -0.631 -0.478 -0.611 117 115 91
16.6537 31.8323 60.9508 -0.182 0.081 -0.980 116 116 90
-40.1891 46.2001 75.0334 -0.408 -0.707 -0.577 141 156 149
-32.0921 42.9445 70.4288 -0.753 -0.563 -0.342 151 160 157
-32.0189 42.8246 70.1968 -0.785 -0.098 -0.611 153 162 159
-31.1828 42.2160 69.1479 -0.287 0.258 -0.922 61 64 57
-30.8388 42.0329 68.8579 -0.464 -0.170 -0.869 62 63 55
-30.7138 41.9850 68.7919 -0.665 -0.089 -0.741 54 55 47
-31.0323 41.4016 67.4754 -0.574 0.124 -0.809 54 54 46
-30.9112 41.3528 67.4062 -0.558 0.135 -0.819 55 53 46
-30.7047 41.2131 67.1696 -0.453 -0.076 -0.888 52 51 47
-30.5805 41.1685 67.1101 -0.453 -0.076 -0.888 52 52 47
-30.4564 41.1238 67.0505 -0.453 -0.076 -0.888 52 52 48
-30.3324 41.0792 66.9910 -0.453 -0.076 -0.888 51 51 46
-29.5656 41.3954 67.8697 -0.506 -0.837 -0.209 49 49 45
-22.3594 39.2331 65.3192 -0.132 -0.066 -0.989 82 82 80
-22.2026 39.2150 65.3247 -0.093 -0.179 -0.979 55 54 52
-21.0325 38.8527 64.8870 -0.463 -0.298 -0.835 80 77 70
-20.7117 38.6786 64.6096 -0.665 -0.068 -0.744 94 91 84
-20.6043 38.6214 64.5189 -0.665 -0.068 -0.744 96 93 86
-20.5742 38.5051 64.2826 -0.289 -0.613 -0.735 90 87 80
-19.7328 38.3141 64.1142 -0.679 -0.140 -0.721 68 68 58
-19.5267 38.1953 63.9212 -0.228 -0.341 -0.912 70 70 60
-19.3958 38.1565 63.8758 -0.206 -0.363 -0.909 70 70 60
-19.2744 38.1108 63.8135 -0.237 -0.333 -0.913 68 68 57
-19.4686 37.8371 63.1832 -0.728 -0.192 -0.658 66 67 53
-18.9574 37.9404 63.5427 -0.569 -0.474 -0.671 78 79 65
-18.8487 37.8860 63.4585 -0.549 -0.416 -0.725 83 84 70
-17.6068 37.4561 62.8983 -0.789 -0.242 -0.565 111 109 94
-17.5046 37.3984 62.8054 -0.380 0.148 -0.913 102 99 84
-17.2761 37.1748 62.3980 -0.547 -0.139 -0.826 118 114 103
-17.1823 37.1126 62.2932 -0.559 -0.116 -0.821 119 115 104
-17.0165 37.0980 62.3085 -0.357 0.001 -0.934 129 125 114
-15.2290 37.0205 62.6418 -0.216 0.128 -0.968 110 107 98
-15.0730 36.9969 62.6354 -0.230 0.127 -0.965 102 102 90
-13.4978 36.5277 62.0853 -0.147 -0.178 -0.973 103 93 85
-13.0532 36.4399 62.0238 -0.292 -0.174 -0.940 108 99 88
-12.8955 36.4160 62.0172 -0.359 -0.160 -0.919 107 97 88
-12.6266 36.3409 61.9339 -0.453 -0.115 -0.884 104 98 86
-12.5183 36.2885 61.8536 -0.494 -0.133 -0.859 103 97 85
-11.3762 36.0246 61.6154 -0.435 -0.045 -0.899 106 93 84
-11.2759 35.9682 61.5244 -0.350 -0.072 -0.934 117 104 95
-11.1455 35.9282 61.4766 -0.415 -0.244 -0.877 121 108 99
-10.9929 35.9003 61.4602 -0.294 -0.234 -0.927 104 91 82
-6.8353 35.1281 60.9892 -0.155 -0.399 -0.904 80 67 58
-6.6771 35.1002 60.9744 -0.155 -0.399 -0.904 102 89 80
-6.5187 35.0722 60.9595 -0.155 -0.399 -0.904 97 87 78
-3.0962 34.2088 60.0924 -0.122 0.028 -0.992 55 56 40
-2.8055 34.2356 60.2296 -0.116 -0.387 -0.915 56 57 39
-2.5784 34.2347 60.2908 -0.115 -0.362 -0.925 52 53 35
-2.3360 34.2400 60.3693 -0.233 0.005 -0.972 42 43 25
-2.1168 34.2352 60.4200 -0.038 -0.076 -0.996 55 56 38
-1.2852 34.0973 60.3608 -0.234 0.213 -0.949 67 68 53
3.1613 33.5680 60.4813 -0.444 -0.165 -0.881 29 28 24
3.3372 33.5405 60.4723 -0.183 -0.127 -0.975 31 28 23
3.3791 33.4634 60.3217 -0.120 -0.340 -0.933 31 28 21
4.0013 33.3231 60.1991 -0.431 0.190 -0.882 39 36 29
5.2139 33.2097 60.2972 -0.190 -0.264 -0.946 86 83 76
5.3766 33.1763 60.2720 -0.181 -0.188 -0.965 78 75 70
5.4885 33.1250 60.1951 -0.516 -0.258 -0.817 41 40 35
6.6606 32.8111 59.8599 0.201 -0.353 -0.914 32 28 25
10.9521 32.7080 60.8345 -0.020 0.186 -0.982 97 95 74
11.0716 32.6574 60.7613 -0.140 0.195 -0.971 90 89 69
11.2738 32.6328 60.7657 -0.099 0.150 -0.984 94 93 72
11.6309 32.5685 60.7294 -0.422 0.151 -0.894 106 103 83
12.8865 32.5163 60.9682 0.012 0.264 -0.964 116 111 92
14.7785 32.2976 61.0333 0.027 0.001 -1.000 134 134 110
15.2413 32.2595 61.0817 -0.337 0.066 -0.939 127 127 103
15.5912 32.1022 60.8477 -0.085 -0.541 -0.837 126 126 102
15.9075 31.9360 60.5857 -0.168 -0.611 -0.774 116 116 92
16.1922 31.9313 60.6549 -0.616 -0.490 -0.617 116 116 92
17.7951 31.9524 61.1445 0.202 -0.351 -0.915 100 100 72
-32.1048 43.0317 70.2666 -0.753 -0.558 -0.349 150 160 159
-31.9939 42.9617 70.1504 -0.769 -0.232 -0.596 147 158 154
-31.3698 42.4979 69.3499 -0.575 0.107 -0.811 52 58 54
-31.2432 42.4508 69.2859 -0.355 0.248 -0.901 53 59 53
-30.9814 41.5671 67.5055 -0.580 0.083 -0.810 54 54 46
-30.8726 41.5031 67.4014 -0.548 0.162 -0.820 54 54 44
-30.7819 41.4179 67.2476 -0.417 0.134 -0.899 54 53 48
-23.4848 39.7476 65.7535 -0.437 -0.384 -0.814 79 79 71
-22.9143 39.4784 65.3461 -0.071 -0.118 -0.991 95 95 95
-22.6021 39.4423 65.3564 -0.209 0.073 -0.975 101 101 101
-22.3268 39.3747 65.2904 -0.123 -0.048 -0.991 50 50 50
-22.1810 39.3476 65.2736 -0.123 -0.048 -0.991 35 35 34
-20.9950 38.9979 64.8669 -0.509 -0.684 -0.522 78 78 70
-20.7781 38.8837 64.6871 -0.925 0.175 -0.337 89 89 81
-20.7278 38.7818 64.4873 -0.935 0.206 -0.287 94 94 86
-20.5702 38.6237 64.1992 -0.407 0.041 -0.913 88 88 80
-20.4575 38.5711 64.1201 0.038 -0.274 -0.961 81 81 73
-20.3133 38.5426 64.1000 0.048 -0.276 -0.960 80 80 72
-19.8120 38.5079 64.1651 -0.684 -0.148 -0.714 72 72 62
-19.7053 38.4508 64.0747 -0.684 -0.148 -0.714 69 69 59
-19.5809 38.4070 64.0172 -0.405 -0.503 -0.763 70 70 60
-19.4125 37.9933 63.1962 -0.589 -0.353 -0.727 80 81 67
-19.3040 37.9394 63.1132 -0.651 -0.197 -0.733 86 87 73
-18.5730 37.8051 63.0326 -0.384 -0.167 -0.908 86 84 71
-17.5033 37.5165 62.7218 -0.403 -0.400 -0.823 123 119 107
-17.3477 37.4950 62.7197 -0.570 -0.147 -0.808 121 117 105
-17.3437 37.3717 62.4623 -0.236 -0.069 -0.969 120 116 105
-17.0361 37.2021 62.1914 -0.374 -0.018 -0.927 122 118 107
-15.3477 37.1867 62.6234 -0.237 0.102 -0.966 108 105 96
-15.1978 37.1594 62.6076 -0.267 0.094 -0.959 107 104 95
-14.9077 37.0986 62.5597 -0.124 -0.045 -0.991 91 88 79
-14.7695 37.0638 62.5248 -0.123 -0.036 -0.992 102 99 90
-12.5949 36.4802 61.8996 -0.453 -0.115 -0.884 92 85 73
-12.4618 36.4419 61.8559 -0.367 -0.219 -0.904 89 83 71
-11.3265 36.1739 61.6064 -0.462 -0.110 -0.880 118 105 96
-11.2376 36.1110 61.4991 -0.350 -0.072 -0.934 125 112 103
-11.1112 36.0688 61.4454 -0.445 -0.110 -0.889 127 115 103
-10.9800 36.0293 61.3987 -0.361 -0.161 -0.919 111 99 87
-10.8473 35.9906 61.3541 -0.268 -0.323 -0.908 100 90 80
-3.7338 34.6497 60.4997 -0.243 -0.010 -0.970 70 70 62
-2.9859 34.3834 60.1472 -0.150 0.057 -0.987 72 73 57
-1.1192 34.2950 60.4754 -0.004 -0.396 -0.918 75 78 59
0.0519 34.0035 60.1864 -0.140 -0.114 -0.984 31 32 24
3.1546 33.6982 60.3997 -0.584 -0.109 -0.804 29 28 24
3.3299 33.6706 60.3901 -0.368 -0.128 -0.921 32 29 24
4.9695 33.4393 60.3562 -0.305 0.209 -0.929 45 42 33
5.3745 33.3097 60.1959 -0.532 -0.264 -0.804 76 73 67
5.4894 33.2594 60.1222 -0.552 -0.278 -0.786 40 39 34
9.4063 32.9708 60.5945 -0.142 0.142 -0.980 66 62 50
9.5360 32.9241 60.5323 -0.081 -0.030 -0.996 69 65 52
11.1653 32.9149 60.9611 -0.132 -0.577 -0.806 95 92 75
11.3529 32.8856 60.9512 -0.132 -0.577 -0.806 95 92 75
11.5407 32.8562 60.9414 -0.132 -0.577 -0.806 98 95 77
11.8401 32.7734 60.8500 -0.366 -0.586 -0.723 100 97 80
13.0538 32.6206 60.8635 -0.523 0.166 -0.836 123 118 99
13.1055 32.5489 60.7275 0.010 -0.036 -0.999 129 124 105
13.3819 32.5453 60.7960 -0.054 0.029 -0.998 129 127 106
15.3878 32.3584 60.9560 -0.197 -0.174 -0.965 123 123 99
16.3989 32.1328 60.7611 -0.187 0.149 -0.971 116 116 92
17.6613 32.1455 61.1348 0.055 0.139 -0.989 98 99 68
17.8895 32.1234 61.1513 0.246 0.133 -0.960 101 102 71
-31.9770 43.0881 70.0795 -0.769 -0.232 -0.596 142 151 148
-31.8494 43.0406 70.0150 -0.679 -0.173 -0.714 146 155 150
-31.7428 42.9656 69.8874 -0.690 -0.204 -0.694 149 155 151
-31.6265 42.9037 69.7900 -0.690 -0.204 -0.694 109 115 111
-31.5028 42.8517 69.7152 -0.670 -0.182 -0.719 70 76 72
-31.3925 42.7826 69.6010 -0.644 -0.150 -0.750 56 62 58
-31.2752 42.7229 69.5083 -0.642 -0.174 -0.746 51 57 53
-29.5806 41.5914 67.6080 -0.238 -0.905 -0.353 50 49 45
-29.2380 41.4181 67.3396 -0.532 -0.811 -0.245 50 46 43
-29.3525 40.9224 66.2738 -0.425 -0.419 -0.802 51 47 44
-29.2246 40.8830 66.2265 -0.425 -0.419 -0.802 51 47 44
-29.0934 40.8473 66.1877 -0.389 -0.433 -0.813 51 47 44
-28.7324 40.7048 65.9885 -0.268 -0.703 -0.658 45 42 37
-23.4901 39.8564 65.6455 -0.389 -0.397 -0.831 78 78 70
-23.0321 39.6425 65.3237 -0.277 -0.461 -0.843 95 95 95
-22.7598 39.5731 65.2530 0.030 -0.321 -0.946 89 89 89
-22.5967 39.5611 65.2724 -0.082 -0.118 -0.990 78 78 78
-22.4504 39.5347 65.2572 -0.100 -0.108 -0.989 64 64 64
-22.2982 39.5131 65.2535 -0.082 -0.118 -0.990 24 24 24
-20.7346 39.0334 64.6782 -0.929 0.172 -0.328 92 89 82
-20.6850 38.9306 64.4772 -0.938 0.201 -0.283 96 93 86
-20.5284 38.7713 64.1872 -0.407 0.041 -0.913 90 87 80
-20.2881 38.6774 64.0567 0.148 -0.300 -0.942 83 80 73
-19.8489 38.5964 64.0072 -0.428 -0.493 -0.757 72 72 62
-19.5734 38.5289 63.9413 -0.435 -0.472 -0.767 70 70 60
-18.9477 38.1802 63.3839 -0.596 -0.033 -0.802 91 92 78
-18.8369 38.1273 63.3038 -0.596 -0.033 -0.802 88 89 75
-18.5925 37.9076 62.9117 -0.268 -0.333 -0.904 84 85 71
-17.2675 37.4142 62.2428 -0.637 -0.103 -0.764 120 116 105
-16.9800 37.3563 62.2002 -0.364 -0.339 -0.868 115 111 100
-14.6935 37.2308 62.5610 -0.222 -0.067 -0.973 110 107 98
-14.5519 37.1979 62.5309 -0.222 -0.067 -0.973 111 108 99
-14.4174 37.1606 62.4897 -0.224 -0.058 -0.973 99 96 87
-14.2484 37.1444 62.5020 -0.283 0.011 -0.959 93 90 81
-13.1353 36.7493 61.9804 -0.311 -0.065 -0.948 97 87 78
-12.9549 36.7388 62.0076 -0.652 -0.198 -0.732 96 87 78
-12.8239 36.6993 61.9608 -0.457 -0.311 -0.833 82 76 64
-12.5632 36.6194 61.8651 -0.336 -0.294 -0.895 80 74 62
-12.4361 36.5776 61.8126 -0.367 -0.219 -0.904 80 74 62
-10.9563 36.1641 61.3525 -0.238 -0.009 -0.971 114 102 90
-8.9685 35.5816 60.6779 -0.242 -0.545 -0.803 143 141 129
-7.4037 35.4144 60.7551 -0.633 -0.210 -0.746 83 73 64
-1.4688 34.4727 60.4061 -0.161 -0.233 -0.959 59 60 44
-1.1207 34.4236 60.3984 -0.103 -0.405 -0.909 77 78 62
-0.5512 34.3684 60.4383 -0.013 -0.602 -0.798 47 48 34
-0.0127 34.3955 60.6415 0.162 -0.713 -0.682 39 41 31
0.0486 34.1319 60.1080 0.091 0.041 -0.995 31 32 24
2.9618 33.9452 60.5117 -0.556 -0.090 -0.826 49 48 46
3.0778 33.8953 60.4391 -0.556 -0.090 -0.826 40 39 37
4.9948 33.5823 60.3080 -0.308 0.171 -0.936 45 42 36
5.1460 33.5449 60.2711 -0.308 0.186 -0.933 62 59 53
5.5508 33.3242 59.9208 -0.743 -0.071 -0.666 39 38 34
9.2556 33.1483 60.5626 -0.070 0.040 -0.997 86 84 71
10.2937 33.0412 60.6218 0.250 -0.207 -0.946 99 95 83
13.4398 32.7039 60.7746 -0.663 0.370 -0.651 129 127 106
14.5170 32.6788 61.0156 -0.379 -0.095 -0.921 123 121 100
15.4699 32.4385 60.7736 0.048 -0.318 -0.947 117 117 93
16.5228 32.3114 60.7950 -0.228 0.034 -0.973 112 112 88
16.8718 32.3249 60.9183 -0.033 0.193 -0.981 113 113 87
17.2721 32.2664 60.9052 0.218 0.123 -0.968 114 114 86
18.1074 32.3292 61.2638 0.229 0.312 -0.922 114 115 84
18.8139 32.2676 61.3277 0.253 -0.140 -0.957 113 115 91
-55.0791 54.6544 87.5509 -0.968 -0.235 -0.084 92 94 80
-46.2241 50.3987 81.0937 -0.868 -0.459 -0.190 137 152 149
-45.7349 49.9043 80.1980 -0.682 -0.524 -0.510 139 154 151
-31.3434 42.9504 69.6262 -0.614 -0.444 -0.652 106 111 107
-31.1252 42.8099 69.3929 -0.277 -0.197 -0.941 39 46 40
-30.9823 42.7828 69.3752 -0.279 -0.200 -0.939 40 42 36
-30.8448 42.7489 69.3417 -0.279 -0.200 -0.939 44 44 36
-30.7103 42.7110 69.2993 -0.350 -0.329 -0.877 46 43 34
-31.1286 41.7912 67.2747 -0.484 -0.397 -0.780 50 50 42
-30.9940 41.7591 67.2442 -0.495 -0.375 -0.784 51 51 43
-30.8204 41.7740 67.3221 -0.147 0.120 -0.982 51 51 41
-27.5896 43.3873 71.5467 -0.247 -0.879 -0.408 47 43 40
-28.4735 40.7362 65.7980 -0.738 -0.408 -0.538 52 47 43
-24.9052 41.0839 67.4830 -0.002 -0.789 -0.614 48 45 40
-23.7063 39.9336 65.4155 -0.064 -0.348 -0.935 74 74 66
-20.8019 39.0961 64.4582 -0.113 -0.286 -0.952 93 88 82
-20.6457 39.0769 64.4604 -0.361 -0.366 -0.857 97 92 86
-20.3537 38.8817 64.1334 -0.419 0.033 -0.907 85 80 74
-20.2535 38.8193 64.0308 -0.256 -0.073 -0.964 83 79 73
-20.1142 38.7870 64.0013 -0.272 -0.075 -0.959 83 83 73
-19.9916 38.7421 63.9409 -0.369 -0.058 -0.928 78 78 68
-19.8602 38.7038 63.8967 -0.383 -0.059 -0.922 72 72 62
-19.7172 38.6741 63.8737 -0.417 -0.454 -0.787 69 69 59
-19.5524 38.6607 63.8902 -0.006 -0.286 -0.958 70 70 60
-19.4613 38.5922 63.7726 -0.200 -0.128 -0.971 71 71 59
-17.4833 37.7640 62.5846 -0.206 -0.372 -0.905 112 108 96
-17.3811 37.7065 62.4926 -0.081 -0.322 -0.943 113 109 98
-17.2239 37.6864 62.4933 -0.264 -0.306 -0.914 113 109 98
-17.0635 37.6683 62.4988 -0.186 -0.393 -0.901 113 109 98
-14.5171 37.3394 62.5020 -0.224 -0.058 -0.973 109 106 97
-14.3757 37.3063 62.4714 -0.224 -0.058 -0.973 102 99 90
-13.9137 36.8736 61.6966 -0.288 -0.430 -0.856 103 93 84
-13.7258 36.8691 61.7381 -0.405 -0.252 -0.879 101 91 82
-13.5792 36.8397 61.7164 -0.417 -0.255 -0.872 97 84 76
-13.0893 36.8970 61.9676 -0.410 -0.244 -0.879 103 93 84
-12.9357 36.8708 61.9547 -0.652 -0.198 -0.732 109 101 90
-12.8159 36.8247 61.8911 -0.473 -0.350 -0.808 100 94 82
-12.5619 36.7411 61.7858 -0.330 -0.380 -0.864 75 69 57
-12.4105 36.7134 61.7692 -0.367 -0.219 -0.904 66 60 48
-10.4071 36.2520 61.3504 0.045 -0.243 -0.969 91 82 72
-7.9336 35.8041 61.0865 0.174 -0.089 -0.981 94 90 81
-7.6109 35.7530 61.0674 -0.292 -0.021 -0.956 79 75 66
-3.7681 35.1909 60.9357 -0.735 -0.135 -0.665 74 67 59
-3.6538 35.1411 60.8629 -0.747 -0.091 -0.658 61 57 48
-2.9570 34.7491 60.2360 -0.388 0.033 -0.921 60 58 44
-1.4365 34.6151 60.3678 -0.121 -0.204 -0.972 62 60 47
-1.1212 34.5524 60.3225 -0.149 -0.135 -0.980 80 78 65
-0.9790 34.5145 60.2820 -0.112 -0.094 -0.989 71 69 56
-0.8118 34.4870 60.2699 -0.144 -0.084 -0.986 49 47 34
-0.6666 34.4502 60.2327 -0.145 -0.083 -0.986 48 46 34
0.1282 34.2938 60.1219 0.091 0.041 -0.995 35 35 27
2.7308 34.0835 60.3869 0.015 -0.317 -0.948 33 32 28
3.1117 34.0407 60.4005 -0.556 -0.090 -0.826 32 31 27
5.2393 33.7126 60.2925 -0.753 -0.087 -0.652 41 40 36
5.3940 33.5845 60.0680 -0.743 -0.071 -0.666 43 42 39
5.4862 33.5261 59.9714 -0.743 -0.071 -0.666 36 35 33
5.5782 33.4677 59.8749 -0.743 -0.071 -0.666 36 35 33
17.6977 32.4449 61.0179 0.325 -0.122 -0.938 115 115 87
18.0445 32.4566 61.1356 0.384 -0.109 -0.917 114 114 86
18.4272 32.4778 61.2831 0.341 -0.129 -0.931 113 113 87
18.7407 32.4792 61.3705 0.204 0.079 -0.976 114 114 88
24.1905 32.3907 62.6564 -0.445 0.480 -0.756 126 123 93
-55.9731 59.3768 96.7107 -0.979 -0.009 -0.206 93 90 73
-46.3246 50.6540 81.2336 -0.863 -0.469 -0.185 138 153 150
-31.9705 43.3042 69.8550 -0.281 -0.644 -0.712 143 152 149
-31.4543 43.1235 69.6188 -0.635 -0.425 -0.645 140 145 139
-31.3276 43.0755 69.5533 -0.636 -0.288 -0.716 141 146 142
-31.0990 42.9482 69.3508 -0.294 -0.181 -0.939 46 53 48
-30.9619 42.9138 69.3163 -0.271 -0.192 -0.943 34 37 31
-30.8233 42.8813 69.2860 -0.327 -0.301 -0.896 40 40 32
-30.6887 42.8436 69.2440 -0.349 -0.321 -0.880 42 39 30
-30.5413 42.8218 69.2381 0.051 -0.110 -0.993 40 40 32
-29.5062 41.7001 67.1930 -0.138 -0.628 -0.766 38 34 31
-26.4058 41.2513 67.0923 -0.491 -0.572 -0.656 48 47 42
-26.2746 41.2112 67.0443 -0.491 -0.568 -0.661 48 47 42
-26.1290 41.1854 67.0298 -0.579 -0.547 -0.605 48 47 42
-25.9016 41.0704 66.8524 -0.803 -0.381 -0.458 42 39 34
-25.8000 41.0013 66.7365 -0.777 -0.374 -0.507 42 39 34
-25.4404 41.0159 66.8629 -0.226 0.425 -0.877 46 43 38
-25.3180 40.9670 66.7943 -0.222 0.450 -0.865 47 44 39
-24.7178 40.5505 66.0926 -0.132 0.378 -0.916 45 40 37
-24.4868 40.4429 65.9316 -0.190 -0.029 -0.981 45 40 37
-24.3544 40.4048 65.8881 -0.253 -0.022 -0.967 45 40 37
-24.2181 40.3704 65.8533 -0.253 -0.022 -0.967 46 39 36
-24.0932 40.3254 65.7935 -0.290 -0.156 -0.944 49 48 41
-23.9632 40.2852 65.7450 -0.294 -0.140 -0.945 52 52 44
-23.7838 40.2893 65.8013 -0.253 0.009 -0.967 60 60 52
-23.6448 40.2568 65.7713 -0.283 -0.016 -0.959 64 64 54
-22.7368 39.8202 65.1101 -0.331 -0.544 -0.771 57 57 57
-22.2208 39.6575 64.9112 -0.553 -0.230 -0.801 35 35 34
-21.9583 39.4331 64.5169 -0.381 -0.002 -0.924 82 81 76
-21.8559 39.3713 64.4163 -0.378 0.028 -0.926 98 97 92
-20.7534 39.2497 64.4591 -0.113 -0.256 -0.960 86 83 76
-20.4838 39.1774 64.3814 -0.626 -0.043 -0.779 84 81 74
-19.7715 38.8866 63.9699 -0.491 -0.264 -0.830 70 70 60
-19.6761 38.8209 63.8593 -0.406 -0.419 -0.812 78 78 68
-19.5258 38.7967 63.8494 -0.006 -0.286 -0.958 77 77 67
-19.4403 38.7239 63.7215 -0.201 -0.157 -0.967 76 76 64
-17.8023 38.3061 63.2943 -0.542 -0.116 -0.833 94 92 77
-17.6707 38.2676 63.2498 -0.540 -0.088 -0.837 101 99 84
-17.5436 38.2260 63.1975 -0.459 -0.017 -0.888 116 114 99
-17.4082 38.1901 63.1594 -0.343 -0.063 -0.937 117 115 100
-16.0383 37.7146 62.5412 -0.201 -0.079 -0.976 103 99 88
-15.3746 37.6496 62.5838 -0.244 -0.019 -0.970 85 82 73
-15.2482 37.6075 62.5304 -0.301 -0.039 -0.953 96 93 84
-15.1296 37.5603 62.4645 -0.225 -0.178 -0.958 107 104 95
-14.9870 37.5285 62.4368 -0.225 -0.178 -0.958 114 111 102
-13.4829 37.3737 62.5181 -0.087 -0.374 -0.923 96 86 77
-13.2362 37.0473 61.9084 -0.265 -0.527 -0.807 99 89 80
-13.0723 37.0276 61.9113 -0.391 -0.250 -0.886 103 93 84
-12.9313 36.9940 61.8795 -0.382 -0.253 -0.889 106 98 87
-12.7968 36.9566 61.8380 -0.380 -0.277 -0.883 97 89 78
-12.5273 36.8820 61.7556 -0.343 -0.350 -0.872 78 72 60
-7.5646 35.9007 61.0500 -0.292 -0.021 -0.956 87 83 74
-4.9029 35.4094 60.7442 -0.268 -0.336 -0.903 77 68 61
-3.8399 35.4905 61.1958 -0.758 0.003 -0.653 70 61 54
-3.2120 34.9630 60.2717 -0.419 0.099 -0.903 56 51 45
-2.8824 34.9092 60.2485 -0.493 -0.190 -0.849 81 76 64
-2.7738 34.8575 60.1705 -0.118 0.006 -0.993 86 79 66
-2.6170 34.8270 60.1492 -0.071 -0.104 -0.992 76 70 57
