ply
format ascii 1.0
element vertex 863
property float x
property float y
property float z
property float nx
property float ny
property float nz
property uchar diffuse_red
property uchar diffuse_green
property uchar diffuse_blue
end_header
-0.2458 38.5326 60.7709 -0.273 -0.169 -0.947 45 49 32
-0.1380 38.5093 60.6677 -0.595 -0.560 -0.576 46 48 34
7.1408 38.3842 60.8735 0.058 -0.132 -0.990 25 25 23
-62.2625 48.6933 103.2731 -0.878 0.279 -0.388 66 75 70
-55.6827 47.0662 95.9760 -0.707 -0.705 0.064 69 88 56
-55.5179 46.9517 95.4306 -0.794 -0.607 0.031 73 92 62
-55.4341 46.8962 95.1664 -0.442 -0.872 -0.209 73 91 63
-55.1056 46.0466 91.0215 -0.546 -0.127 -0.828 74 99 60
-53.1494 45.1961 87.0472 -0.885 -0.292 -0.362 123 127 126
-52.9734 45.1150 86.6671 -0.459 0.215 -0.862 113 115 115
-50.4602 44.9661 86.2054 -0.161 -0.101 -0.982 83 83 75
-49.3371 43.9375 81.2650 -0.794 -0.095 -0.600 129 131 128
-33.8748 40.6001 66.5096 -0.682 -0.459 -0.570 155 157 152
-23.6965 40.1444 65.3641 -0.438 0.040 -0.898 82 84 73
-14.6672 39.5840 63.5793 -0.719 -0.689 -0.092 80 80 72
-8.3500 39.1194 61.9739 -0.503 0.170 -0.847 52 54 43
-7.0221 39.1070 62.0563 -0.585 -0.225 -0.779 126 131 109
-5.7612 39.0831 62.0745 0.356 -0.126 -0.926 83 81 69
-5.7252 38.9791 61.5665 -0.593 0.341 -0.729 75 72 63
-0.3825 38.8181 61.3499 -0.035 -0.442 -0.896 68 70 56
-0.3798 38.7472 61.0016 -0.272 -0.059 -0.961 61 65 48
-0.2447 38.7268 60.9158 -0.373 -0.103 -0.922 52 56 39
-0.2076 38.6603 60.5928 -0.595 -0.560 -0.576 51 55 38
-62.2345 48.8783 103.3429 -0.878 0.279 -0.388 67 76 71
-57.5758 47.6539 97.8409 -0.931 0.261 -0.256 40 58 36
-56.4941 46.8902 94.2228 -0.002 -0.326 -0.945 75 88 65
-56.3328 46.8887 94.2321 -0.043 -0.391 -0.920 79 89 69
-55.1139 46.2927 91.4464 -0.261 -0.728 -0.634 79 105 64
-50.4688 45.1087 86.1401 -0.457 -0.064 -0.887 67 66 61
-50.3351 45.0920 86.0725 -0.457 -0.064 -0.887 53 52 47
-50.2014 45.0754 86.0049 -0.457 -0.064 -0.887 78 77 72
-29.5404 41.6937 71.6041 -0.994 0.083 0.063 147 149 144
-28.7013 39.8677 62.7748 -0.281 -0.659 -0.697 53 53 45
-24.9382 40.3024 65.2814 -0.363 -0.439 -0.822 56 56 48
-23.6528 40.2954 65.3782 -0.432 0.030 -0.901 74 75 67
-16.2084 39.8825 64.1224 -0.452 0.668 -0.591 99 99 89
-15.1466 39.7756 63.7088 -0.706 -0.591 -0.389 82 82 74
-13.8836 39.5457 62.7156 -0.532 -0.028 -0.847 106 106 94
-7.0659 39.2556 61.9948 -0.585 -0.276 -0.763 126 131 109
4.8499 38.7999 60.9867 -0.488 -0.450 -0.748 31 31 29
6.2011 38.8701 61.4672 -0.609 0.361 -0.706 26 26 24
-68.6490 50.6957 110.6973 -0.716 0.696 -0.063 61 58 39
-67.9444 50.7972 111.2568 -0.153 0.781 -0.605 87 83 70
-57.5735 47.8110 97.7915 -0.774 0.261 -0.576 44 64 39
-57.0723 47.8139 97.8538 -0.990 0.130 0.047 37 61 35
-56.4937 47.0420 94.1704 -0.002 -0.326 -0.945 67 73 58
-56.3356 47.0385 94.1686 -0.043 -0.391 -0.920 74 77 63
-55.7618 46.7628 92.8882 -0.970 -0.238 0.046 86 94 73
-55.0591 46.5815 92.0776 -0.206 -0.286 -0.936 87 102 73
-55.0811 46.3594 90.9997 -0.012 -0.212 -0.977 71 98 53
-53.1511 45.4852 86.9511 -0.846 -0.069 -0.528 97 97 90
-53.0509 45.4510 86.7951 -0.846 -0.069 -0.528 80 79 73
-52.9520 45.4162 86.6362 -0.703 -0.076 -0.707 67 69 57
-29.4395 41.8639 71.6961 -0.996 -0.000 0.084 146 147 142
-29.4995 41.8015 71.3879 -0.997 0.009 0.083 148 149 144
-29.6503 41.7183 70.9705 -0.994 -0.075 0.081 155 156 151
-29.6964 41.6599 70.6830 -0.994 -0.075 0.082 161 162 156
-23.7186 40.4673 65.4827 -0.457 0.134 -0.879 78 79 71
-23.6464 40.4395 65.3550 -0.348 -0.136 -0.928 79 80 72
-19.3575 40.1077 64.1610 -0.665 0.181 -0.724 110 110 101
-18.2065 39.9836 63.6710 -0.620 -0.020 -0.784 127 129 118
-16.2743 39.9814 63.8467 -0.374 0.063 -0.925 89 89 81
-16.1894 39.9558 63.7313 -0.248 -0.059 -0.967 77 76 71
-11.4473 39.5949 62.4404 -0.763 -0.152 -0.628 93 89 80
-4.3321 39.3907 62.1378 -0.720 -0.563 -0.405 64 56 53
-3.8359 39.1599 61.0675 -0.005 0.081 -0.997 84 78 66
4.7986 38.9585 60.9247 -0.488 -0.450 -0.748 33 33 31
6.1317 39.0651 61.5700 -0.626 0.252 -0.738 28 28 26
6.1781 39.0337 61.4224 -0.627 0.281 -0.726 28 28 26
-57.6180 47.1975 94.0338 -0.149 0.486 -0.861 68 86 60
-57.4621 47.1942 94.0324 -0.160 0.485 -0.860 69 87 59
-56.4759 47.2060 94.1788 0.013 -0.319 -0.948 131 136 119
-56.3211 47.2003 94.1651 0.009 -0.296 -0.955 155 157 143
-55.7164 47.1657 94.0538 -0.855 -0.497 -0.148 91 94 77
-55.2780 46.5896 91.3243 -0.625 0.121 -0.771 87 103 72
-53.4097 45.6661 87.0549 -0.641 -0.167 -0.749 98 101 90
-53.2951 45.6397 86.9387 -0.666 -0.137 -0.734 108 110 99
-51.5662 45.7837 87.7880 -0.867 -0.322 -0.381 97 97 87
-51.6053 45.5852 86.8303 -0.791 0.447 -0.419 99 99 89
-23.6575 40.5804 65.3143 -0.311 -0.178 -0.934 80 80 72
-19.4876 40.2707 64.2050 -0.539 0.168 -0.825 111 108 99
-19.3590 40.2527 64.1303 -0.616 0.204 -0.761 104 101 92
-13.8240 39.8899 62.8895 -0.604 0.093 -0.791 114 114 102
-8.2480 39.5171 61.6048 -0.361 -0.393 -0.846 134 139 117
-3.8884 39.3456 61.1772 -0.114 0.158 -0.981 85 77 66
4.7473 39.1168 60.8628 -0.488 -0.450 -0.748 36 36 34
5.5373 39.1666 61.1742 -0.882 0.228 -0.412 34 34 32
5.5602 39.1328 61.0135 -0.887 0.132 -0.442 35 35 33
6.0657 39.1148 60.9731 -0.322 -0.277 -0.905 36 35 33
-62.0009 49.4216 103.4991 -0.772 0.587 -0.245 55 64 59
-61.7902 49.3051 102.9615 0.348 -0.128 -0.929 55 64 59
-57.5980 47.3623 94.0521 -0.111 0.408 -0.906 71 91 63
-56.4696 47.3619 94.1469 -0.040 -0.308 -0.951 162 168 150
-56.3047 47.3635 94.1684 -0.086 0.006 -0.996 155 158 143
-55.2835 47.0566 92.7919 -0.874 0.244 -0.420 92 96 79
-55.2302 46.7696 91.4274 -0.594 0.147 -0.791 86 103 72
-55.1584 46.7110 91.1538 -0.643 0.097 -0.760 79 105 64
-53.4145 45.8080 86.9954 -0.688 -0.135 -0.713 100 103 92
-53.2810 45.7925 86.9329 -0.502 0.368 -0.783 79 81 70
-50.7752 45.6472 86.4540 -0.227 0.033 -0.973 97 96 92
-50.6284 45.6373 86.4194 -0.227 0.033 -0.973 92 91 86
-46.8324 45.2614 84.9509 -0.993 -0.057 0.099 140 146 142
-26.4436 40.5561 64.2490 -0.609 -0.557 -0.565 36 36 28
-19.4692 40.4192 64.1924 -0.536 0.194 -0.822 90 87 78
-19.3197 40.4048 64.1366 -0.616 0.217 -0.757 84 81 72
-16.1198 40.2233 63.5442 -0.693 -0.052 -0.719 86 85 80
-7.2375 39.6572 61.6036 -0.309 0.040 -0.950 122 125 106
-5.8834 39.6139 61.5132 -0.559 -0.234 -0.795 52 52 42
-6.0963 39.4390 60.6607 -0.656 -0.041 -0.754 66 61 55
4.6962 39.2749 60.8010 -0.488 -0.450 -0.748 39 39 37
-66.4641 47.1551 91.5957 -0.960 -0.224 0.169 102 95 70
-58.6509 48.0657 96.5334 -0.811 -0.490 -0.320 58 65 57
-57.3015 47.9806 96.2389 -0.917 0.278 -0.286 63 86 58
-57.5613 47.6606 94.7030 -0.141 -0.694 -0.706 61 84 56
-56.4513 47.5264 94.1567 -0.044 0.045 -0.998 146 154 136
-56.2908 47.5250 94.1629 -0.095 0.009 -0.995 131 135 120
-55.8469 47.3793 93.5086 -0.872 -0.461 -0.164 116 120 105
-55.2071 47.2588 92.9897 -0.797 0.185 -0.575 87 94 76
-55.2025 47.1525 92.4865 -0.366 0.734 -0.572 85 94 73
-54.8607 47.1625 92.5616 -0.106 0.754 -0.648 77 94 64
-54.8887 47.0366 91.9630 -0.226 0.829 -0.512 67 93 52
-54.4739 47.0937 92.2667 -0.908 0.414 0.069 64 91 46
-51.0529 45.9986 87.3567 -0.288 0.434 -0.853 95 95 85
-46.8247 45.4926 85.3000 -0.973 -0.048 0.227 140 146 142
-26.4261 40.6982 64.2381 -0.576 -0.622 -0.530 31 31 23
-19.5614 40.5889 64.2710 -0.339 0.384 -0.859 105 102 95
-16.1314 40.3689 63.5050 -0.744 -0.061 -0.665 101 100 95
-12.9613 40.0880 62.4291 -0.363 -0.058 -0.930 90 90 80
-12.8219 40.0707 62.3585 -0.425 -0.058 -0.904 87 87 77
-12.5091 40.0412 62.2436 -0.427 -0.074 -0.901 98 98 88
-11.3331 40.0248 62.2605 -0.545 -0.065 -0.836 83 79 70
-8.7449 39.8653 61.7130 -0.380 -0.349 -0.857 81 81 74
-7.2674 39.8064 61.5526 -0.553 -0.009 -0.833 121 124 106
-6.0367 39.7853 61.5516 -0.505 -0.222 -0.834 59 59 48
-5.7719 39.7833 61.5631 -0.529 -0.251 -0.811 52 52 42
-0.6740 39.6167 61.1832 0.102 -0.096 -0.990 78 80 66
4.9334 39.5023 61.0912 0.406 -0.050 -0.913 37 38 33
4.6252 39.4305 60.7270 -0.490 -0.462 -0.740 40 41 36
6.2495 39.3191 60.3299 -0.031 0.522 -0.852 37 37 26
6.5040 39.3106 60.3099 -0.105 0.449 -0.887 43 43 32
-64.5157 50.9781 109.0060 -0.725 0.634 -0.269 84 76 57
-57.3017 47.7648 94.4482 -0.320 0.403 -0.857 78 97 70
-57.1630 47.7482 94.3806 -0.695 0.207 -0.688 77 97 69
-56.2652 47.6949 94.1975 -0.262 0.090 -0.961 117 121 106
-54.4669 47.2492 92.2381 -0.950 0.271 0.153 64 91 46
-52.1241 46.3758 88.3097 -0.756 0.328 -0.567 69 69 59
-52.0215 46.3407 88.1526 -0.756 0.328 -0.567 69 69 59
-51.8962 46.3186 88.0579 -0.668 0.376 -0.642 68 68 58
-50.9390 46.2082 87.6112 -0.464 0.264 -0.846 98 98 88
-51.0644 46.0507 86.8613 -0.667 0.062 -0.743 93 93 85
-52.5782 45.1483 82.5079 -0.575 0.342 -0.743 83 82 78
-48.3984 45.1457 82.8088 -0.251 -0.556 -0.792 148 153 149
-31.9491 42.0263 69.3847 -0.254 -0.159 -0.954 167 167 165
-28.8333 40.8009 63.8602 -0.830 -0.550 -0.098 44 41 32
-21.8479 40.9775 65.2135 -0.326 -0.138 -0.935 70 67 62
-19.1009 40.6935 64.0848 -0.585 0.438 -0.683 78 75 68
-18.2485 40.5591 63.5171 -0.453 -0.286 -0.844 69 70 64
-16.1304 40.5167 63.4766 -0.746 -0.053 -0.664 106 105 100
-15.9203 40.4718 63.2814 -0.735 -0.035 -0.677 110 109 104
-12.8751 40.2503 62.4689 -0.381 0.057 -0.923 99 99 89
-12.5589 40.2213 62.3565 -0.479 -0.083 -0.874 101 101 89
-10.5934 40.1313 62.0806 -0.246 -0.023 -0.969 81 79 67
-0.9151 39.7829 61.1690 0.202 -0.306 -0.930 76 78 64
-0.1163 39.7705 61.1704 0.284 -0.220 -0.933 67 70 53
4.9748 39.6714 61.0864 0.162 -0.646 -0.746 41 40 35
6.2601 39.5215 60.4785 0.303 0.160 -0.939 47 45 32
-61.4287 49.8125 102.9522 -0.059 -0.534 -0.843 54 64 56
-60.3427 49.4407 101.2938 -0.880 -0.474 0.002 55 64 59
-60.2888 49.3385 100.8211 -0.880 -0.474 0.002 56 64 59
-58.7046 48.3254 96.2070 -0.786 -0.279 -0.552 43 55 39
-57.4333 47.9375 94.4864 -0.349 0.327 -0.879 80 96 72
-57.2929 47.9222 94.4251 -0.349 0.327 -0.879 81 96 71
-57.1401 47.9163 94.4082 -0.695 0.207 -0.688 80 96 71
-57.0275 47.8801 94.2472 -0.719 0.199 -0.666 112 127 102
-56.4718 47.8141 93.9782 -0.360 -0.244 -0.901 102 107 90
-56.3163 47.8095 93.9676 -0.568 -0.038 -0.822 87 89 75
-55.4290 47.5204 92.6813 -0.962 -0.196 -0.192 110 117 96
-54.8546 47.2514 91.4669 0.155 0.314 -0.937 64 91 47
-51.9556 46.2476 86.9875 -0.871 0.019 -0.491 95 95 85
-51.8393 46.2215 86.8741 -0.553 -0.108 -0.826 104 104 94
-51.5198 46.2177 86.8787 0.069 -0.421 -0.904 106 106 96
-52.4953 45.3323 82.6815 -0.464 0.416 -0.782 85 84 80
-50.5604 46.2024 86.8743 -0.610 -0.617 -0.497 59 58 56
-27.7322 41.8439 68.1399 -0.051 -0.815 -0.577 56 51 45
-27.5485 41.8391 68.1303 -0.051 -0.815 -0.577 56 51 45
-23.3392 41.1720 65.3131 -0.825 -0.147 -0.546 86 86 78
-21.7504 41.1407 65.2779 -0.418 -0.126 -0.900 64 61 56
-19.6396 40.9066 64.3331 0.032 -0.307 -0.951 87 84 75
-19.5147 40.8879 64.2548 -0.410 -0.196 -0.891 93 91 79
-19.3667 40.8735 64.1976 -0.540 -0.052 -0.840 87 85 74
-18.9662 40.8221 63.9860 -0.545 0.118 -0.830 84 84 76
-15.9724 40.6505 63.3947 -0.764 0.174 -0.621 142 141 136
-15.9056 40.6216 63.2647 -0.725 -0.033 -0.688 100 99 94
-13.2386 40.5784 63.2491 -0.239 0.646 -0.725 139 139 127
-13.1843 40.5474 63.1082 -0.415 0.562 -0.715 124 124 112
-12.9910 40.5385 63.0800 -0.873 0.430 -0.229 112 112 100
-12.8933 40.3966 62.4252 -0.561 -0.098 -0.822 106 106 96
-10.5739 40.2850 62.0663 -0.238 -0.005 -0.971 82 80 68
-7.4842 40.1203 61.5139 -0.636 0.007 -0.772 126 131 109
-0.8501 39.9500 61.1822 0.284 -0.277 -0.918 89 91 77
0.8309 39.8235 60.7098 0.044 0.173 -0.984 58 61 44
6.5359 39.6805 60.4408 0.036 -0.030 -0.999 52 50 36
-61.7379 50.1554 103.7230 -0.152 -0.527 -0.836 74 85 79
-60.9054 49.5233 100.8509 -0.772 -0.249 -0.586 68 80 73
-60.2859 49.3452 100.0666 -0.871 -0.492 0.015 54 64 56
-60.2060 49.2695 99.7211 -0.885 -0.461 0.064 46 53 46
-58.9114 48.9822 98.4751 -0.833 -0.551 0.043 49 57 46
-58.6065 48.4261 95.9202 -0.532 -0.335 -0.777 60 79 49
-58.5087 48.3754 95.6921 -0.603 -0.270 -0.751 60 81 47
-58.1718 48.3895 95.7790 -0.857 -0.489 -0.162 64 82 54
-56.4623 47.9721 93.9575 -0.363 -0.248 -0.898 109 110 94
-55.2432 47.4653 91.6902 -0.400 0.310 -0.863 90 96 74
-55.1151 47.4428 91.5942 -0.417 0.300 -0.858 80 91 65
-54.2311 47.2780 90.8888 -0.460 0.671 -0.581 76 95 65
-51.8116 47.0472 89.9766 -0.498 0.827 -0.260 99 96 87
-51.5929 46.7885 88.7932 -0.352 0.884 -0.308 94 94 84
-51.9642 46.3889 86.9194 -0.878 0.006 -0.478 99 99 87
-51.8512 46.3609 86.7972 -0.390 -0.107 -0.915 100 100 88
-50.6450 46.5753 87.8677 -0.239 0.504 -0.830 87 87 78
-48.4397 45.4138 82.6335 -0.251 -0.556 -0.792 150 155 151
-46.9017 45.9040 85.0018 -0.902 -0.301 0.309 150 156 152
-32.5816 42.4421 69.9021 0.041 -0.795 -0.605 162 164 161
-31.9713 42.2533 69.0678 -0.403 -0.039 -0.914 69 70 65
-29.8832 42.1902 68.9108 -0.809 0.409 -0.423 56 53 44
-29.5835 42.2147 69.0435 -0.875 -0.016 -0.483 56 53 44
-29.0708 41.4111 65.3566 -0.939 0.200 0.279 48 44 35
-21.7440 41.2867 65.2544 -0.418 -0.126 -0.900 58 55 50
-19.0819 40.9879 64.0433 -0.513 0.063 -0.856 71 71 63
-18.9494 40.9706 63.9718 -0.542 0.271 -0.795 70 70 62
-16.5974 40.8127 63.3929 -0.643 -0.063 -0.763 89 88 83
-15.8624 40.8167 63.4588 -0.660 0.022 -0.751 112 111 106
-15.8274 40.7823 63.3017 -0.350 -0.394 -0.850 107 106 101
-14.7150 40.6871 62.9333 -0.292 -0.152 -0.944 105 105 97
-13.0838 40.7534 63.3456 -0.281 -0.046 -0.959 133 135 124
-12.8563 40.5515 62.4255 -0.519 -0.055 -0.853 102 100 88
-10.3051 40.4375 62.0627 -0.209 0.048 -0.977 77 74 65
-5.5902 40.2725 61.6037 -0.414 0.363 -0.835 84 85 71
-5.7012 40.2189 61.3481 -0.050 0.056 -0.997 101 99 84
-4.9054 40.1385 61.0273 -0.371 -0.015 -0.928 92 89 74
-0.8961 40.1029 61.1219 0.284 -0.277 -0.918 80 82 68
-0.6840 40.0924 61.0871 0.077 -0.215 -0.974 69 71 57
-0.9398 40.0219 60.7440 -0.009 0.005 -1.000 69 71 57
7.1743 39.8442 60.4457 -0.533 0.297 -0.792 61 61 51
-60.3466 49.4428 99.7364 -0.871 -0.492 0.015 53 64 56
-60.2746 49.3598 99.3592 -0.906 -0.417 0.073 44 53 46
-59.0690 49.1401 98.4216 -0.742 -0.669 0.038 52 63 49
-57.2506 48.1332 93.9035 -0.530 -0.608 -0.592 108 111 96
-57.1294 48.1039 93.7759 -0.498 -0.600 -0.626 126 128 115
-56.8783 48.1729 94.1081 -0.564 0.349 -0.748 142 145 131
-55.3507 47.6513 91.8021 -0.466 0.194 -0.863 117 120 99
-55.2145 47.6342 91.7317 -0.403 0.218 -0.889 103 106 85
-55.0809 47.6154 91.6533 -0.285 -0.009 -0.959 84 90 67
-54.4607 47.5971 91.6062 -0.187 -0.504 -0.843 64 78 48
-51.8012 47.2040 89.9582 -0.918 -0.321 -0.231 98 95 86
-51.8618 47.0701 89.3398 -0.649 0.670 -0.360 100 100 90
-51.9660 46.5339 86.8698 -0.872 0.073 -0.483 96 96 84
-51.9039 46.4769 86.6113 -0.060 -0.558 -0.827 95 95 83
-50.9525 45.7630 83.3877 -0.801 -0.210 -0.560 60 63 58
-49.5209 45.7516 83.4206 -0.779 -0.463 -0.424 142 151 146
-48.3717 45.5110 82.3834 -0.066 -0.422 -0.904 150 155 151
-31.9565 42.3975 69.0552 -0.403 -0.039 -0.914 66 67 62
-29.1175 42.5203 69.7888 -0.916 0.339 -0.214 56 53 44
-29.0898 42.4293 69.3722 -0.992 0.111 -0.053 55 52 43
-21.5681 44.0952 77.4749 -0.912 -0.394 -0.112 52 49 42
-30.0288 41.8715 66.7532 -0.732 -0.601 -0.320 50 50 42
-16.5827 40.9622 63.3762 -0.653 -0.136 -0.745 94 93 88
-16.0449 40.9738 63.4615 -0.744 0.054 -0.667 95 94 89
-15.7749 40.9795 63.5039 -0.573 0.082 -0.816 99 98 93
-15.7685 40.9399 63.3222 -0.425 0.007 -0.905 106 105 100
-14.9620 40.8744 63.0691 -0.446 0.047 -0.894 121 122 116
-13.2364 40.8787 63.1920 -0.587 0.001 -0.809 127 128 120
-13.1445 40.8535 63.0816 -0.585 0.026 -0.811 95 96 88
-7.3975 40.4388 61.5183 -0.829 -0.106 -0.549 127 132 112
-5.4919 40.4414 61.6440 -0.411 0.351 -0.841 93 94 80
-4.8814 40.2965 61.0146 -0.366 0.166 -0.916 94 90 76
-0.8410 40.2689 61.1286 0.316 -0.237 -0.919 57 59 45
-0.7183 40.2469 61.0347 0.026 -0.139 -0.990 67 69 55
0.6919 40.1632 60.7343 -0.437 0.263 -0.860 66 69 50
1.0647 40.1728 60.8005 0.026 0.193 -0.981 60 63 46
-62.4142 49.5872 99.5153 -0.016 -0.866 -0.499 62 73 65
-60.7679 49.9689 101.3464 -0.868 -0.323 -0.377 56 67 60
-60.5709 49.8453 100.7934 -0.955 -0.267 -0.127 55 68 61
-60.4684 49.7883 100.5391 -0.970 -0.203 -0.137 53 66 59
-60.4043 49.6952 100.1175 -0.997 -0.071 -0.036 53 66 57
-60.3745 49.5705 99.5504 -0.997 -0.063 -0.038 53 64 56
-60.3147 49.3261 98.4390 0.001 0.427 -0.904 46 53 46
-57.7022 48.4281 94.4855 -0.556 -0.715 -0.424 139 146 133
-57.2558 48.2791 93.8304 -0.390 -0.615 -0.685 108 107 95
-57.1129 48.2665 93.7807 -0.488 -0.515 -0.704 123 120 111
-56.8368 48.3553 94.2007 -0.603 0.333 -0.725 139 136 127
-56.6817 48.3510 94.1896 -0.208 -0.274 -0.939 133 133 121
-55.0696 47.7725 91.6388 -0.451 0.552 -0.702 77 81 59
-54.5879 47.6615 91.1592 -0.056 -0.387 -0.920 71 80 56
-54.3123 47.6297 91.0291 -0.142 0.190 -0.971 68 78 50
-54.1936 47.6012 90.9054 -0.116 0.154 -0.981 66 75 52
-51.7050 47.3131 89.7271 -0.453 0.705 -0.546 96 96 86
-51.6502 47.2474 89.4304 -0.416 0.798 -0.436 94 94 84
-51.8319 46.6640 86.7595 -0.247 -0.478 -0.843 90 91 77
-40.0922 44.2321 76.3081 -0.617 -0.768 -0.171 143 154 150
-31.9487 42.5398 69.0337 -0.442 -0.047 -0.896 55 57 52
-23.2271 41.5810 65.1363 -0.398 -0.028 -0.917 85 82 75
-22.0147 41.5222 64.9343 0.002 -0.185 -0.983 62 59 54
-19.5935 41.3513 64.2870 -0.247 -0.326 -0.912 94 93 90
-19.4057 41.3444 64.2660 -0.502 -0.424 -0.754 75 74 70
-19.2868 41.3246 64.1821 -0.513 -0.395 -0.762 82 81 77
-18.3316 41.2501 63.8946 -0.657 -0.025 -0.753 93 94 86
-16.5317 41.1181 63.3907 -0.610 -0.287 -0.739 94 93 88
-16.2656 41.0828 63.2442 -0.589 -0.191 -0.786 92 91 86
-13.2520 41.0260 63.1498 -0.602 -0.442 -0.665 121 122 116
-10.8659 40.7705 62.1147 -0.397 -0.153 -0.905 105 102 97
-10.7978 40.7417 61.9869 -0.385 -0.127 -0.914 103 100 93
-8.4482 40.7878 62.3255 0.224 -0.019 -0.974 63 62 58
-5.4090 40.6084 61.6732 -0.411 0.351 -0.841 85 85 73
-0.7110 40.4067 61.0097 0.080 -0.235 -0.969 61 63 49
0.6004 40.3493 60.8194 -0.761 -0.162 -0.628 70 73 54
0.7012 40.3242 60.7105 -0.785 -0.100 -0.612 61 64 47
0.7935 40.2981 60.5964 -0.785 -0.100 -0.612 58 61 44
0.8936 40.2730 60.4873 -0.768 -0.049 -0.639 59 62 45
2.2519 40.2184 60.3125 0.309 -0.225 -0.924 59 61 48
6.3565 40.1162 60.0706 -0.226 -0.304 -0.926 63 63 51
-62.6441 49.4943 98.3327 -0.056 -0.849 -0.526 50 61 53
-62.4735 49.5115 98.4193 -0.053 -0.844 -0.533 52 63 55
-62.1889 49.6472 99.0476 -0.374 -0.788 -0.489 54 66 56
-60.7607 50.1319 101.3134 -0.845 -0.286 -0.452 52 63 55
-60.6582 50.0734 101.0536 -0.788 -0.136 -0.601 59 72 65
-60.5166 49.8965 100.2597 -0.884 0.336 -0.323 70 83 76
-60.4043 49.8497 100.0535 -0.987 0.115 -0.109 57 70 63
-60.3612 49.7371 99.5456 -0.987 0.115 -0.109 65 76 68
-60.2539 49.5358 98.6396 -0.209 0.664 -0.718 48 55 47
-56.9518 48.5410 94.2989 -0.683 0.280 -0.675 121 121 109
-55.8452 48.2860 93.1990 0.024 0.249 -0.968 113 107 93
-53.7428 47.9416 91.7444 -0.816 0.571 -0.087 72 79 60
-52.4381 47.3180 88.9851 -0.078 -0.658 -0.749 79 80 72
-51.4651 47.5077 89.8928 -0.600 -0.507 -0.619 89 86 77
-51.0774 45.8105 82.2264 -0.392 -0.428 -0.815 147 154 147
-50.6707 45.9424 82.8441 -0.424 0.003 -0.906 144 151 144
-49.6429 45.9761 83.0478 -0.606 0.488 -0.628 142 148 144
-49.5079 45.9623 82.9921 -0.602 0.474 -0.642 146 152 148
-49.1718 46.0507 83.4092 -0.068 -0.140 -0.988 147 153 149
-49.0867 46.0111 83.2340 -0.126 -0.171 -0.977 147 153 149
-48.5767 46.0203 83.3011 -0.486 0.465 -0.740 157 163 161
-48.0083 46.1381 83.8627 -0.504 0.432 -0.748 156 162 160
-31.9587 42.6775 68.9903 -0.433 -0.056 -0.900 55 59 54
-31.8874 42.6464 68.8529 -0.201 0.176 -0.964 56 57 52
-30.1061 42.7580 69.4468 -0.628 -0.637 -0.446 54 53 47
-29.1570 42.9492 70.3599 -0.922 -0.353 -0.156 52 52 44
-29.2647 42.8716 70.0031 -0.940 -0.317 -0.124 52 52 44
-29.2229 42.7328 69.3764 -0.834 0.551 0.015 46 46 38
-23.1990 41.7298 65.1344 -0.409 -0.014 -0.912 85 82 77
-21.9731 41.6745 64.9448 0.040 -0.243 -0.969 62 58 55
-21.2248 41.5645 64.4839 -0.581 -0.438 -0.686 72 69 64
-19.4415 41.4831 64.2040 -0.513 -0.395 -0.762 75 74 70
-13.2460 41.1769 63.1253 -0.717 -0.480 -0.505 114 117 110
-10.8688 40.9207 62.0833 -0.336 -0.175 -0.925 108 105 100
-10.7411 40.9012 62.0013 -0.327 -0.169 -0.930 113 110 103
-8.3972 40.9489 62.3340 0.224 -0.019 -0.974 60 59 55
-7.1237 40.7465 61.4807 -0.635 0.152 -0.758 134 137 120
-6.0043 40.7160 61.3982 -0.532 0.207 -0.821 64 66 52
-5.3260 40.7757 61.7025 -0.411 0.351 -0.841 68 69 55
-0.3435 40.5377 60.8722 0.089 0.182 -0.979 59 62 45
0.7566 40.3766 60.1975 0.006 0.413 -0.911 59 62 45
1.0986 40.3829 60.2432 -0.187 0.457 -0.869 61 64 47
1.0978 40.3449 60.0707 -0.302 0.588 -0.750 61 64 47
6.3174 40.2757 60.0171 -0.238 -0.283 -0.929 62 62 50
-62.7481 49.5321 97.7622 -0.094 -0.876 -0.473 56 67 59
-60.7187 50.1687 100.7151 -0.412 -0.392 -0.823 60 73 66
-60.6201 50.1072 100.4429 -0.880 0.391 -0.270 60 73 66
-60.5113 50.0563 100.2191 -0.828 0.452 -0.332 58 71 64
-60.4243 49.9848 99.9013 -0.842 0.438 -0.317 54 67 60
-60.3411 49.9102 99.5698 -0.950 0.247 -0.189 59 69 63
-60.2822 48.6529 93.9203 -0.707 0.669 -0.229 37 48 34
-56.9555 48.6889 94.2315 -0.437 -0.048 -0.898 124 124 112
-56.7029 48.6366 94.0075 -0.466 0.011 -0.885 127 125 113
-56.5713 48.6146 93.9147 -0.462 0.004 -0.887 128 126 114
-55.9004 48.2784 92.4333 -0.507 -0.343 -0.791 108 105 88
-55.0959 48.1652 91.9607 -0.705 0.411 -0.577 65 67 46
-54.1814 47.8000 90.3596 -0.320 -0.184 -0.929 98 107 86
-51.5783 47.4915 89.0897 -0.451 -0.881 -0.140 82 82 72
-51.0000 46.1631 83.1438 -0.661 -0.271 -0.700 148 155 148
-50.6675 46.0856 82.8103 -0.355 0.076 -0.932 144 151 144
-50.4837 46.0987 82.8776 -0.529 0.313 -0.789 143 150 142
-49.7465 46.2335 83.5165 -0.903 0.123 -0.411 142 148 144
-49.6700 46.1889 83.3197 -0.913 0.112 -0.392 142 148 144
-49.6121 46.1350 83.0798 -0.612 0.548 -0.570 142 148 144
-48.9516 46.1407 83.1350 -0.657 -0.400 -0.639 153 159 155
-31.8060 42.8081 68.9224 -0.301 -0.312 -0.901 53 54 48
-30.1803 42.9318 69.5518 -0.433 0.736 -0.521 52 51 46
-29.0718 43.1161 70.4302 -0.624 -0.581 -0.522 46 46 38
-29.0636 43.0675 70.2117 -0.683 -0.582 -0.441 46 46 38
-29.0919 42.9595 69.7248 -0.832 0.555 0.020 41 41 33
-20.8500 41.9147 65.3980 -0.266 -0.599 -0.755 63 58 52
-20.7202 41.8969 65.3235 -0.267 -0.596 -0.757 69 64 58
-17.6116 41.5076 63.7134 -0.763 -0.294 -0.576 95 97 84
-15.8010 41.4184 63.3936 -0.502 -0.073 -0.862 76 75 70
-14.7371 41.2754 62.7982 -0.423 -0.091 -0.902 125 126 120
-14.5273 41.2708 62.7869 -0.589 -0.302 -0.750 127 128 122
-13.2653 41.3234 63.0802 -0.703 -0.466 -0.538 125 128 119
-8.4041 41.1012 62.2993 0.232 -0.222 -0.947 62 61 57
-5.2398 40.9438 61.7340 -0.399 0.330 -0.855 58 59 45
-5.1428 40.8792 61.4477 0.069 0.420 -0.905 76 73 58
-69.4586 42.3496 64.7083 -0.939 0.342 -0.014 60 72 62
-60.6176 50.2643 100.3894 -0.806 0.450 -0.384 61 74 67
-60.5006 50.2213 100.2021 -0.789 0.454 -0.414 38 51 44
-60.3815 50.1808 100.0260 -0.842 0.440 -0.314 43 56 49
-60.3065 50.0976 99.6578 -0.947 0.256 -0.195 43 52 47
-60.2275 50.0194 99.3116 -0.898 0.345 -0.274 49 56 49
-58.1302 49.0476 95.0587 -0.847 0.177 -0.500 138 150 136
-56.9460 48.8471 94.2109 -0.433 -0.047 -0.900 115 115 103
-56.8082 48.8298 94.1393 -0.493 -0.062 -0.868 119 119 107
-56.6675 48.8147 94.0776 -0.445 -0.057 -0.893 126 124 112
-56.3391 48.6978 93.5693 -0.797 0.266 -0.542 130 124 110
-56.1171 48.6235 93.2462 -0.860 0.286 -0.422 129 123 109
-55.9175 48.4152 92.3247 -0.636 -0.351 -0.688 112 109 92
-54.4672 47.9719 90.4041 -0.147 -0.369 -0.918 107 117 92
-54.3162 47.9657 90.3824 -0.147 -0.369 -0.918 115 125 101
-54.1733 47.9538 90.3352 -0.367 -0.386 -0.846 112 121 100
-54.0306 47.9418 90.2874 -0.372 -0.375 -0.849 130 137 119
-53.7644 47.9047 90.1325 -0.535 -0.316 -0.783 104 111 93
-53.6862 47.8502 89.8921 -0.439 -0.313 -0.842 79 86 68
-53.5835 47.8119 89.7256 -0.473 -0.299 -0.829 64 71 55
-53.4619 47.7862 89.6157 -0.490 -0.254 -0.834 77 83 69
-51.8288 47.5886 88.7994 -0.637 -0.770 -0.036 84 85 77
-51.1397 46.3148 83.1416 -0.564 -0.359 -0.744 139 146 139
-51.0363 46.2848 83.0118 -0.578 -0.338 -0.743 143 150 143
-29.1099 43.2005 70.1247 0.041 0.025 -0.999 40 40 32
-23.9161 42.1310 65.5598 0.262 -0.112 -0.958 42 39 32
-22.9467 42.0249 65.1251 -0.559 0.012 -0.829 58 55 48
-19.8998 41.8567 64.4966 -0.502 -0.422 -0.755 89 88 84
-17.3774 41.6133 63.5112 -0.469 -0.251 -0.847 93 95 81
-14.3366 41.4110 62.7302 -0.352 -0.122 -0.928 148 149 141
-13.5607 41.3400 62.4445 -0.754 -0.106 -0.648 114 114 104
-12.8689 41.3763 62.6346 -0.477 -0.330 -0.815 94 92 80
-8.4345 41.2497 62.2471 0.242 -0.309 -0.920 68 67 63
-7.2495 41.0338 61.3312 -0.516 -0.106 -0.850 134 136 122
-4.9029 41.1098 61.7646 -0.363 0.439 -0.822 60 58 45
5.2074 40.5803 59.8067 -0.601 0.147 -0.785 85 83 68
-60.5815 50.4550 100.4861 -0.804 0.452 -0.386 60 73 66
-60.4562 50.4199 100.3352 -0.789 0.454 -0.414 30 43 36
-60.2731 50.2843 99.7408 -0.947 0.256 -0.195 31 41 35
-58.5471 49.3825 95.8055 -0.787 0.411 -0.460 66 89 60
-58.3221 49.3037 95.4642 -0.699 0.408 -0.587 145 163 148
-58.2117 49.2629 95.2871 -0.732 0.371 -0.572 137 151 139
-58.0813 49.2392 95.1866 -0.368 0.311 -0.877 137 147 135
-56.6815 48.9545 93.9748 -0.336 0.010 -0.942 124 122 110
-56.4120 48.9154 93.8107 -0.645 0.251 -0.722 121 117 105
-56.2961 48.8813 93.6638 -0.727 0.222 -0.649 123 117 103
-56.0074 48.7358 93.0294 -0.992 -0.094 -0.088 113 107 93
-53.2544 47.9647 89.7095 -0.826 -0.338 -0.452 75 78 67
-53.1509 47.9270 89.5464 -0.864 -0.298 -0.406 75 78 69
-51.5895 47.7837 88.9664 -0.428 -0.408 -0.806 89 89 79
-19.4413 41.9192 64.1160 -0.577 -0.424 -0.698 128 127 123
-13.5494 41.4904 62.4245 -0.771 0.038 -0.635 100 102 91
-11.3526 41.4139 62.1633 -0.563 0.339 -0.754 79 76 69
-8.3558 41.4155 62.2763 0.152 -0.520 -0.841 71 67 64
-4.8283 41.2770 61.7876 -0.051 -0.028 -0.998 62 60 48
-4.5909 41.2727 61.7767 0.107 -0.279 -0.954 65 61 50
-2.0438 41.1288 61.2295 -0.447 -0.165 -0.879 66 74 58
5.2351 40.7466 59.7933 -0.597 0.141 -0.790 85 83 68
-60.4305 50.6003 100.3848 -0.516 -0.418 -0.748 49 60 54
-60.2903 50.5799 100.2995 -0.516 -0.418 -0.748 29 40 34
-60.1169 50.4347 99.6656 -0.941 -0.219 -0.259 55 67 55
-58.4090 49.5159 95.6753 -0.776 0.373 -0.509 140 157 136
-58.3069 49.4674 95.4650 -0.790 0.377 -0.483 140 155 137
-58.1973 49.4257 95.2852 -0.782 0.342 -0.521 134 142 128
-58.1019 49.3723 95.0530 -0.785 0.330 -0.525 126 132 120
-57.9782 49.3431 94.9282 -0.846 0.330 -0.418 102 107 95
-57.8758 49.2963 94.7254 -0.671 0.275 -0.688 70 74 61
-57.5968 49.2649 94.5960 -0.581 -0.030 -0.813 72 76 62
-57.4695 49.2391 94.4862 -0.555 -0.055 -0.830 76 78 65
-57.3514 49.2059 94.3440 -0.542 -0.201 -0.816 97 99 86
-57.2134 49.1890 94.2737 -0.542 -0.198 -0.817 123 123 111
-57.0930 49.1579 94.1407 -0.414 -0.303 -0.858 131 132 118
-56.9548 49.1412 94.0713 -0.415 -0.314 -0.854 128 129 115
-55.9135 48.7164 92.2343 -0.652 -0.461 -0.603 117 114 97
-55.2087 48.6481 91.9555 -0.381 0.016 -0.924 117 116 97
-55.0947 48.6148 91.8124 -0.503 0.077 -0.861 115 117 97
-54.3178 48.2610 90.2795 -0.126 -0.577 -0.807 82 90 68
-53.1574 48.0712 89.4799 -0.854 -0.304 -0.423 68 71 60
-43.5440 45.5454 78.6618 -0.750 -0.554 -0.360 142 148 144
-23.1917 42.3488 65.2221 -0.567 -0.381 -0.731 85 82 75
-22.9284 42.3155 65.0839 -0.351 -0.204 -0.914 59 56 49
-21.1296 42.1602 64.4559 -0.660 0.030 -0.751 64 61 56
-18.0032 42.0005 63.8492 -0.543 -0.120 -0.831 100 101 93
-17.7421 41.9648 63.7000 -0.490 -0.318 -0.812 92 94 83
-17.6305 41.9432 63.6088 -0.540 -0.335 -0.772 95 97 84
-13.5550 41.6379 62.3908 -0.738 0.034 -0.674 85 87 76
-12.9983 41.6942 62.6555 -0.536 -0.216 -0.816 74 76 65
-8.8002 41.5374 62.0950 0.224 -0.050 -0.973 82 79 74
-8.5435 41.5383 62.1068 -0.367 0.213 -0.905 65 62 57
-7.0440 41.3720 61.4210 -0.533 -0.055 -0.844 138 140 127
-4.0290 41.2728 61.0774 -0.297 -0.073 -0.952 82 84 73
-2.0438 41.2867 61.1997 -0.447 -0.165 -0.879 63 74 57
-1.9537 41.2600 61.0847 -0.850 0.097 -0.518 60 69 52
-1.9168 41.2255 60.9343 -0.783 0.089 -0.616 63 72 53
0.0492 41.2687 61.1850 0.163 0.426 -0.890 64 69 49
5.1968 40.9433 59.9114 -0.587 0.205 -0.783 79 78 60
-62.0455 52.5703 108.2099 -0.980 0.190 0.053 101 105 104
-60.4475 50.7378 100.2448 -0.578 -0.733 -0.358 48 59 53
-60.0804 50.6247 99.7605 -0.625 -0.710 -0.323 48 62 49
-58.5107 49.8558 96.4419 -0.983 -0.134 -0.123 92 102 86
-58.4771 49.7456 95.9612 -0.901 -0.168 -0.401 154 165 147
-58.3747 49.6966 95.7498 -0.897 -0.017 -0.441 158 171 151
-58.2718 49.6484 95.5421 -0.897 -0.017 -0.441 151 162 143
-58.1674 49.6020 95.3418 -0.885 -0.017 -0.466 138 144 128
-58.0508 49.5662 95.1886 -0.619 -0.110 -0.778 113 115 102
-57.9308 49.5337 95.0495 -0.803 0.143 -0.578 84 85 75
-57.8364 49.4796 94.8158 -0.788 0.176 -0.591 60 60 50
-57.5977 49.4144 94.5372 -0.591 0.234 -0.772 83 85 72
-57.4694 49.3895 94.4315 -0.591 0.234 -0.772 116 118 105
-57.3572 49.3514 94.2680 -0.520 -0.015 -0.854 137 138 124
-57.2083 49.3435 94.2376 -0.532 -0.018 -0.847 138 139 125
-55.6800 49.1632 93.4898 -0.119 0.264 -0.957 117 111 97
-55.2547 48.7639 91.7564 -0.664 -0.103 -0.741 114 113 97
-55.1557 48.7198 91.5661 -0.676 -0.100 -0.730 111 112 96
-54.5258 48.3752 90.0768 -0.411 -0.553 -0.725 102 110 87
-54.3419 48.3924 90.1568 -0.300 -0.146 -0.943 97 104 84
-54.2348 48.3563 90.0020 -0.264 -0.631 -0.730 143 150 134
-52.5045 48.1200 89.0150 -0.262 -0.612 -0.746 68 70 57
-52.1893 48.1144 88.9989 0.178 -0.262 -0.949 73 73 65
-22.9098 42.4629 65.0726 -0.321 -0.210 -0.924 59 56 51
-21.1102 42.3084 64.4448 -0.660 0.030 -0.751 62 59 54
-17.8006 42.0997 63.6194 -0.488 0.013 -0.873 105 105 95
-17.7313 42.0700 63.4913 -0.362 0.045 -0.931 103 103 93
-15.7640 41.9734 63.1211 -0.602 -0.395 -0.694 108 109 101
-15.5888 41.9636 63.0826 -0.624 0.084 -0.777 115 116 108
-15.4550 41.9460 63.0092 -0.603 0.092 -0.792 132 132 124
-11.2484 41.7738 62.3670 -0.407 -0.341 -0.848 92 92 82
-8.7150 41.7041 62.1292 -0.421 0.377 -0.825 80 77 72
-6.8106 41.5624 61.5600 -0.769 0.047 -0.637 138 140 127
-4.1894 41.5251 61.4656 -0.806 -0.302 -0.509 83 79 70
-2.0039 41.4505 61.1968 -0.437 -0.182 -0.881 61 72 55
-1.8438 41.4339 61.1287 -0.698 -0.148 -0.700 62 71 54
-1.7673 41.3651 60.8298 -0.807 0.150 -0.572 75 82 64
-1.1154 41.4203 61.0884 0.335 -0.347 -0.876 69 77 56
0.7058 41.3623 60.8825 -0.840 0.219 -0.497 56 61 41
5.2615 41.1147 59.9202 -0.241 -0.002 -0.971 83 81 66
-60.3543 50.8248 99.8901 -0.744 -0.612 -0.270 29 40 34
-60.2034 50.8158 99.8544 -0.525 -0.727 -0.443 34 47 38
-58.9146 50.5123 98.5653 -0.587 -0.578 -0.567 54 80 46
-58.9275 50.2052 97.2326 -0.894 -0.314 -0.320 58 86 49
-58.8126 50.1650 97.0605 -0.905 -0.274 -0.326 60 84 53
-58.4636 49.9086 95.9558 -0.882 0.013 -0.470 148 158 141
-58.3396 49.8784 95.8275 -0.880 0.090 -0.467 139 150 133
-58.2449 49.8227 95.5876 -0.929 0.019 -0.369 133 142 125
-58.1266 49.7880 95.4396 -0.769 -0.046 -0.638 120 125 110
-58.0328 49.7323 95.2001 -0.364 -0.498 -0.787 88 90 76
-57.8822 49.7257 95.1748 -0.797 -0.055 -0.601 70 68 56
-57.7964 49.6639 94.9085 -0.804 0.182 -0.566 69 69 57
-57.5714 49.5866 94.5781 -0.683 0.237 -0.691 104 105 91
-57.4452 49.5598 94.4645 -0.591 0.234 -0.772 126 127 113
-57.3323 49.5221 94.3033 -0.171 0.382 -0.908 137 138 124
-57.0360 49.5049 94.2349 -0.046 0.287 -0.957 140 138 123
-56.2325 49.2579 93.1808 -0.932 0.356 0.060 109 103 87
-54.3244 48.5525 90.1616 -0.353 -0.209 -0.912 132 136 119
-54.2410 48.4998 89.9345 -0.222 -0.637 -0.739 169 173 158
-54.0950 48.4907 89.8984 -0.222 -0.637 -0.739 147 154 138
-54.0079 48.4410 89.6848 -0.405 -0.749 -0.524 119 126 110
-52.7670 48.4126 89.5885 -0.167 -0.456 -0.874 78 79 64
-52.5718 48.3292 89.2308 -0.001 0.091 -0.996 82 84 69
-52.4573 48.2987 89.1011 -0.200 -0.072 -0.977 82 84 71
-52.2873 48.3040 89.1276 -0.110 -0.139 -0.984 81 83 72
-52.1324 48.2994 89.1109 -0.110 -0.139 -0.984 68 69 63
-52.0436 48.2526 88.9100 -0.604 -0.436 -0.667 71 72 67
-22.9119 42.6058 65.0409 -0.321 -0.210 -0.924 56 55 51
-22.0841 42.5141 64.6612 0.169 -0.124 -0.978 44 43 39
-21.7738 42.5359 64.7624 -0.062 -0.248 -0.967 55 54 50
-17.7155 42.2626 63.6648 -0.590 0.085 -0.803 116 116 108
-17.6489 42.2322 63.5342 -0.524 -0.136 -0.841 109 109 101
-17.3391 42.2060 63.4275 -0.481 0.023 -0.876 98 97 92
-15.4497 42.0945 62.9844 -0.515 -0.010 -0.857 138 138 130
-15.3537 42.0698 62.8794 -0.373 -0.019 -0.928 123 123 115
-8.7611 41.8492 62.0653 -0.173 -0.272 -0.947 80 77 70
-6.6136 41.7479 61.6725 -0.784 0.044 -0.619 138 140 127
-4.5855 41.7012 61.5138 -0.075 -0.120 -0.990 66 61 55
-4.2669 41.6693 61.3821 -0.424 0.091 -0.901 80 76 67
-1.8687 41.6693 61.4343 0.279 -0.492 -0.824 82 91 72
-1.9954 41.6096 61.1728 -0.405 -0.134 -0.904 64 73 56
0.7252 41.5251 60.8651 -0.832 0.227 -0.507 53 58 38
-59.3204 50.7376 98.8048 -0.543 -0.526 -0.654 61 81 59
-59.2004 50.6994 98.6420 -0.555 -0.551 -0.624 65 90 61
-58.9306 50.6514 98.4400 -0.587 -0.578 -0.567 55 79 51
-58.5100 50.1598 96.3290 -0.956 0.058 -0.289 156 163 146
-58.4319 50.0879 96.0206 -0.921 0.145 -0.361 127 136 119
-58.1101 49.9531 95.4453 -0.778 -0.014 -0.628 94 99 85
-58.0283 49.8868 95.1608 -0.352 -0.472 -0.808 65 66 54
-57.8739 49.8835 95.1494 -0.797 -0.055 -0.601 49 50 36
-57.5625 49.7444 94.5554 -0.734 0.400 -0.549 128 129 115
-55.8541 49.2087 92.2765 -0.137 0.171 -0.976 121 118 103
-55.8427 49.0965 91.7935 -0.133 -0.076 -0.988 121 117 105
-54.1345 48.6109 89.7305 -0.206 -0.534 -0.820 133 138 124
-52.4451 48.4551 89.0885 -0.234 -0.119 -0.965 82 84 70
-22.9140 42.7486 65.0092 -0.321 -0.210 -0.924 52 51 47
-21.7235 42.8283 65.3733 0.228 0.324 -0.918 54 53 49
-19.6053 42.5107 64.0412 -0.751 -0.053 -0.659 113 115 110
-19.4479 42.4988 63.9926 -0.606 0.069 -0.792 116 118 113
-19.3447 42.4756 63.8948 -0.610 0.119 -0.784 121 123 118
-17.7542 42.4012 63.6015 -0.506 -0.064 -0.860 117 116 111
-17.6758 42.3730 63.4814 -0.472 -0.056 -0.880 110 109 104
-15.4306 42.2456 62.9712 -0.515 -0.010 -0.857 127 127 117
-13.9706 42.2623 63.0685 -0.311 0.138 -0.940 105 102 93
-6.5622 41.9104 61.6800 -0.706 0.082 -0.704 130 132 119
-4.4306 41.8405 61.4153 -0.029 -0.070 -0.997 77 72 66
-60.1304 51.0367 99.3546 -0.676 -0.287 -0.678 35 49 37
-59.8183 51.0298 99.3291 -0.880 -0.306 -0.363 48 65 46
-58.4882 50.3309 96.3555 -0.942 0.125 -0.312 139 148 131
-58.0019 50.0602 95.2033 -0.645 0.119 -0.755 50 52 39
-57.8872 50.0226 95.0437 -0.807 -0.011 -0.591 61 61 49
-57.7764 49.9818 94.8708 -0.782 0.028 -0.623 103 101 89
-57.4232 49.8788 94.4343 -0.692 0.315 -0.650 142 143 129
-56.1106 49.7810 94.0329 -0.978 0.197 0.063 117 111 95
-54.0987 48.7835 89.7901 -0.583 0.317 -0.748 132 136 119
-53.9574 48.7713 89.7396 -0.592 0.365 -0.719 118 125 109
-52.6815 48.7671 89.7383 -0.086 0.458 -0.885 84 85 68
-19.3781 42.5692 63.6448 -0.665 0.089 -0.741 119 120 115
-19.3560 42.5295 63.4749 -0.578 -0.189 -0.794 110 111 106
-17.7291 42.5524 63.5941 -0.515 -0.016 -0.857 117 116 111
-17.2950 42.5075 63.4073 -0.414 -0.139 -0.900 97 96 91
-13.9261 42.4198 63.0756 -0.235 -0.041 -0.971 100 100 90
-12.9664 42.2974 62.5639 -0.570 -0.001 -0.822 91 92 82
-6.6334 42.0529 61.5993 -0.739 0.013 -0.673 130 132 119
-4.8962 42.0458 61.5914 -0.282 -0.179 -0.943 77 72 63
-4.7071 42.0348 61.5467 -0.344 -0.341 -0.875 75 72 63
-4.6540 42.0019 61.4067 0.059 -0.160 -0.985 81 78 69
-1.6382 41.9392 61.1771 -0.470 0.462 -0.752 92 102 83
-0.9350 41.8825 60.9434 0.365 -0.489 -0.792 79 82 65
0.7261 41.8453 60.8058 -0.763 0.430 -0.483 54 58 41
-60.3723 51.5999 101.0308 -0.495 0.761 -0.419 40 51 45
-58.5742 50.5486 96.5782 -0.955 0.119 -0.272 144 154 135
-58.4782 50.4916 96.3364 -0.948 0.116 -0.295 95 104 87
-57.9840 50.2265 95.2142 -0.645 0.119 -0.755 60 62 49
-57.8551 50.2011 95.1072 -0.680 0.109 -0.725 79 79 67
-57.7450 50.1594 94.9312 -0.483 0.330 -0.811 118 116 104
-57.1896 49.9595 94.0864 0.027 0.182 -0.983 122 120 105
-55.7395 49.8456 93.6145 -0.757 -0.533 -0.377 125 119 103
-55.3644 49.6397 92.7425 -0.324 -0.139 -0.936 119 117 105
-54.2621 49.0404 90.2049 -0.338 0.288 -0.896 134 138 121
-51.0319 48.3178 87.1618 0.075 0.765 -0.640 150 157 150
-17.2538 42.6621 63.4138 -0.539 0.053 -0.841 114 113 108
-13.8906 42.5757 63.0754 -0.122 -0.121 -0.985 105 105 95
-13.6664 42.5748 63.0734 -0.179 -0.142 -0.973 104 104 92
-13.5417 42.5550 62.9900 -0.523 0.361 -0.772 74 74 62
-13.4244 42.5337 62.9006 -0.523 0.361 -0.772 73 71 59
-13.2865 42.5163 62.8279 -0.528 0.385 -0.757 75 73 60
-7.2230 42.1499 61.3223 -0.241 0.252 -0.937 133 137 123
-6.7666 42.1846 61.4740 -0.803 -0.102 -0.587 130 132 119
-5.2066 42.1925 61.5206 -0.319 0.199 -0.927 65 63 53
-4.8603 42.2074 61.5870 -0.441 -0.344 -0.829 72 66 58
-4.7360 42.1859 61.4968 -0.425 -0.343 -0.838 79 76 67
-1.6915 42.0892 61.1117 -0.388 -0.129 -0.913 96 110 84
0.0018 42.0605 61.0042 0.209 -0.531 -0.821 57 64 47
2.3575 41.8789 60.2525 -0.421 -0.520 -0.743 73 76 57
5.8938 41.7738 59.8360 -0.082 0.210 -0.974 67 70 51
-62.2396 50.2594 94.6431 -0.059 0.260 -0.964 34 42 30
-60.7812 51.4915 99.8501 -0.567 -0.209 -0.797 35 45 44
-60.5602 51.5573 100.1291 -0.807 -0.134 -0.575 36 47 43
-60.3696 51.5901 100.2680 0.118 -0.314 -0.942 43 54 49
-58.5663 50.7076 96.5507 -0.953 0.108 -0.284 110 119 100
-58.4638 50.6563 96.3347 -0.941 0.109 -0.321 83 92 74
-57.5577 50.3355 94.9843 -0.692 0.329 -0.642 128 128 116
-57.1653 50.1300 94.1187 0.027 0.182 -0.983 123 121 106
-55.7263 50.0071 93.6062 -0.717 -0.605 -0.345 105 99 83
-54.2194 49.2191 90.2861 -0.676 0.026 -0.737 136 141 121
-54.0979 49.1923 90.1736 -0.676 0.026 -0.737 147 151 134
-54.0527 49.1113 89.8318 -0.783 -0.145 -0.605 141 148 132
-53.9470 49.0738 89.6739 -0.775 -0.151 -0.614 131 138 122
-53.8303 49.0442 89.5498 -0.762 -0.139 -0.632 124 133 116
-41.5678 45.6869 75.4305 -0.842 -0.338 -0.421 149 155 153
-41.4932 45.6497 75.2737 -0.852 -0.333 -0.404 149 155 153
-41.4018 45.6193 75.1458 -0.961 0.023 -0.274 149 155 153
-21.6081 43.3365 65.5945 0.189 0.288 -0.939 39 38 36
-20.6012 43.0952 64.5801 -0.335 -0.037 -0.941 82 79 74
-20.0704 43.0275 64.2969 -0.374 -0.086 -0.923 78 77 72
-13.6226 42.7327 63.0797 -0.052 0.027 -0.998 96 96 86
-13.4528 42.7214 63.0329 -0.457 0.413 -0.788 77 75 63
-13.4119 42.6855 62.8814 -0.808 -0.248 -0.534 82 80 68
-9.7115 42.5045 62.1333 -0.729 -0.366 -0.578 85 84 78
-5.1817 42.3519 61.5086 -0.301 0.203 -0.932 60 58 49
-4.8645 42.3624 61.5544 -0.288 -0.177 -0.941 74 68 60
-4.7428 42.3405 61.4624 -0.392 -0.177 -0.903 85 81 72
-1.9807 42.1192 60.5399 -0.531 -0.053 -0.846 96 110 86
-1.9535 42.0824 60.3845 -0.172 0.016 -0.985 98 109 90
-1.7523 42.0727 60.3444 -0.133 -0.029 -0.991 96 104 91
-1.5019 42.0705 60.3365 -0.162 -0.013 -0.987 87 95 82
0.4792 42.2519 61.1105 0.293 -0.595 -0.748 63 65 52
-62.2540 50.3879 94.5162 -0.131 0.204 -0.970 33 39 27
-60.4867 51.7892 100.3915 0.215 -0.144 -0.966 32 42 41
-60.3189 51.7978 100.4276 0.215 -0.144 -0.966 43 53 51
-60.1304 51.8276 100.5527 0.231 -0.187 -0.955 36 46 46
-58.5187 50.9034 96.6781 -0.970 -0.069 -0.233 91 99 81
-58.0306 50.6269 95.5187 -0.571 0.366 -0.735 97 101 86
-57.7756 50.5726 95.2908 -0.521 0.250 -0.816 100 100 88
-57.6534 50.5409 95.1582 -0.485 0.170 -0.858 126 124 112
-57.5031 50.5339 95.1290 -0.615 0.019 -0.788 123 123 111
-57.3748 50.5077 95.0190 -0.692 0.070 -0.719 123 123 111
-57.2495 50.4790 94.8986 -0.676 0.038 -0.736 121 122 108
-57.0817 50.4869 94.9316 -0.432 0.128 -0.893 125 123 110
-54.2702 49.3303 90.0827 -0.183 -0.446 -0.876 145 149 132
-54.0990 49.3396 90.1217 -0.534 -0.119 -0.837 147 151 135
-21.8805 43.5622 65.9010 -0.536 0.697 -0.476 39 37 38
-21.3119 43.5025 65.6509 0.169 0.272 -0.947 39 38 36
-19.5584 43.0551 63.7753 -0.721 -0.173 -0.671 78 80 75
-19.1939 43.0427 63.7230 -0.332 -0.231 -0.915 108 109 104
-15.5790 42.9835 63.4752 -0.239 0.020 -0.971 90 91 83
-14.5133 42.8846 63.0605 0.209 0.144 -0.967 118 118 110
-13.7732 42.8970 63.1126 0.046 -0.044 -0.998 101 101 91
-13.4902 42.8637 62.9731 -0.736 0.123 -0.666 80 78 66
-9.7306 42.6529 62.0894 -0.763 -0.330 -0.555 81 81 73
-7.2208 42.5410 61.6204 -0.233 -0.328 -0.916 131 135 121
-7.0959 42.5201 61.5329 -0.186 -0.239 -0.953 129 133 119
-5.1028 42.5205 61.5346 -0.306 0.116 -0.945 76 75 65
-4.8009 42.4865 61.3921 -0.076 -0.370 -0.926 83 79 70
-3.9323 42.4620 61.2892 -0.182 -0.200 -0.963 109 111 98
-1.9151 42.2452 60.3805 -0.172 0.016 -0.985 87 99 80
-1.4316 42.2387 60.3531 -0.296 0.124 -0.947 71 79 66
3.7426 42.2410 60.3631 0.084 -0.176 -0.981 77 80 62
-60.4317 52.0023 100.5715 -0.702 0.098 -0.705 26 36 37
-60.2944 51.9784 100.4715 0.192 -0.172 -0.966 35 45 44
-59.1079 51.2474 97.4223 -0.358 0.212 -0.909 208 226 216
-58.5823 51.1443 96.9911 -0.925 0.028 -0.380 142 152 132
-58.4880 51.0841 96.7398 -0.931 0.040 -0.363 84 89 74
-58.3312 51.0824 96.7321 -0.727 -0.200 -0.656 52 58 40
-57.9730 50.8299 95.6790 -0.654 0.300 -0.694 120 124 109
-57.7431 50.7525 95.3556 -0.457 0.202 -0.866 119 119 107
-57.4771 50.7079 95.1688 -0.655 -0.002 -0.755 122 122 110
-57.3489 50.6813 95.0578 -0.655 -0.002 -0.755 109 109 97
-56.8804 50.5385 94.4610 0.144 0.228 -0.963 132 130 115
-56.7318 50.5300 94.4251 0.228 -0.016 -0.974 121 119 104
-16.5135 43.0749 63.2131 -0.428 0.149 -0.892 117 118 110
-15.4099 43.1662 63.5889 -0.386 -0.068 -0.920 98 99 93
-15.2014 43.0736 63.2026 -0.244 0.123 -0.962 121 122 116
-9.7578 42.7997 62.0395 -0.763 -0.330 -0.555 87 84 75
-7.0828 42.6759 61.5130 -0.201 -0.389 -0.899 129 133 118
-5.0315 42.6881 61.5552 -0.314 0.131 -0.940 88 87 75
-4.8348 42.6789 61.5160 -0.289 -0.173 -0.942 84 78 70
-4.8446 42.6347 61.3320 -0.101 -0.362 -0.927 76 73 64
-3.9845 42.5251 60.8721 -0.799 0.122 -0.589 72 82 57
-2.8276 42.4216 60.4366 0.033 -0.114 -0.993 89 109 74
-1.9120 42.4025 60.3530 -0.173 0.025 -0.985 78 88 70
-1.4653 42.3906 60.3015 -0.398 -0.165 -0.902 63 70 55
-0.6033 42.4855 60.6934 -0.159 -0.214 -0.964 68 77 61
-0.0391 42.4908 60.7132 0.299 -0.570 -0.765 69 71 58
5.5484 42.3793 60.2258 -0.418 -0.667 -0.617 90 92 77
6.7656 42.3484 60.0922 0.101 0.137 -0.985 64 66 45
-60.2763 52.1523 100.4867 -0.674 0.053 -0.737 67 77 76
-58.4499 51.2719 96.8298 -0.787 -0.212 -0.580 111 114 98
-58.3297 51.2359 96.6799 -0.787 -0.212 -0.580 87 91 74
-57.9447 51.0068 95.7288 -0.654 0.300 -0.694 96 100 85
-57.7163 50.9275 95.3992 -0.562 0.310 -0.767 118 118 106
-57.0501 50.8166 94.9349 -0.655 0.435 -0.618 125 123 110
-56.7397 50.4065 93.2358 -0.815 0.461 -0.350 119 117 102
-56.1451 50.3769 93.1084 -0.666 0.138 -0.733 124 122 109
-56.0469 50.3279 92.9050 -0.672 0.069 -0.738 119 115 103
-53.7716 49.5287 89.5801 -0.072 0.146 -0.987 118 125 115
-46.1571 46.5923 77.3707 -0.017 0.020 -1.000 148 155 148
-41.2678 46.5818 77.2869 -0.038 0.533 -0.845 153 159 157
-41.0154 46.5456 77.1351 -0.904 0.423 0.060 162 168 166
-30.0277 44.5254 68.6879 -0.191 -0.744 -0.641 49 46 41
-16.9668 43.3539 63.7343 0.150 0.132 -0.980 109 108 104
-15.3484 43.3274 63.6114 -0.647 -0.060 -0.760 111 112 106
-14.8467 43.2040 63.0969 -0.211 -0.159 -0.965 122 121 116
-14.6010 43.2088 63.1148 -0.116 -0.203 -0.972 120 119 114
-14.1051 43.2190 63.1527 0.209 0.100 -0.973 110 109 104
-13.8377 43.2277 63.1865 0.149 0.064 -0.987 103 100 93
-8.3305 42.8651 61.6416 -0.190 0.054 -0.980 88 91 84
-7.7892 42.8760 61.6822 -0.193 -0.184 -0.964 78 82 70
-7.5958 42.8674 61.6451 -0.193 -0.184 -0.964 105 109 94
-7.4022 42.8588 61.6079 -0.193 -0.184 -0.964 132 136 120
-7.0901 42.8281 61.4783 -0.081 -0.095 -0.992 129 133 118
-4.9025 42.9089 61.7945 0.298 0.022 -0.954 89 94 80
2.3626 42.6901 60.8298 -0.742 -0.134 -0.657 67 70 53
3.8192 42.5771 60.3502 -0.000 -0.001 -1.000 76 79 60
-60.3596 52.3894 100.7622 -0.941 -0.119 -0.317 17 27 28
-60.2098 52.3785 100.7154 -0.878 -0.300 -0.372 81 91 90
-58.4440 51.4295 96.7944 -0.783 0.151 -0.604 115 120 103
-58.3368 51.3812 96.5944 -0.778 -0.074 -0.624 102 105 88
-58.2132 51.3486 96.4590 -0.868 0.096 -0.488 109 113 96
-57.7895 51.1555 95.6601 -0.901 0.003 -0.434 93 95 81
-57.6886 51.1036 95.4456 -0.553 0.313 -0.772 116 116 104
-56.7153 50.5763 93.2671 -0.818 0.465 -0.338 119 117 102
-56.1925 50.7509 93.9779 -0.617 0.145 -0.773 120 121 107
-56.0919 50.5707 93.2361 -0.498 0.089 -0.863 123 121 109
-56.0294 50.4919 92.9116 -0.668 -0.054 -0.742 121 119 107
-45.5260 47.1145 78.9039 -0.724 0.562 -0.401 147 156 151
-41.1652 46.7685 77.4288 -0.046 0.533 -0.845 152 158 156
-41.1378 46.7085 77.1817 -0.193 0.643 -0.741 156 162 160
-30.3093 44.5314 68.1024 -0.477 -0.523 -0.706 50 47 42
-21.3023 43.8454 65.1729 -0.694 0.062 -0.718 48 49 41
-14.8052 43.3608 63.1020 -0.072 -0.233 -0.970 122 121 116
-14.5905 43.3596 63.0942 -0.127 -0.305 -0.944 121 120 115
-14.2735 43.3790 63.1704 0.249 -0.004 -0.968 108 107 102
-13.3777 43.2448 62.6077 -0.316 0.073 -0.946 88 81 73
-8.7361 43.0739 61.8487 -0.080 0.276 -0.958 64 66 63
-7.7895 43.0291 61.6526 -0.232 0.095 -0.968 76 79 67
-7.6067 43.0187 61.6078 -0.232 0.095 -0.968 103 107 92
-4.9423 43.0147 61.5587 -0.362 0.185 -0.913 74 73 61
4.8714 42.7733 60.4463 -0.380 0.582 -0.719 90 92 81
-60.3587 52.5452 100.7012 -0.941 -0.119 -0.317 18 30 30
-60.2371 52.5038 100.5305 -0.942 -0.178 -0.283 33 43 43
-60.1348 52.4421 100.2768 -0.733 -0.493 -0.469 143 153 154
-58.5355 51.6455 96.9987 -0.942 0.028 -0.334 124 135 112
-58.4160 51.6083 96.8449 -0.778 0.152 -0.610 118 123 106
-58.3288 51.5406 96.5673 -0.787 -0.212 -0.580 105 108 90
-58.2251 51.4892 96.3556 -0.902 -0.131 -0.411 111 114 97
-57.7796 51.3158 95.6407 -0.901 0.003 -0.434 97 99 85
-57.6890 51.2542 95.3877 -0.251 0.142 -0.957 116 116 104
-57.4186 51.2131 95.2156 -0.471 0.138 -0.871 126 126 114
-57.2719 51.2029 95.1713 -0.497 0.172 -0.850 106 106 94
-56.1094 50.9719 94.2095 -0.502 -0.822 -0.267 119 119 107
-56.0929 50.7197 93.1799 -0.538 0.009 -0.843 121 121 111
-55.9594 50.6994 93.0946 -0.538 0.009 -0.843 121 121 111
-55.6067 50.8595 93.7426 -0.224 0.003 -0.975 124 122 110
-54.3338 49.9908 90.1755 -0.358 0.301 -0.884 138 143 137
-54.2553 49.9317 89.9328 -0.303 0.213 -0.929 137 144 137
-54.0539 49.9643 90.0630 -0.111 0.169 -0.979 128 135 128
-53.1254 50.4143 91.8849 -0.320 0.884 -0.340 125 134 129
-53.6003 49.6060 88.5927 -0.798 -0.120 -0.591 117 126 121
-53.5693 49.5160 88.2247 -0.726 -0.229 -0.648 122 131 126
-41.1177 46.9324 77.4751 -0.035 0.541 -0.840 151 157 155
-41.0398 46.8934 77.3149 -0.284 0.615 -0.735 155 161 159
-40.9760 46.8487 77.1312 -0.937 0.328 -0.122 163 169 167
-23.2184 43.8677 64.6730 -0.294 -0.040 -0.955 36 35 30
-20.2852 43.7973 64.3381 -0.390 -0.098 -0.916 97 99 88
-18.4091 43.6575 63.7367 -0.581 -0.319 -0.749 95 96 91
-11.8512 43.2502 61.9675 -0.475 -0.258 -0.842 95 90 84
-8.2937 43.2206 61.7888 -0.840 0.366 -0.400 74 76 71
-6.9021 43.2565 61.9125 0.378 -0.020 -0.925 128 132 115
-4.8493 43.1868 61.5944 -0.302 0.172 -0.938 67 66 54
-4.7487 43.0743 61.1338 -0.508 -0.298 -0.808 73 69 59
-3.2400 43.0333 60.9416 -0.669 0.136 -0.730 74 84 59
-1.1265 42.8330 60.0896 -0.719 0.362 -0.593 69 77 64
6.9345 42.8679 60.1012 -0.116 0.342 -0.932 73 75 54
6.5356 42.7665 59.6937 0.050 0.331 -0.942 66 67 51
-60.1521 52.5778 100.1373 -0.745 -0.475 -0.468 62 72 73
-58.5361 51.7970 96.9380 -0.955 0.038 -0.295 112 124 101
-58.3912 51.7842 96.8831 -0.795 0.157 -0.586 104 110 92
-58.2799 51.7392 96.6983 -0.617 0.155 -0.772 109 113 96
-58.1379 51.7237 96.6325 -0.614 0.151 -0.775 122 126 109
-58.1105 51.5999 96.1300 -0.894 -0.164 -0.418 111 115 98
-57.6748 51.4183 95.3845 -0.200 0.007 -0.980 125 125 113
-57.3971 51.3837 95.2386 -0.420 0.082 -0.904 134 134 122
-57.2535 51.3706 95.1826 -0.430 0.095 -0.898 105 105 93
-57.1180 51.3503 95.0975 -0.417 0.104 -0.903 121 121 109
-56.6076 51.2412 94.6447 -0.532 -0.578 -0.619 121 119 104
-56.6246 51.0888 94.0270 -0.960 0.186 -0.209 99 98 80
-56.4528 51.1007 94.0719 -0.540 -0.732 -0.416 116 115 97
-56.2983 51.0974 94.0554 -0.519 -0.736 -0.435 107 105 90
-55.6181 51.0013 93.6518 -0.335 0.206 -0.919 128 126 114
-53.8469 49.8005 88.7463 -0.539 0.169 -0.826 123 133 125
-53.7518 49.7559 88.5631 -0.467 0.182 -0.865 123 133 125
-53.6199 49.7381 88.4883 -0.467 0.182 -0.865 124 134 126
-41.0747 47.0945 77.5136 -0.002 0.571 -0.821 152 158 154
-41.0393 47.0371 77.2799 -0.281 0.500 -0.819 152 158 154
-31.0071 44.8763 68.3136 0.123 -0.482 -0.868 139 145 141
-30.0894 44.8776 68.3007 -0.181 -0.395 -0.901 55 54 50
-23.1747 44.0209 64.6863 -0.280 -0.019 -0.960 35 34 29
-20.2821 43.9429 64.3115 -0.377 -0.078 -0.923 94 94 84
-18.6967 43.8325 63.8318 -0.676 -0.095 -0.731 125 126 120
-18.4653 43.7439 63.4678 -0.447 -0.215 -0.868 100 101 96
-13.6543 43.6224 62.8774 0.115 -0.033 -0.993 99 92 84
-13.5522 43.5073 62.4086 -0.584 -0.103 -0.805 82 75 67
-11.8217 43.4056 61.9614 -0.510 -0.260 -0.820 98 93 87
-11.2932 43.3758 61.8298 -0.551 -0.194 -0.812 68 63 59
-9.6027 43.3915 61.8593 -0.320 -0.302 -0.898 103 99 92
