ply
format ascii 1.0
element vertex 884
property float x
property float y
property float z
property float nx
property float ny
property float nz
property uchar diffuse_red
property uchar diffuse_green
property uchar diffuse_blue
end_header
10.9124 12.1929 68.7724 -0.482 0.407 -0.776 83 87 83
12.9603 11.8386 68.7756 0.664 0.139 -0.735 80 90 89
13.5641 11.8332 69.5310 0.705 -0.225 -0.673 83 91 93
14.7762 11.6407 69.6638 0.088 -0.485 -0.870 68 77 73
19.5878 10.9096 70.4436 -0.923 0.000 -0.386 95 106 107
20.1776 10.5448 68.4441 0.203 -0.533 -0.821 87 93 91
27.8074 9.5868 71.2127 -0.567 -0.408 -0.715 54 62 64
28.0308 9.5214 71.0098 -0.619 -0.385 -0.685 58 63 66
28.2362 9.4536 70.7646 0.229 0.109 -0.967 43 48 51
39.9064 8.7032 80.4429 0.656 0.559 -0.508 23 37 24
-44.8858 23.5314 80.2116 -0.221 0.659 -0.719 38 58 67
-38.4552 22.0760 77.6470 -0.236 -0.222 -0.946 167 205 224
-38.1235 22.0150 77.6210 -0.408 -0.316 -0.856 188 230 246
-19.0489 17.5928 69.2242 -0.213 -0.437 -0.874 86 95 94
-17.7388 17.3717 69.2681 -0.054 -0.217 -0.975 81 91 93
9.4765 12.2550 66.2443 0.048 -0.180 -0.982 84 85 80
13.1839 11.9774 68.9816 0.567 0.051 -0.822 74 96 85
13.3686 11.9687 69.1567 0.520 -0.081 -0.850 77 95 89
13.5721 11.9678 69.4148 0.547 -0.078 -0.833 81 91 89
21.2295 10.7614 70.3150 0.024 -0.079 -0.997 94 98 97
27.8014 9.7263 71.0902 -0.559 -0.408 -0.722 58 66 68
36.8634 9.2320 79.1649 -0.910 -0.227 -0.347 35 45 46
-45.1119 23.7621 80.3664 -0.584 0.529 -0.616 39 57 67
-38.4293 22.2316 77.6040 -0.236 -0.222 -0.946 201 240 251
-38.2686 22.2039 77.6050 -0.436 -0.325 -0.839 199 239 250
-19.0354 17.7437 69.2431 -0.104 -0.469 -0.877 83 92 91
-18.0223 17.5781 69.3164 -0.295 -0.206 -0.933 80 88 90
-17.7158 17.5140 69.2351 -0.054 -0.217 -0.975 89 99 101
-11.3244 16.2668 68.1968 0.008 -0.011 -1.000 78 86 88
-1.4109 14.2468 65.9529 -0.205 -0.305 -0.930 72 73 67
2.0843 13.5914 65.5818 -0.153 -0.408 -0.900 48 48 48
4.4912 13.3686 67.0191 0.011 -0.234 -0.972 58 63 59
6.8854 13.0552 67.7692 -0.339 -0.039 -0.940 62 65 58
9.6833 12.6114 68.0714 0.353 -0.047 -0.935 83 81 76
9.8478 12.5978 68.1821 -0.049 0.007 -0.999 77 74 69
13.0942 12.1587 69.0942 0.403 0.306 -0.863 67 81 64
13.2534 12.1388 69.1506 0.381 0.332 -0.863 66 81 63
18.3518 11.4484 70.5771 0.184 -0.972 -0.146 98 118 118
23.9181 10.6135 71.5344 0.115 0.279 -0.953 81 92 88
24.1024 10.5947 71.6311 0.126 0.303 -0.944 80 91 90
24.3661 10.5935 71.9603 0.026 0.239 -0.971 80 92 90
24.4306 10.5475 71.7030 -0.017 0.079 -0.997 77 91 91
24.5812 10.5209 71.6990 -0.007 0.055 -0.998 77 91 91
24.7653 10.5016 71.7921 0.126 -0.116 -0.985 73 89 88
25.4310 10.4669 72.3892 -0.008 -0.199 -0.980 79 89 88
41.6911 8.6937 80.1137 0.763 -0.184 -0.619 41 54 39
41.8716 8.6660 80.1397 0.730 0.219 -0.647 42 55 41
-39.6340 22.6368 77.8271 -0.165 -0.184 -0.969 87 98 100
-38.3880 22.3791 77.5206 -0.196 -0.306 -0.932 190 230 242
-24.7338 19.1300 71.0596 -0.181 0.054 -0.982 109 145 141
-22.3512 18.7252 71.1169 -0.394 -0.345 -0.852 61 67 67
-22.1896 18.6897 71.0616 -0.367 -0.303 -0.880 61 67 65
-17.9982 17.7195 69.2767 -0.302 -0.164 -0.939 80 88 90
-9.7456 16.2153 68.7292 -0.806 -0.349 -0.478 6 8 7
2.1055 13.7234 65.5183 -0.153 -0.408 -0.900 35 35 35
4.5156 13.5069 66.9861 0.011 -0.234 -0.972 47 52 46
6.4806 13.2729 67.7632 -0.311 0.251 -0.916 49 52 45
6.9127 13.1968 67.7535 -0.339 -0.039 -0.940 53 54 48
7.4706 12.8202 65.7080 0.170 -0.043 -0.985 72 73 68
9.5820 12.7881 68.1453 0.094 0.158 -0.983 77 74 69
9.7153 12.7557 68.0768 -0.015 -0.564 -0.826 71 66 62
12.9168 12.2996 68.7955 0.784 0.104 -0.612 75 84 76
13.1628 12.3205 69.2600 0.473 0.282 -0.835 81 81 76
13.3296 12.3040 69.3501 0.362 0.348 -0.864 89 78 75
13.4897 12.2842 69.4078 0.285 0.376 -0.882 93 79 78
21.3407 11.1312 70.9179 0.629 -0.658 -0.414 84 90 88
23.8331 10.7951 71.6165 -0.353 0.157 -0.922 80 89 86
23.4034 10.3964 68.1594 0.373 0.034 -0.927 84 98 98
23.5136 10.3632 68.0568 0.305 -0.041 -0.951 82 96 96
23.6473 10.3355 68.0230 0.283 -0.068 -0.957 78 92 92
26.4894 10.5365 73.0881 0.615 -0.639 -0.461 47 56 55
26.8918 10.5019 73.3443 -0.421 -0.485 -0.766 53 58 61
39.8630 8.8902 77.9819 0.538 -0.701 -0.469 32 44 33
40.2453 8.8850 78.4278 0.538 -0.701 -0.469 33 44 35
40.5459 8.8709 78.7045 0.520 -0.722 -0.457 28 43 28
41.9250 8.8753 80.4817 0.595 -0.681 -0.426 47 65 44
-39.5908 22.7839 77.7400 -0.137 -0.162 -0.977 89 100 102
-38.3791 22.5439 77.5229 -0.393 -0.513 -0.763 112 150 168
-24.8520 19.2953 70.9908 -0.160 -0.564 -0.810 145 181 181
-24.6998 19.2674 70.9801 -0.160 -0.564 -0.810 98 134 130
-24.5477 19.2396 70.9695 -0.160 -0.564 -0.810 45 76 71
-22.4168 18.9437 71.4963 0.107 0.398 -0.911 61 67 65
-17.8021 17.8097 69.0827 -0.266 -0.181 -0.947 77 87 88
-17.6589 17.7876 69.1025 -0.244 -0.219 -0.945 90 100 102
-11.4143 16.5584 68.0370 -0.360 -0.528 -0.769 64 72 74
-11.2789 16.5501 68.1456 0.032 -0.547 -0.837 66 74 76
-10.8640 16.5121 68.3898 0.096 0.679 -0.728 92 93 97
-5.8837 15.3699 66.3733 -0.114 -0.045 -0.992 79 83 79
-4.1797 15.2305 67.4957 0.360 0.723 -0.590 54 249 250
-1.3642 14.5182 65.8754 -0.161 -0.368 -0.916 79 80 75
-1.2242 14.4903 65.8492 -0.212 -0.172 -0.962 73 74 69
3.1288 13.9182 67.1590 0.145 0.087 -0.986 77 82 78
3.8625 13.8134 67.3200 -0.158 0.533 -0.831 45 50 46
4.0157 13.7995 67.4111 0.115 0.566 -0.816 54 59 55
4.1628 13.7782 67.4407 0.193 0.564 -0.803 81 86 82
4.3013 13.7472 67.3904 0.088 0.487 -0.869 73 78 74
4.5311 13.6357 66.8734 0.140 -0.279 -0.950 52 57 51
6.5202 13.4252 67.8391 -0.320 0.196 -0.927 84 87 80
6.9418 13.3398 67.7500 -0.438 0.083 -0.895 50 53 46
9.5771 12.9096 67.9381 0.176 -0.110 -0.978 68 65 60
9.7236 12.8854 67.9469 0.175 -0.129 -0.976 62 57 53
9.8476 12.8475 67.8282 0.112 -0.634 -0.765 57 52 48
9.9975 12.8255 67.8566 0.227 -0.747 -0.625 53 48 44
19.2902 11.5048 69.9372 -0.210 -0.921 -0.327 102 103 104
21.4884 11.1751 70.3046 -0.182 -0.418 -0.890 90 101 97
24.0806 10.9314 71.7836 -0.050 -0.640 -0.767 85 94 93
23.3070 10.5672 68.1923 0.180 0.157 -0.971 95 107 107
37.0584 9.6726 78.9106 0.690 0.420 -0.590 40 50 51
37.4398 9.6725 79.3859 0.688 0.422 -0.591 40 50 51
40.1743 9.0320 78.1822 0.488 -0.772 -0.408 32 44 35
40.5514 9.0267 78.6145 0.456 -0.795 -0.400 30 46 29
-46.3496 24.6250 81.3262 -0.563 0.482 -0.672 29 46 54
-39.5617 22.9383 77.6889 -0.124 -0.158 -0.980 74 85 87
-38.6801 22.7581 77.4929 -0.129 -0.097 -0.987 101 140 162
-21.6552 18.8701 70.8064 0.096 0.399 -0.912 53 59 57
-20.2458 18.5787 70.4699 0.307 0.253 -0.917 53 58 54
-18.0423 17.9728 68.8740 -0.020 -0.122 -0.992 83 91 93
-11.3857 16.6895 67.9444 -0.353 -0.566 -0.745 74 82 84
-11.2488 16.6783 68.0335 -0.053 -0.587 -0.808 65 73 75
-11.1098 16.6637 68.1010 0.030 -0.600 -0.799 60 68 70
-10.9907 16.6873 68.4153 0.323 0.539 -0.778 58 63 66
-9.9609 16.4848 68.2430 -0.244 -0.599 -0.763 33 35 35
-5.8625 15.5229 66.4491 -0.049 -0.117 -0.992 65 68 65
-1.2033 14.6180 65.7510 -0.277 -0.120 -0.953 68 69 64
2.7507 14.1704 67.4377 0.163 0.673 -0.722 76 81 77
2.8838 14.1306 67.3186 -0.273 0.588 -0.761 76 81 77
3.6085 14.0132 67.3764 0.518 0.127 -0.846 71 76 72
3.7526 13.9887 67.3794 0.277 0.274 -0.921 83 88 84
3.8999 13.9678 67.4119 -0.158 0.533 -0.831 80 85 81
4.0439 13.9429 67.4121 -0.195 0.533 -0.823 64 69 65
4.1930 13.9238 67.4605 0.066 0.456 -0.887 63 68 64
4.3376 13.8995 67.4658 0.106 0.497 -0.861 75 80 76
5.6119 13.6537 67.2866 0.256 -0.701 -0.665 77 80 71
6.2401 13.6014 67.6883 0.694 -0.470 -0.545 112 115 108
6.5534 13.5723 67.8672 -0.308 0.221 -0.926 111 114 107
6.9671 13.4799 67.7194 -0.459 0.054 -0.887 47 50 43
10.0485 12.9812 67.9677 -0.410 -0.795 -0.448 56 53 48
13.0311 12.6131 69.0230 0.713 0.448 -0.539 55 51 67
16.2692 11.8919 67.8815 0.006 -0.140 -0.990 89 94 95
16.4303 11.8727 67.9431 0.038 -0.167 -0.985 87 95 93
16.5780 11.8485 67.9529 0.038 -0.167 -0.985 84 97 91
19.1554 11.7438 70.3830 -0.525 -0.571 -0.631 94 100 100
19.2499 11.7002 70.1897 -0.556 -0.512 -0.655 94 99 100
19.4209 11.6812 70.2651 -0.512 -0.517 -0.686 96 99 99
21.4930 11.3131 70.1987 -0.050 -0.448 -0.893 64 75 71
27.5081 10.3397 70.6839 0.141 -0.132 -0.981 71 81 79
42.0686 9.2074 80.5649 0.552 -0.749 -0.367 42 66 37
-42.4611 23.7180 78.4682 0.688 -0.201 -0.698 41 60 65
-39.9777 23.2140 77.9491 -0.394 -0.680 -0.619 74 88 89
-23.7777 19.6065 72.3141 -0.609 0.047 -0.792 67 76 76
-9.9266 16.6015 68.0543 -0.238 -0.573 -0.785 99 100 101
0.7292 14.5962 66.9294 0.008 -0.254 -0.967 65 67 67
2.4859 14.3577 67.3898 0.154 0.129 -0.980 68 70 69
2.6264 14.3277 67.3502 0.169 0.157 -0.973 66 68 67
2.7667 14.2978 67.3108 0.204 0.128 -0.971 61 66 62
11.6516 12.4345 65.0300 0.242 -0.191 -0.951 66 68 60
15.8116 12.3397 69.4218 0.527 0.568 -0.632 69 92 85
18.8110 11.4780 67.0174 0.023 -0.078 -0.997 91 100 95
19.7980 11.7170 69.8958 0.243 -0.477 -0.845 98 107 102
19.9581 11.6947 69.9339 0.218 -0.478 -0.851 98 107 102
23.0995 11.3508 71.3382 0.332 -0.472 -0.817 83 93 91
23.2847 11.3333 71.4404 0.308 -0.479 -0.822 95 104 101
23.5086 11.3255 71.6583 0.241 -0.341 -0.909 95 104 101
26.4734 10.9610 72.7031 0.080 -0.724 -0.686 57 63 64
26.6221 10.9331 72.6881 0.147 -0.849 -0.508 62 68 65
27.5433 10.4861 70.6693 0.141 -0.132 -0.981 68 75 70
40.0128 9.3216 77.6525 0.546 -0.675 -0.497 29 40 31
40.4407 9.3238 78.1883 0.380 -0.789 -0.483 28 42 28
41.9896 8.9839 77.6846 0.533 0.562 -0.633 27 40 31
-46.3052 25.0086 81.6346 -0.488 0.551 -0.677 27 44 54
-42.1754 23.8535 78.5841 0.615 -0.065 -0.786 56 77 79
-42.0531 23.8465 78.6826 0.559 0.236 -0.795 59 80 84
-1.5735 14.9839 65.8309 -0.047 -0.455 -0.889 98 99 91
2.7897 14.4347 67.2608 0.231 0.312 -0.922 51 56 55
3.6699 14.3073 67.4339 0.415 0.091 -0.905 30 36 32
3.8111 14.2788 67.4057 0.085 0.132 -0.988 25 32 25
3.9605 14.2603 67.4567 -0.165 0.306 -0.938 34 41 33
4.1022 14.2323 67.4330 -0.147 0.025 -0.989 41 48 40
15.3427 12.5375 69.1750 0.741 -0.338 -0.580 83 71 79
15.5475 12.5361 69.4110 0.732 -0.256 -0.632 54 64 66
15.7037 12.5139 69.4443 0.465 -0.102 -0.879 28 57 52
15.8521 12.4884 69.4457 0.349 -0.137 -0.927 43 75 68
15.9059 12.4243 69.0662 -0.514 -0.539 -0.668 59 81 69
22.0092 11.5955 70.6457 -0.178 -0.886 -0.428 70 80 79
22.1692 11.5722 70.6760 -0.276 -0.856 -0.437 72 82 81
22.4090 11.5709 70.9549 -0.180 -0.920 -0.349 73 84 80
23.0903 11.4871 71.1916 -0.087 -0.812 -0.578 84 95 91
23.5282 11.4701 71.5992 0.254 -0.342 -0.905 88 99 93
23.7877 11.4717 71.9216 0.553 -0.048 -0.832 89 100 94
40.0324 9.6224 78.5982 -0.421 0.026 -0.906 27 42 26
-46.3643 25.2148 81.7831 -0.559 0.479 -0.677 29 46 56
-38.2851 23.4267 79.1183 0.222 -0.223 -0.949 158 200 224
-38.5501 23.6429 80.2840 -0.010 0.120 -0.993 159 201 225
-24.5303 19.7894 70.5234 0.084 -0.524 -0.848 103 139 135
-24.3877 19.7687 70.5504 0.084 -0.524 -0.848 67 97 92
-9.7115 16.8026 67.6398 -0.586 -0.799 -0.133 67 69 65
-3.6795 15.2739 64.3246 -0.241 -0.337 -0.910 53 252 194
0.9272 14.8618 66.9625 0.189 -0.237 -0.953 51 56 48
3.2657 14.5266 67.4390 -0.487 0.137 -0.863 18 24 24
3.4021 14.4913 67.3593 -0.519 0.125 -0.846 19 25 25
3.5488 14.4698 67.3856 0.189 0.251 -0.949 19 25 23
3.6942 14.4464 67.3980 0.419 0.088 -0.904 19 25 22
3.8368 14.4196 67.3832 0.403 0.061 -0.913 24 31 26
3.9840 14.3985 67.4133 -0.095 0.021 -0.995 28 38 25
4.1267 14.3717 67.3991 -0.095 0.021 -0.995 29 39 26
4.2771 14.3541 67.4566 0.197 -0.151 -0.969 25 36 22
4.4207 14.3283 67.4507 0.190 -0.094 -0.977 33 43 30
8.3785 13.4385 66.0500 -0.130 0.259 -0.957 46 55 38
15.3619 12.6770 69.1125 0.737 -0.330 -0.590 68 65 49
15.6896 12.6397 69.2457 0.345 -0.091 -0.934 51 74 58
15.8175 12.6058 69.1652 -0.542 -0.372 -0.753 55 79 69
15.9111 12.5579 68.9482 -0.473 -0.378 -0.796 59 78 79
21.9206 11.7766 70.7210 0.185 -0.919 -0.349 70 80 79
22.2871 11.7431 70.9258 0.151 -0.936 -0.317 72 82 81
23.2884 11.6120 71.2151 -0.164 -0.915 -0.369 79 90 86
23.9538 11.5887 71.8439 0.505 -0.190 -0.842 81 90 87
27.3650 10.8422 70.7771 0.113 -0.419 -0.901 91 96 89
27.5264 10.8183 70.8048 -0.017 -0.294 -0.956 74 79 72
27.6466 10.7859 70.7250 0.086 -0.138 -0.987 69 74 67
33.6018 10.0265 72.5834 -0.035 -0.549 -0.835 53 68 65
35.6207 9.9763 74.6319 0.466 -0.177 -0.867 34 50 40
35.7813 9.9493 74.6377 0.364 -0.208 -0.908 36 52 39
-47.0939 25.5358 81.9182 -0.763 -0.496 -0.414 43 57 68
-46.7682 25.4280 81.5706 -0.526 -0.643 -0.558 51 65 76
-46.5364 25.3670 81.4296 -0.505 -0.638 -0.581 45 59 70
-39.9136 23.7528 78.2693 -0.571 -0.185 -0.800 65 80 84
-24.8690 20.0352 70.7470 0.394 -0.103 -0.913 153 190 196
-22.0024 19.6269 71.3409 -0.601 0.422 -0.678 66 72 72
-19.0311 18.6560 68.2561 0.180 0.076 -0.981 71 78 72
-18.6992 18.6857 68.8449 -0.152 -0.392 -0.907 95 101 97
-18.5178 18.6245 68.6434 -0.339 -0.500 -0.797 99 105 101
-11.2743 17.2164 67.6021 -0.069 -0.422 -0.904 85 89 92
-11.1276 17.1867 67.5729 -0.064 -0.410 -0.910 74 80 82
1.2582 14.9898 67.2160 -0.492 -0.739 -0.460 44 52 40
1.5058 14.8669 66.6753 0.222 -0.102 -0.970 45 52 42
4.1118 14.4631 66.9954 -0.525 0.065 -0.849 44 57 39
4.4291 14.4489 67.2700 0.166 0.084 -0.983 42 55 37
11.6421 13.4236 68.7794 -0.035 -0.992 -0.124 61 62 60
11.8830 13.4520 69.2532 -0.036 -0.999 0.017 59 69 60
15.6868 12.7699 69.0937 0.224 -0.165 -0.961 86 91 76
21.6151 11.8936 70.1068 0.174 -0.610 -0.773 63 73 73
21.8776 11.9011 70.4643 0.178 -0.884 -0.432 70 80 81
23.3622 11.7708 71.3205 -0.183 -0.831 -0.526 79 89 88
24.1907 11.7918 72.4316 0.645 -0.375 -0.666 80 89 86
-36.4559 22.4093 72.1734 -0.371 -0.921 -0.116 153 200 227
-25.6695 20.6381 72.8139 -0.887 0.163 -0.432 166 197 220
-24.4674 20.0661 70.3848 0.041 -0.535 -0.844 96 129 127
-24.1749 20.1131 71.0364 0.309 -0.444 -0.841 70 81 81
-24.0100 20.1714 71.6163 -0.062 -0.629 -0.775 61 73 73
-18.4461 18.7158 68.3294 -0.514 -0.536 -0.669 97 104 97
-13.6745 17.7401 67.3302 -0.226 -0.510 -0.830 107 115 117
4.6426 14.6154 67.6367 -0.272 -0.915 -0.298 45 60 39
6.7051 13.9890 65.8387 -0.218 -0.081 -0.973 63 81 57
15.8336 12.8753 68.9514 -0.636 -0.394 -0.663 87 89 81
18.4543 12.1724 67.2883 -0.273 -0.053 -0.960 89 98 92
21.5805 12.0192 69.8768 0.132 -0.637 -0.760 63 72 69
35.7011 10.2835 74.6057 0.256 -0.431 -0.865 88 112 88
41.7473 9.9076 79.0809 -0.067 0.405 -0.912 46 66 41
-42.1551 24.4705 78.2213 0.389 -0.551 -0.738 44 57 74
-40.1881 24.1247 78.1861 0.337 -0.692 -0.639 60 77 84
-25.6070 20.7569 72.6225 -0.926 0.165 -0.340 165 196 219
-24.1845 20.2858 71.1401 0.178 -0.219 -0.959 65 74 76
-20.3989 19.4938 70.2383 0.108 -0.861 -0.496 62 68 66
-16.0861 18.2923 67.2394 0.076 -0.400 -0.913 73 78 81
-15.9368 18.2604 67.1996 0.023 -0.450 -0.893 93 98 101
-15.2448 18.1692 67.3878 -0.137 -0.160 -0.978 59 64 67
-14.0562 17.9168 67.0800 0.413 -0.000 -0.911 75 83 85
-4.8665 16.1263 65.7625 0.168 -0.389 -0.906 150 255 122
-4.5843 16.0883 65.8339 0.107 -0.420 -0.901 252 254 20
-4.4430 16.0646 65.8388 0.124 -0.429 -0.895 254 254 11
-0.5128 15.2959 65.2559 -0.319 -0.344 -0.883 52 63 49
-0.3771 15.2586 65.1649 -0.295 -0.344 -0.891 61 72 58
1.1180 15.2027 66.5018 -0.049 -0.243 -0.969 48 56 43
4.6123 14.6909 67.1152 -0.248 -0.917 -0.311 52 65 47
7.3259 14.0534 66.0088 0.120 0.065 -0.991 56 72 47
7.4472 14.0116 65.8719 0.230 -0.241 -0.943 56 70 47
9.6007 13.6625 66.0274 -0.277 -0.574 -0.771 53 70 43
9.7320 13.6307 65.9678 -0.270 -0.581 -0.768 53 69 40
9.8556 13.5940 65.8668 -0.360 -0.658 -0.661 55 69 39
15.7189 13.0460 68.9440 0.362 -0.781 -0.509 74 79 68
18.3655 12.3475 67.3598 -0.082 0.027 -0.996 81 91 83
24.9865 11.4923 69.2764 0.374 0.136 -0.917 68 72 73
31.1990 11.1222 73.9248 0.253 -0.474 -0.843 63 67 70
-41.4817 24.5788 78.5868 -0.254 -0.058 -0.965 41 56 59
-41.3170 24.5498 78.5837 0.176 0.200 -0.964 78 93 96
-24.2422 20.3056 70.1901 0.077 -0.644 -0.761 75 100 97
-20.4935 19.6346 70.0455 0.030 -0.645 -0.763 60 66 64
-15.9119 18.3973 67.1523 -0.081 -0.547 -0.833 97 102 105
-13.2023 17.9527 67.3104 0.212 -0.169 -0.963 58 66 68
-8.7681 17.2604 67.8003 0.413 0.462 -0.785 66 69 62
-8.4423 17.0959 67.0960 -0.240 0.398 -0.885 57 57 49
-0.2183 15.3567 65.0391 -0.454 -0.086 -0.887 89 100 86
-0.0787 15.3310 65.0293 -0.073 -0.254 -0.964 73 84 70
0.2004 15.2802 65.0128 0.138 -0.161 -0.977 60 71 57
1.3031 15.3522 66.7248 -0.510 -0.171 -0.843 64 72 61
7.3289 14.1723 65.8324 -0.210 -0.086 -0.974 62 76 53
7.4722 14.1491 65.8429 0.230 -0.241 -0.943 61 75 52
7.6165 14.1267 65.8597 0.219 -0.229 -0.948 61 73 51
16.0216 13.1292 68.8368 0.268 0.788 -0.554 63 64 59
15.5814 12.7611 65.9439 0.063 -0.388 -0.920 61 66 60
20.0934 12.4720 69.1461 0.025 -0.455 -0.890 73 79 68
25.7926 11.8991 71.8381 -0.207 -0.825 -0.526 66 70 69
30.7682 11.0103 71.6583 0.460 -0.314 -0.831 52 60 62
31.1617 10.9743 71.8675 0.491 -0.431 -0.757 56 64 66
37.3712 10.5247 75.9376 0.313 -0.359 -0.879 35 61 34
39.2962 10.0912 75.2841 -0.833 -0.313 -0.455 57 72 52
42.3566 10.1975 79.4254 0.698 -0.552 -0.456 49 67 44
43.7118 10.1677 80.7587 0.856 -0.168 -0.489 27 44 26
-42.5631 24.7951 77.6842 -0.160 -0.763 -0.626 43 61 71
-41.5139 24.7694 78.6868 0.434 -0.226 -0.872 45 60 62
-41.4057 24.7720 78.8240 0.545 -0.381 -0.747 75 90 93
-34.0148 23.1073 76.3429 -0.663 0.395 -0.636 162 201 218
-21.8124 20.2372 71.4646 -0.480 0.561 -0.674 50 59 56
-12.5764 17.9469 67.0126 -0.148 -0.169 -0.974 82 87 90
-0.1944 15.4933 65.0135 -0.454 -0.086 -0.887 82 93 79
-0.0549 15.4674 65.0018 -0.071 -0.255 -0.964 72 83 69
0.0821 15.4354 64.9485 -0.060 -0.156 -0.986 71 82 68
0.2267 15.4224 65.0260 0.150 -0.131 -0.980 69 80 66
1.0225 15.5016 66.4215 0.108 -0.397 -0.911 70 78 65
1.1980 15.5441 66.8907 -0.809 -0.350 -0.472 70 78 65
1.5643 15.3483 66.0385 -0.177 0.232 -0.957 71 79 68
1.7200 15.3488 66.2154 0.032 -0.090 -0.995 77 83 73
1.8510 15.3039 66.0723 -0.327 -0.000 -0.945 76 81 74
1.9804 15.2572 65.9156 -0.371 -0.023 -0.928 79 84 77
2.1149 15.2202 65.8273 -0.336 -0.094 -0.937 74 79 72
2.8110 14.6177 62.7260 0.260 0.057 -0.964 72 85 58
3.4267 15.0514 66.2017 0.090 -0.262 -0.961 72 85 59
3.5362 14.9817 65.8757 0.103 -0.205 -0.973 73 85 60
4.6943 15.0086 67.3379 0.538 0.002 -0.843 68 81 63
4.8247 14.9672 67.2166 -0.963 0.136 -0.231 68 81 63
6.2322 14.3565 64.8547 0.209 -0.077 -0.975 65 80 59
7.0296 14.3223 65.5227 0.229 -0.132 -0.964 64 77 57
9.1477 13.9555 65.5215 0.108 -0.493 -0.863 53 73 45
10.3106 13.7815 65.6963 -0.491 -0.426 -0.760 65 69 40
10.4127 13.7314 65.4875 -0.481 -0.350 -0.804 78 64 32
16.0049 13.2523 68.6320 0.519 0.701 -0.489 56 61 57
19.9032 12.6164 68.8811 0.181 -0.267 -0.946 60 66 56
21.3072 12.0549 66.8321 -0.082 -0.181 -0.980 91 109 95
22.0022 12.0591 67.6328 0.688 -0.094 -0.720 69 87 73
25.0845 11.7896 69.3302 0.071 -0.334 -0.940 71 71 69
25.2266 11.7622 69.3125 -0.048 -0.408 -0.912 71 71 69
39.3722 10.2013 75.0197 -0.615 -0.287 -0.734 111 126 102
-42.6195 24.9967 77.8358 -0.162 -0.461 -0.873 44 62 72
-41.2653 24.8667 78.4988 -0.444 -0.648 -0.619 67 83 83
-23.8481 20.7019 71.1830 0.037 -0.651 -0.758 88 100 100
-18.6129 19.2970 68.0113 -0.084 -0.481 -0.873 86 93 85
-15.2848 18.5670 67.0318 0.028 0.080 -0.996 88 93 96
-14.9006 18.5556 67.3818 -0.269 -0.146 -0.952 67 72 75
-14.7392 18.5068 67.2489 -0.345 -0.257 -0.903 61 66 69
-13.1206 18.1751 66.9212 -0.108 -0.110 -0.988 61 69 71
-6.2071 16.7707 65.5983 -0.172 0.023 -0.985 74 92 55
-3.1062 16.1981 65.3697 0.041 -0.093 -0.995 13 252 248
-2.9652 16.1762 65.3856 0.044 -0.079 -0.996 9 249 240
-2.8249 16.1480 65.3609 0.043 -0.026 -0.999 21 251 212
-2.5428 16.1034 65.3876 0.058 -0.050 -0.997 68 98 84
-0.0284 15.6108 65.0222 0.080 -0.413 -0.907 71 80 67
0.1134 15.5908 65.0507 0.086 -0.412 -0.907 75 84 71
1.2130 15.6641 66.7265 -0.807 -0.350 -0.477 77 84 71
1.7435 15.4856 66.1754 -0.185 -0.023 -0.982 86 92 82
2.6153 15.3664 66.3765 -0.129 0.440 -0.889 77 84 73
4.0210 15.0915 66.1751 0.567 -0.259 -0.782 76 90 71
4.1659 15.0700 66.1984 0.450 -0.667 -0.593 76 90 72
4.5277 15.1157 66.8864 0.815 -0.381 -0.437 75 89 71
6.4654 14.5339 65.3199 -0.233 -0.329 -0.915 72 87 66
9.1685 14.3510 67.1307 0.118 -0.748 -0.653 59 81 53
9.3305 14.3393 67.2346 -0.521 -0.644 -0.560 60 80 52
9.4635 14.3059 67.1685 -0.090 -0.658 -0.748 59 79 51
9.9181 13.9971 65.7053 -0.749 -0.144 -0.647 62 80 53
10.0548 13.9692 65.6783 -0.597 -0.372 -0.711 63 78 55
13.8120 13.6664 67.8870 0.146 -0.447 -0.883 59 46 55
13.9916 13.6588 68.0356 -0.071 -0.138 -0.988 52 48 56
15.4167 13.4838 68.4914 0.508 0.716 -0.479 64 63 56
16.1375 13.4426 69.0222 0.530 0.695 -0.487 58 64 55
21.5707 12.1979 67.0864 0.733 -0.196 -0.652 62 83 68
24.2917 12.4511 71.6890 0.736 -0.522 -0.430 72 78 74
25.1924 11.8893 69.1089 -0.116 -0.659 -0.743 78 78 76
31.0086 11.5177 73.1444 0.194 -0.606 -0.772 65 70 66
32.6609 11.4986 74.8407 -0.267 -0.589 -0.762 62 70 72
39.4807 10.3155 74.8223 0.584 0.142 -0.799 125 141 115
42.1034 10.3740 78.0790 -0.493 0.349 -0.797 38 55 37
42.3244 10.3529 78.1884 -0.499 0.304 -0.811 37 54 35
-17.3818 19.1829 67.6878 -0.278 -0.127 -0.952 60 66 67
-6.1875 16.9332 65.7235 -0.297 -0.097 -0.950 75 100 51
-2.9407 16.3213 65.4087 -0.160 0.142 -0.977 16 244 241
-2.3790 16.2127 65.3373 0.132 -0.031 -0.991 93 83 69
2.5034 15.5403 66.4204 -0.210 0.045 -0.977 85 85 79
2.6699 15.5538 66.6861 -0.374 0.333 -0.866 85 85 79
5.8529 14.8631 65.8068 -0.759 0.470 -0.450 83 94 77
8.4072 14.4220 65.8125 -0.463 0.354 -0.812 71 86 64
9.4799 14.4390 67.0853 -0.071 -0.602 -0.795 68 84 57
9.6542 14.1794 65.6437 -0.734 -0.287 -0.615 72 85 60
10.0546 14.0890 65.5110 -0.412 0.087 -0.907 76 82 59
10.1788 14.0528 65.4185 -0.225 0.272 -0.936 74 83 55
14.0267 13.8047 68.0431 -0.220 -0.066 -0.973 50 61 56
15.8768 13.6406 69.0233 0.501 0.719 -0.481 50 53 46
18.3466 12.8591 66.7984 0.048 -0.017 -0.999 55 65 56
30.3103 11.6318 72.0934 -0.400 -0.404 -0.823 88 90 85
32.7219 11.0859 71.2856 -0.239 0.388 -0.890 42 54 45
42.5940 10.6995 79.5898 -0.761 -0.402 -0.510 30 48 24
42.1579 10.5357 78.0866 -0.493 0.346 -0.798 52 69 50
42.3804 10.5150 78.1984 -0.555 -0.676 -0.484 47 64 45
-42.8302 25.3329 77.6045 0.222 -0.042 -0.974 55 75 82
-23.7997 20.9937 71.1056 0.088 -0.359 -0.929 90 102 102
-21.2446 20.4385 70.4035 -0.549 -0.708 -0.445 75 81 79
-9.5427 17.9725 67.6632 0.547 0.498 -0.673 68 65 62
-8.9399 17.8029 67.2574 -0.456 -0.807 -0.375 74 70 67
-2.3535 16.3610 65.3800 0.157 -0.050 -0.986 93 77 68
-1.0771 16.1710 65.5717 -0.019 -0.037 -0.999 87 84 77
-0.6599 16.0757 65.4284 -0.369 -0.148 -0.917 87 85 78
-0.5177 16.0551 65.4532 -0.275 0.377 -0.885 92 92 84
-0.3742 16.0377 65.4991 -0.504 0.469 -0.725 87 87 79
-0.2370 16.0019 65.4246 -0.561 0.474 -0.679 79 80 72
-0.1024 15.9597 65.3070 -0.480 0.532 -0.698 77 77 69
9.4871 14.5650 66.9495 -0.069 -0.595 -0.801 82 83 80
9.5908 14.5102 66.7203 0.736 -0.277 -0.618 86 78 79
42.7297 10.8756 79.7549 -0.276 -0.804 -0.527 16 34 11
42.1707 10.6403 77.6928 -0.584 -0.723 -0.369 48 65 47
-40.6698 25.2413 78.3029 0.781 -0.139 -0.608 57 75 79
-21.6804 20.6716 70.4193 -0.032 -0.596 -0.802 72 78 74
-21.4020 20.6401 70.5213 -0.452 -0.665 -0.594 74 80 78
-20.6033 20.3377 69.5134 0.139 0.117 -0.983 69 73 74
-13.9778 18.8426 67.3723 -0.286 -0.266 -0.921 97 106 105
-10.9919 18.1343 66.1958 -0.134 -0.376 -0.917 62 64 60
-10.8472 18.1045 66.1663 -0.107 -0.396 -0.912 63 65 61
0.3419 16.0179 65.2405 0.197 0.532 -0.823 90 87 80
11.1373 13.9902 64.2587 -0.151 -0.034 -0.988 101 79 66
11.2726 13.9636 64.2390 -0.151 -0.034 -0.988 92 86 72
30.0699 12.1711 73.1978 -0.401 -0.239 -0.884 78 87 84
30.3538 11.9252 71.9901 -0.442 -0.146 -0.885 81 86 79
42.7461 11.0350 79.6861 -0.072 -0.928 -0.367 32 49 30
-45.6445 26.8563 81.8502 -0.229 0.107 -0.968 37 54 61
-40.7105 25.4386 78.4269 0.779 -0.149 -0.609 51 69 74
-34.5730 23.9447 75.8044 -0.489 -0.536 -0.688 160 203 222
-28.0595 22.3524 72.9799 -0.420 -0.397 -0.816 163 199 221
-27.8608 22.2914 72.8179 -0.426 -0.579 -0.695 164 199 221
-25.4629 21.5185 70.6453 -0.102 -0.290 -0.952 168 202 222
-23.8795 21.2918 70.9320 0.023 -0.318 -0.948 86 106 104
-22.2412 20.6826 68.9548 0.061 0.059 -0.996 51 60 57
-20.8255 20.2452 67.7870 0.458 0.115 -0.881 67 72 68
-20.7049 20.4840 69.3626 -0.006 -0.418 -0.908 62 66 69
-19.4623 20.3481 69.8421 -0.855 0.377 -0.357 58 64 62
-15.1301 19.0371 66.4348 -0.190 -0.650 -0.736 108 118 119
-14.4911 19.0227 67.0183 0.277 -0.116 -0.954 64 74 75
-11.1081 18.2907 66.1277 -0.131 -0.407 -0.904 38 39 34
11.1013 14.2003 64.6205 -0.429 -0.325 -0.843 95 81 69
11.2181 14.1611 64.5058 -0.327 -0.322 -0.889 81 89 73
15.9398 13.6819 66.5542 -0.146 -0.377 -0.915 82 84 71
20.2215 13.3986 69.3300 0.293 -0.156 -0.943 57 69 52
20.4417 13.3995 69.5668 -0.182 -0.055 -0.982 61 71 56
29.8352 12.3870 73.2835 0.751 -0.454 -0.479 105 114 113
30.3129 12.0576 71.7861 0.507 0.404 -0.761 82 87 81
34.9703 11.6045 73.9262 0.527 -0.315 -0.789 31 44 34
42.5208 11.1582 79.1444 -0.060 -0.930 -0.364 35 49 31
-40.0194 25.0717 75.9213 -0.863 -0.080 -0.498 43 57 64
-39.9573 25.2352 76.9669 -0.473 -0.077 -0.878 46 66 68
-27.1938 22.3126 72.6783 -0.034 -0.671 -0.741 171 205 222
-23.8629 21.4442 70.9254 0.156 -0.435 -0.887 88 108 107
-21.1312 20.7104 69.3575 0.320 -0.259 -0.911 67 72 68
-20.5842 20.6533 69.5826 0.173 -0.266 -0.948 63 66 71
-13.9167 19.0998 67.1817 -0.335 -0.419 -0.844 84 93 90
-11.0857 18.4299 66.1008 0.021 -0.549 -0.836 39 39 37
-10.9343 18.3855 65.9917 -0.143 -0.471 -0.871 40 40 38
-10.7958 18.3689 66.0352 -0.087 -0.485 -0.870 39 39 37
-10.4725 18.5376 67.3832 -0.250 -0.383 -0.889 44 40 39
-10.3247 18.5048 67.3397 -0.237 -0.377 -0.895 52 48 47
-1.9943 16.7582 65.5064 0.113 0.034 -0.993 69 78 67
1.9969 16.1325 65.8948 0.171 -0.571 -0.803 84 79 75
3.6807 16.0388 67.0802 0.817 0.145 -0.559 87 81 75
4.8242 15.6195 65.7509 0.295 -0.951 -0.089 84 79 76
4.9966 15.6322 66.0060 0.378 -0.921 -0.097 84 79 76
12.4486 14.7180 68.2552 -0.269 -0.962 -0.044 93 90 81
20.3450 13.4968 69.1240 0.472 -0.471 -0.745 58 72 52
24.6685 12.9691 70.4448 -0.523 -0.537 -0.662 72 80 70
24.7728 12.9289 70.3119 0.278 -0.033 -0.960 77 84 75
26.2303 12.7913 70.9989 0.376 0.346 -0.860 91 92 84
29.7542 12.5106 72.9724 0.726 -0.468 -0.504 93 101 97
29.9263 12.4877 73.0133 -0.233 -0.893 -0.385 95 104 100
-40.4009 25.5342 77.2909 -0.000 -0.440 -0.898 51 65 75
-34.4431 24.2002 75.4901 -0.486 -0.528 -0.697 160 202 224
-25.7231 21.8678 70.6003 -0.173 -0.557 -0.812 183 213 225
-25.5594 21.8304 70.5469 0.185 -0.469 -0.864 174 204 216
-23.8328 21.5848 70.8616 0.156 -0.435 -0.887 87 109 107
-21.3356 20.9586 69.7089 -0.388 -0.205 -0.898 67 72 68
-20.3966 20.7552 69.4658 0.210 -0.385 -0.899 62 66 69
-20.2730 20.7552 69.5926 0.307 -0.297 -0.904 55 59 62
-18.9718 20.2859 68.1433 -0.382 -0.165 -0.909 65 71 71
-13.8886 19.2318 67.1058 -0.440 -0.502 -0.745 67 78 74
-11.0183 18.7581 67.2411 -0.206 -0.377 -0.903 35 35 35
-10.5969 18.7105 67.3909 0.409 -0.416 -0.812 61 60 58
-4.2310 17.4281 66.3156 -0.718 -0.059 -0.693 12 251 247
-4.0882 17.4017 66.3052 -0.764 0.077 -0.641 21 251 234
-1.8116 16.9600 66.0211 0.255 0.124 -0.959 73 72 62
3.9005 16.2279 67.5397 0.326 0.155 -0.933 90 80 78
5.7868 15.5225 65.2903 -0.471 -0.313 -0.825 87 77 75
22.0390 13.6870 71.0788 0.622 -0.352 -0.700 50 60 49
22.4529 13.7544 71.9034 0.526 -0.098 -0.845 53 63 52
22.4662 13.6780 71.4639 0.345 0.275 -0.897 56 64 53
26.4897 12.9343 71.1802 0.297 0.183 -0.937 75 77 65
36.9876 11.5932 73.9970 -0.238 -0.524 -0.818 70 90 78
39.9587 11.7776 78.1398 0.199 -0.950 -0.240 32 56 42
-43.0316 26.4386 78.9396 0.027 -0.883 -0.469 55 73 85
-40.6337 25.7083 77.0875 -0.754 -0.081 -0.652 45 62 58
-39.1847 25.4598 77.1003 -0.326 -0.187 -0.927 52 65 76
-29.4825 23.0333 72.7085 -0.457 -0.302 -0.836 169 205 230
-29.3183 22.9989 72.6734 -0.456 -0.251 -0.854 170 205 231
-29.1615 22.9701 72.6632 -0.070 -0.468 -0.881 170 206 230
-29.0319 22.9619 72.7469 -0.077 -0.477 -0.876 172 206 229
-25.6721 21.9905 70.4564 -0.029 0.065 -0.997 154 184 195
-23.7760 21.7011 70.6830 -0.024 -0.462 -0.887 88 110 108
-10.9870 18.8807 67.1125 -0.036 -0.245 -0.969 58 58 56
-4.2073 17.5661 66.2793 -0.718 -0.059 -0.693 22 245 252
-3.7808 17.4444 65.9979 0.078 -0.330 -0.941 7 253 234
-3.6381 17.4271 66.0412 0.280 -0.509 -0.814 10 254 243
2.4659 16.3239 65.7626 -0.161 -0.135 -0.978 76 71 67
2.7929 16.3477 66.2341 -0.268 0.102 -0.958 76 71 67
4.3787 16.3176 67.6670 -0.388 -0.879 -0.277 80 70 69
5.1011 15.9777 66.4055 0.712 -0.622 -0.324 78 68 67
11.8626 14.4774 64.4642 -0.371 -0.128 -0.920 80 79 69
12.7139 14.9008 67.8126 -0.481 -0.851 -0.210 89 86 77
15.1294 14.5382 68.1362 0.810 -0.098 -0.578 113 112 94
15.8269 14.4933 68.5808 -0.759 -0.359 -0.543 114 115 101
21.8006 13.7366 70.2029 0.271 -0.416 -0.868 50 60 49
22.0098 13.7318 70.3869 0.019 -0.450 -0.893 53 63 52
22.1421 13.6989 70.3287 0.123 -0.370 -0.921 56 64 53
22.2991 13.6751 70.3480 0.153 -0.343 -0.927 53 64 53
26.3389 13.1000 71.0736 0.652 -0.163 -0.741 86 88 74
26.5178 13.0814 71.1457 0.222 0.283 -0.933 88 90 76
26.7116 13.0669 71.2572 0.223 0.306 -0.925 89 89 77
33.7230 12.3836 74.3634 -0.799 -0.287 -0.529 36 54 43
35.3029 12.0496 74.0070 0.352 0.308 -0.884 39 51 39
-42.9327 26.5561 78.7243 -0.060 -0.857 -0.512 54 72 85
-31.6419 23.9159 74.7339 -0.406 0.002 -0.914 162 200 220
-29.0312 23.1294 72.7898 -0.275 -0.304 -0.912 178 213 233
-27.0803 22.7268 72.4111 -0.086 -0.643 -0.761 160 195 209
-23.7625 21.7460 70.0494 -0.458 -0.252 -0.853 87 108 106
-23.7475 21.8428 70.6260 -0.068 -0.434 -0.899 92 114 112
-14.2745 19.5862 67.0375 0.232 -0.378 -0.896 59 69 70
-5.8966 17.9899 66.1824 -0.518 -0.675 -0.525 46 61 29
-4.1836 17.7073 66.2615 -0.635 -0.500 -0.589 23 216 233
-4.0407 17.6854 66.2778 -0.780 -0.139 -0.610 21 235 248
-3.4738 17.5136 65.8494 -0.419 -0.448 -0.790 38 196 211
-1.9118 17.2318 65.7819 0.339 -0.005 -0.941 51 64 49
-1.7626 17.2430 65.9964 0.088 -0.341 -0.936 59 60 50
2.8925 16.6156 67.0277 0.060 -0.371 -0.927 78 70 67
3.1408 16.4987 66.5989 0.494 0.508 -0.706 69 64 60
3.7101 16.6379 67.9777 0.939 0.064 -0.338 72 66 62
4.3694 16.4107 67.3212 -0.376 -0.889 -0.261 72 66 63
4.3861 16.2088 66.1661 -0.827 -0.140 -0.545 72 66 63
4.5365 16.1942 66.2322 -0.756 0.211 -0.620 73 65 63
5.5909 15.8898 65.5240 -0.124 -0.015 -0.992 81 72 68
15.4297 14.6191 68.0246 0.129 -0.962 -0.239 114 112 97
15.5714 14.5912 68.0047 0.156 -0.957 -0.244 117 118 104
15.7133 14.5634 67.9861 0.042 -0.956 -0.290 118 119 105
16.1552 14.5884 68.5747 0.161 0.738 -0.655 116 117 103
21.8270 13.8817 70.1657 0.193 -0.342 -0.920 66 76 65
22.0268 13.8737 70.3201 0.008 -0.441 -0.898 67 77 66
22.1596 13.8410 70.2635 0.153 -0.343 -0.927 67 75 64
22.3216 13.8190 70.2985 0.153 -0.343 -0.927 64 75 64
25.1645 13.0299 68.5719 0.292 -0.136 -0.947 76 78 64
26.3904 13.2539 71.1028 0.661 -0.405 -0.632 79 81 67
26.5834 13.2395 71.2128 0.216 0.204 -0.955 81 83 69
30.3623 12.7627 72.2383 -0.228 -0.935 -0.271 91 96 77
35.4113 12.2176 74.1426 0.197 -0.016 -0.980 34 47 37
35.9196 12.1422 74.2153 0.419 -0.121 -0.900 101 117 113
35.9464 11.9159 72.9289 0.254 -0.480 -0.840 102 121 120
-44.1068 27.1429 79.9429 0.341 0.320 -0.884 49 66 74
-42.9594 26.7465 78.8062 -0.318 -0.394 -0.863 52 71 79
-42.2438 26.5990 78.6701 0.324 -0.677 -0.660 157 179 173
-42.1048 26.5857 78.7318 0.326 -0.679 -0.658 130 152 145
-40.5788 26.1595 77.8002 -0.221 -0.389 -0.894 48 62 66
-29.6154 23.3794 72.7241 -0.362 -0.409 -0.838 183 221 234
-29.4552 23.3482 72.7036 -0.369 -0.408 -0.835 187 224 238
-27.0352 22.8585 72.2948 -0.086 -0.643 -0.761 121 154 169
-26.8813 22.8315 72.2925 -0.106 -0.654 -0.749 120 153 168
-23.6676 21.9370 70.3479 -0.303 -0.498 -0.812 95 115 113
-22.6568 21.5589 69.1806 -0.219 -0.107 -0.970 86 95 92
-22.3458 21.4929 69.1108 -0.189 -0.149 -0.971 41 50 47
-22.2358 21.5039 69.2831 -0.197 -0.211 -0.957 47 56 53
-10.6639 19.1393 67.1966 0.366 -0.495 -0.788 72 68 65
-9.7124 18.7592 65.9591 0.463 -0.120 -0.878 105 102 98
-7.4104 18.2498 65.3197 -0.018 -0.628 -0.778 62 55 49
-6.8492 18.1722 65.4317 -0.113 -0.512 -0.852 77 74 68
-4.3030 17.8353 66.0251 -0.160 -0.005 -0.987 25 99 105
-4.0176 17.7977 66.0926 -0.625 -0.492 -0.606 25 129 140
3.4370 16.5634 66.4076 0.253 -0.002 -0.968 71 63 61
3.5969 16.5642 66.5709 0.263 -0.136 -0.955 73 65 63
5.4813 16.2603 66.6970 0.478 -0.681 -0.555 81 64 56
6.4205 16.1948 67.2534 0.078 -0.702 -0.708 64 52 52
6.5666 16.1709 67.2613 0.139 -0.709 -0.692 80 58 59
6.7228 16.1579 67.3414 0.445 -0.793 -0.416 86 65 68
10.2527 15.4517 66.7918 0.397 -0.270 -0.877 86 76 77
10.5541 15.4115 66.8602 -0.684 -0.167 -0.710 78 74 71
10.6723 15.3669 66.7214 -0.382 -0.062 -0.922 77 74 73
10.8178 15.3430 66.7285 -0.313 -0.089 -0.945 77 73 78
10.7599 15.0437 64.9533 -0.201 -0.172 -0.964 62 57 70
13.1150 15.0524 67.3410 -0.043 -0.291 -0.956 67 65 53
14.0543 14.9408 67.6330 -0.169 -0.562 -0.810 98 99 85
14.8371 14.8442 67.8557 -0.280 -0.506 -0.816 106 104 89
15.0179 14.8379 67.9990 -0.517 -0.098 -0.850 110 110 93
15.1709 14.8161 68.0253 0.540 -0.431 -0.723 113 113 95
15.3407 14.8032 68.1203 0.560 -0.453 -0.693 112 113 97
15.5323 14.8018 68.3025 -0.095 -0.300 -0.949 113 113 97
17.2998 14.4970 68.3071 0.028 -0.652 -0.758 111 115 100
17.4542 14.4749 68.3337 0.023 -0.655 -0.755 112 116 99
21.8596 14.0291 70.1480 0.173 -0.404 -0.898 77 89 77
22.0267 14.0092 70.1997 0.137 -0.359 -0.923 79 89 80
22.1821 13.9849 70.2140 0.153 -0.343 -0.927 81 88 80
22.3441 13.9629 70.2489 0.153 -0.343 -0.927 77 88 77
22.6808 13.9234 70.3562 0.185 -0.291 -0.939 66 83 67
22.9365 13.9347 70.6750 0.435 0.003 -0.900 64 85 68
26.5833 13.3784 71.1018 -0.382 0.491 -0.783 62 66 51
35.4261 12.3670 74.0741 -0.211 -0.287 -0.934 29 45 34
36.3051 12.2478 74.2627 -0.131 -0.181 -0.975 112 128 127
-44.6004 27.4702 80.3296 -0.783 -0.413 -0.465 35 53 55
-44.0290 27.2066 79.3935 0.394 -0.361 -0.845 35 53 57
-42.9458 26.9135 78.7928 -0.436 -0.443 -0.783 51 70 76
-42.7251 26.8519 78.6598 -0.384 -0.417 -0.824 113 134 136
-42.4812 26.7765 78.4705 0.288 -0.730 -0.619 177 199 196
-40.6028 26.3481 77.8822 -0.182 -0.366 -0.913 49 61 65
-32.1914 24.0521 73.1032 -0.021 -0.094 -0.995 148 180 199
-32.0371 24.0257 73.1046 -0.027 -0.099 -0.995 167 202 221
-31.6589 24.0080 73.3757 0.153 -0.124 -0.980 171 209 230
-26.9081 22.8216 71.3034 -0.253 -0.439 -0.862 88 121 136
-26.8337 22.9607 72.1663 -0.100 -0.665 -0.740 89 123 135
-23.6522 22.0902 70.3466 -0.045 -0.520 -0.853 94 114 113
-23.4449 22.0106 70.0982 -0.097 -0.247 -0.964 96 116 115
-12.9539 19.6824 67.1785 0.149 0.152 -0.977 73 75 70
-12.8101 19.6586 67.1846 0.157 0.145 -0.977 70 71 66
-12.6554 19.6146 67.0863 0.295 -0.152 -0.943 64 65 60
-10.2441 18.9596 65.7343 0.199 -0.135 -0.971 79 76 69
-5.9795 18.1805 65.4978 0.251 -0.062 -0.966 46 47 34
-4.2796 17.9415 65.8096 -0.013 -0.099 -0.995 30 40 38
-3.4280 17.7682 65.6622 -0.440 -0.413 -0.797 32 50 28
1.8164 16.8367 65.5218 0.629 -0.130 -0.766 87 79 77
2.1127 16.8124 65.6746 0.435 -0.533 -0.726 78 70 68
6.5724 16.2901 67.0884 0.397 -0.655 -0.643 74 32 50
6.7261 16.2748 67.1523 0.454 -0.785 -0.422 84 40 54
10.6840 15.4962 66.6175 0.047 -0.513 -0.857 83 79 76
10.8284 15.4716 66.6193 0.089 -0.336 -0.938 83 78 80
10.8114 15.1996 65.0580 -0.310 -0.433 -0.846 75 67 75
12.4737 15.3585 67.5930 -0.204 -0.972 -0.117 72 67 58
12.5978 15.3190 67.4900 -0.210 -0.971 -0.113 67 62 54
14.8601 14.9841 67.8102 -0.229 -0.179 -0.957 109 103 90
15.0578 14.9875 68.0235 -0.306 -0.108 -0.946 111 106 92
15.2127 14.9666 68.0568 -0.266 -0.468 -0.843 113 109 95
15.3526 14.9375 68.0288 -0.266 -0.468 -0.843 113 109 96
15.4924 14.9083 68.0007 -0.266 -0.468 -0.843 114 110 98
16.8589 14.6051 67.6205 0.204 -0.700 -0.684 112 114 100
17.0559 14.6048 67.8120 -0.118 -0.757 -0.643 111 113 99
17.2125 14.5844 67.8500 -0.140 -0.768 -0.624 112 114 100
22.8025 14.1038 70.6104 0.215 -0.931 -0.294 66 83 67
22.9756 14.0854 70.6756 0.283 -0.496 -0.821 64 85 66
24.6553 13.6483 69.8432 0.198 -0.089 -0.976 69 82 64
24.8542 13.6382 69.9808 0.147 -0.111 -0.983 72 83 66
25.0230 13.6180 70.0321 0.141 -0.223 -0.965 73 84 67
26.4817 13.5590 71.1293 0.631 -0.411 -0.658 90 92 78
26.6802 13.5464 71.2532 -0.231 0.551 -0.802 94 97 82
26.7958 13.5088 71.1530 -0.396 0.542 -0.741 89 91 78
30.2680 13.0220 71.7981 0.562 0.028 -0.826 83 87 70
-45.3536 27.8799 80.9176 -0.301 -0.333 -0.893 39 57 59
-42.8963 27.0594 78.6943 -0.414 -0.420 -0.808 57 76 81
-42.6765 26.9980 78.5632 -0.384 -0.417 -0.824 115 136 136
-42.4808 26.9509 78.4887 -0.208 -0.574 -0.792 150 173 168
-39.2606 26.1990 77.3921 -0.702 -0.078 -0.707 59 70 96
-31.7084 24.1262 73.0820 0.234 -0.021 -0.972 172 210 229
-27.3558 23.0612 71.3269 -0.210 -0.212 -0.954 112 145 160
-27.1984 23.0303 71.3059 -0.219 -0.201 -0.955 111 144 159
-27.0489 23.0058 71.3139 -0.222 -0.180 -0.958 114 147 162
-26.8888 22.9727 71.2830 -0.222 -0.180 -0.958 124 157 172
-23.5847 22.1946 70.1212 -0.234 -0.391 -0.890 95 113 113
-23.4152 22.1500 70.0352 -0.258 -0.360 -0.897 95 115 116
-20.9118 21.7514 70.2274 0.556 0.374 -0.742 40 45 48
-19.6204 21.1591 68.1541 -0.006 -0.066 -0.998 111 119 121
-18.9643 21.2664 69.3943 0.351 -0.103 -0.931 45 50 53
-12.7679 19.7638 66.9714 -0.073 -0.440 -0.895 75 74 70
-6.8059 18.4649 65.4650 0.118 -0.599 -0.792 65 60 56
-4.1137 18.0613 65.8128 -0.580 0.030 -0.814 34 29 31
-3.9719 18.0178 65.7062 -0.565 0.008 -0.825 33 29 30
2.9310 16.9739 66.5470 -0.040 -0.988 -0.147 70 62 60
3.6661 16.6260 65.3066 0.073 -0.095 -0.993 66 57 58
6.5917 16.4240 67.0140 0.393 -0.608 -0.690 94 48 74
6.7469 16.4105 67.0887 0.649 -0.342 -0.679 90 51 67
10.3811 15.6544 66.3709 -0.003 -0.524 -0.852 100 91 89
10.5480 15.6474 66.4940 -0.316 -0.337 -0.887 100 92 89
10.6905 15.6215 66.4866 -0.283 0.311 -0.907 100 92 89
12.4660 15.3551 66.7150 -0.129 -0.115 -0.985 79 71 63
12.6315 15.3441 66.8138 -0.109 -0.263 -0.958 78 69 62
12.7588 15.3079 66.7340 -0.342 -0.214 -0.915 80 71 62
12.8790 15.2673 66.6227 -0.329 -0.151 -0.932 80 72 63
14.5153 15.1309 67.4459 0.395 -0.422 -0.816 97 88 79
14.9851 15.0736 67.5808 0.020 0.101 -0.995 113 103 94
15.1437 15.0555 67.6327 0.174 -0.546 -0.820 106 96 88
15.3011 15.0364 67.6787 0.174 -0.546 -0.820 99 90 81
17.4055 14.7105 67.8916 0.416 -0.757 -0.505 122 123 109
18.6332 14.6247 68.6026 0.818 0.046 -0.574 117 119 108
19.3194 14.6554 69.4420 0.522 0.073 -0.850 116 124 106
26.7525 13.7076 71.3376 0.176 0.134 -0.975 110 112 98
-45.4036 28.0882 81.0484 -0.324 -0.749 -0.578 46 64 66
-45.3246 28.1116 81.2547 -0.319 -0.770 -0.552 47 65 66
-42.8125 27.1845 78.5146 0.221 -0.112 -0.969 61 80 83
-42.6187 27.1384 78.4448 0.131 -0.148 -0.980 130 151 150
-42.4644 27.1161 78.4688 0.131 -0.148 -0.980 168 191 184
-42.2946 27.0844 78.4559 0.155 -0.165 -0.974 156 182 170
-41.1482 26.7431 77.6603 -0.798 -0.013 -0.602 160 171 173
-31.6650 24.2623 72.9830 0.092 -0.202 -0.975 178 216 235
-21.6702 21.8060 68.9337 -0.107 -0.029 -0.994 30 36 34
-21.0483 21.9338 70.2423 0.523 -0.417 -0.743 30 36 36
-19.4543 21.2795 68.1361 -0.398 -0.364 -0.842 112 120 122
-19.2942 21.2384 68.0614 -0.393 -0.361 -0.846 55 60 63
-17.5065 20.8914 67.8506 -0.142 -0.429 -0.892 64 73 78
-7.3503 18.7065 65.4654 -0.474 0.089 -0.876 87 83 74
-3.8065 18.1244 65.6357 -0.504 0.015 -0.863 26 24 23
1.8649 17.1127 65.4622 -0.278 -0.320 -0.906 67 59 57
2.0068 17.0882 65.4628 0.251 -0.469 -0.847 66 58 56
6.4828 16.6018 67.0610 0.679 0.103 -0.727 96 77 82
10.3204 15.8644 66.6503 0.594 -0.212 -0.776 106 97 92
10.4516 15.8292 66.5804 -0.191 0.259 -0.947 105 95 93
10.6002 15.8078 66.6042 -0.250 0.282 -0.926 103 93 91
10.7333 15.7743 66.5459 -0.247 0.286 -0.926 104 94 92
10.9111 15.7751 66.7212 0.549 0.245 -0.799 105 95 93
12.4954 15.4975 66.7010 -0.105 -0.171 -0.980 98 88 79
12.6330 15.4680 66.6692 0.238 0.014 -0.971 107 97 88
12.7697 15.4380 66.6336 -0.329 -0.151 -0.932 114 104 95
12.9047 15.4070 66.5910 -0.329 -0.151 -0.932 106 96 87
15.0153 15.2173 67.5653 -0.236 -0.931 -0.280 120 106 103
17.2526 14.8615 67.7377 0.422 -0.773 -0.473 132 130 118
19.0460 14.8510 69.4031 0.710 -0.180 -0.681 127 120 114
19.1788 14.8176 69.3452 0.571 0.031 -0.820 126 120 111
19.3657 14.8086 69.4751 0.571 0.031 -0.820 123 120 107
19.5582 14.8018 69.6221 0.515 0.097 -0.852 121 120 105
22.9037 14.3311 70.2209 0.270 -0.919 -0.287 75 91 71
26.7988 13.8610 71.3514 0.193 0.268 -0.944 75 77 63
26.9362 13.8296 71.3092 0.016 0.451 -0.892 72 74 61
27.0395 13.7879 71.1763 0.014 0.710 -0.704 75 73 61
29.1919 13.4209 71.2051 -0.426 -0.527 -0.735 99 102 80
29.3235 13.3886 71.1519 -0.426 -0.527 -0.735 91 94 75
37.0254 12.5361 73.8159 0.223 -0.570 -0.791 104 123 119
-46.1478 28.3552 80.8384 0.143 0.540 -0.829 32 47 54
-45.3031 28.2087 80.8360 -0.324 -0.749 -0.578 45 63 67
-42.4534 27.2846 78.4619 0.219 -0.235 -0.947 152 178 170
-42.3052 27.2660 78.5008 0.219 -0.235 -0.947 152 178 166
-40.4611 26.7088 77.1892 -0.052 -0.286 -0.957 52 64 64
-25.6338 22.8488 70.0540 0.315 -0.452 -0.835 146 181 201
-22.9914 22.3130 69.6198 -0.412 -0.210 -0.887 100 113 114
-22.8163 22.2616 69.5033 -0.393 -0.227 -0.891 95 105 104
-21.6370 21.9392 68.8511 -0.426 -0.151 -0.892 30 36 34
-17.6321 21.0620 67.8343 0.034 -0.426 -0.904 62 71 76
-17.4913 21.0432 67.8644 0.063 -0.285 -0.956 63 72 77
-12.7079 20.0183 66.7753 -0.144 -0.284 -0.948 81 80 75
-5.1989 18.4301 65.1796 -0.107 -0.329 -0.938 62 62 54
-5.0576 18.4044 65.1727 -0.176 -0.208 -0.962 47 47 39
-3.1922 18.4376 67.1297 0.412 -0.911 0.025 49 39 67
0.2782 17.3773 64.5965 -0.204 -0.432 -0.878 67 57 56
5.4774 16.6875 65.7470 0.410 -0.862 -0.298 86 72 67
10.3155 15.9798 66.4552 0.629 -0.270 -0.729 90 80 78
10.4656 15.9599 66.4881 -0.320 0.054 -0.946 91 81 79
10.6082 15.9338 66.4801 -0.331 0.047 -0.943 91 81 80
12.5064 15.6274 66.6002 0.170 -0.177 -0.969 115 106 97
12.6678 15.6140 66.6798 0.238 0.014 -0.971 131 122 113
12.8055 15.5846 66.6489 0.185 0.106 -0.977 144 135 126
12.9275 15.5449 66.5465 -0.196 -0.050 -0.979 130 121 112
19.1992 14.9590 69.2888 0.544 -0.444 -0.712 122 112 105
19.6663 14.8901 69.3537 0.393 -0.788 -0.473 118 113 101
22.7210 14.4806 70.0063 0.377 -0.672 -0.638 80 93 75
22.9890 14.4989 70.3617 0.513 -0.512 -0.689 81 93 72
25.9566 14.1071 71.0291 0.396 0.733 -0.553 85 93 78
26.3984 14.0227 70.9848 0.335 -0.337 -0.880 91 89 77
26.7733 13.9919 71.1722 0.445 -0.254 -0.859 75 77 64
27.1677 13.9666 71.4078 0.020 0.709 -0.705 74 72 60
27.2007 13.9029 71.0888 -0.150 0.472 -0.869 60 56 45
29.2628 13.5805 71.2763 -0.435 -0.567 -0.699 101 103 81
34.1264 13.1596 73.5868 -0.094 -0.872 -0.481 46 66 47
40.5930 12.4954 76.0834 0.200 -0.437 -0.877 83 102 100
-42.2854 27.4294 78.4729 0.111 -0.368 -0.923 145 171 160
-37.6725 26.5483 78.0172 -0.689 -0.588 -0.422 159 201 224
-22.7536 22.3672 69.2926 -0.140 -0.558 -0.818 121 131 130
-22.4550 22.3141 69.2845 -0.057 -0.494 -0.868 105 114 109
-22.2958 22.2775 69.2349 -0.103 -0.471 -0.876 47 56 51
-17.4629 21.1781 67.7979 0.152 -0.275 -0.949 64 73 78
-17.3239 21.1618 67.8400 0.063 -0.285 -0.956 62 70 73
-12.5275 20.1073 66.6128 -0.576 -0.042 -0.816 73 74 68
-5.1749 18.5546 65.0788 -0.068 -0.343 -0.937 47 44 37
0.7934 17.2389 63.5321 -0.084 -0.320 -0.944 78 70 68
0.9199 17.1854 63.3599 -0.114 -0.128 -0.985 78 70 68
1.8396 17.2332 64.4859 0.118 -0.279 -0.953 78 70 68
11.9315 15.8503 66.4551 0.151 -0.344 -0.927 99 90 85
12.5374 15.7709 66.5934 0.159 -0.188 -0.969 102 94 85
12.8494 15.7367 66.7009 0.183 0.058 -0.981 110 101 92
19.8628 14.9253 68.8845 -0.171 -0.208 -0.963 109 106 94
26.7881 14.1353 71.1016 0.499 -0.128 -0.857 75 75 63
27.0157 14.1327 71.3013 0.164 0.492 -0.855 74 76 63
29.2107 13.7054 71.0409 0.290 -0.327 -0.899 99 101 77
31.6275 13.2102 70.6194 0.095 -0.302 -0.948 68 77 67
40.6031 12.6477 76.0055 0.208 -0.425 -0.881 100 119 117
-46.1648 28.5159 79.7874 -0.775 -0.371 -0.512 28 45 52
-40.0164 27.0755 77.7522 0.478 -0.807 -0.347 44 58 67
-38.9611 26.6238 76.3009 -0.022 -0.408 -0.913 57 67 81
-32.0389 24.7802 72.8129 -0.567 -0.367 -0.738 159 192 209
-27.7859 23.8901 71.9778 -0.535 -0.250 -0.807 152 187 206
-27.3094 23.6924 71.3559 -0.340 -0.353 -0.871 149 182 201
-27.0117 23.5414 70.8195 0.157 -0.680 -0.717 149 182 201
-21.6133 22.2499 68.8880 -0.168 0.001 -0.986 29 35 35
-9.1154 19.4147 65.2501 -0.150 -0.093 -0.984 67 62 56
1.0728 17.2748 63.2084 0.004 0.197 -0.980 84 76 74
1.8497 17.3402 64.2845 -0.076 -0.434 -0.898 83 75 73
1.9657 17.2663 63.9945 -0.100 -0.562 -0.821 78 70 68
11.5413 16.0771 66.5057 -0.846 -0.289 -0.448 99 90 85
11.6446 16.0218 66.3040 -0.832 -0.273 -0.482 85 76 71
14.6174 15.4700 66.0994 0.101 -0.991 -0.088 109 95 92
15.0630 15.4041 66.1593 -0.142 -0.989 -0.032 97 83 80
18.7520 15.2028 68.5116 0.367 -0.638 -0.677 100 92 89
18.9126 15.1832 68.5553 0.264 -0.493 -0.829 98 94 88
31.3202 13.4015 70.5117 0.093 -0.100 -0.991 89 95 83
31.4710 13.3749 70.5088 0.082 -0.103 -0.991 85 88 76
31.6504 13.3556 70.5721 0.093 -0.272 -0.958 84 88 78
31.7920 13.3266 70.5478 0.132 -0.427 -0.895 83 92 79
31.9728 13.3076 70.6136 0.066 -0.383 -0.922 78 90 76
32.1345 13.2836 70.6351 0.066 -0.383 -0.922 69 81 67
33.3747 13.4617 72.7507 -0.258 -0.240 -0.936 45 56 47
33.5197 13.4320 72.7255 0.099 -0.538 -0.837 52 65 53
40.6169 12.8007 75.9349 0.208 -0.425 -0.881 59 78 76
42.0525 12.7766 77.1429 0.528 -0.642 -0.556 72 89 83
43.3687 12.6650 77.7672 -0.189 0.302 -0.934 24 33 30
-21.6233 22.4288 69.0098 -0.207 -0.055 -0.977 39 45 45
-16.2792 20.9408 65.9991 -0.243 -0.345 -0.907 74 82 83
-1.9574 17.8277 62.5968 0.264 0.223 -0.938 14 244 227
-1.2625 18.4116 66.3530 -0.689 -0.725 -0.020 9 250 234
-1.1521 18.2403 65.5404 -0.740 -0.673 -0.003 9 249 232
1.2772 17.4867 63.7599 -0.117 0.343 -0.932 90 82 79
5.1568 17.0045 64.7651 0.452 -0.611 -0.650 96 90 89
11.5675 16.2174 66.4773 -0.841 -0.189 -0.507 98 90 85
17.3872 15.3426 67.1765 0.412 -0.574 -0.708 96 92 81
17.6775 15.2917 67.1728 0.316 -0.364 -0.876 100 96 87
17.8416 15.2757 67.2387 0.316 -0.364 -0.876 84 80 71
18.0058 15.2597 67.3047 0.316 -0.364 -0.876 84 79 73
18.1704 15.2436 67.3708 0.316 -0.364 -0.876 85 80 74
25.5618 14.3857 69.6096 -0.497 -0.390 -0.775 101 109 94
31.1717 13.5678 70.4192 0.129 -0.370 -0.920 99 105 93
32.0463 13.4659 70.6818 0.152 -0.119 -0.981 60 69 55
35.0547 13.2998 72.5698 0.142 -0.194 -0.971 35 51 40
40.2353 12.9954 75.7234 -0.021 -0.425 -0.905 97 113 111
40.4620 12.9802 75.8513 0.097 -0.404 -0.910 83 102 99
42.0043 12.9199 76.9517 0.536 -0.635 -0.556 126 142 137
42.3473 12.9252 77.2960 0.545 -0.630 -0.553 118 134 129
-31.5421 24.9208 72.3010 -0.152 -0.616 -0.773 136 172 188
-30.4687 24.8328 72.8164 -0.505 -0.216 -0.836 151 186 205
-30.2827 24.8782 73.2259 -0.294 0.047 -0.955 151 186 205
-30.1260 24.8504 73.2221 0.028 0.067 -0.997 151 186 205
-30.0840 25.1159 74.6624 0.209 -0.791 -0.575 152 187 206
-22.0245 22.6288 68.8834 -0.428 -0.167 -0.888 59 66 59
-20.3720 22.1780 68.0106 -0.388 -0.332 -0.860 125 133 135
-19.5908 21.9935 67.7491 -0.089 -0.264 -0.960 102 113 115
-19.4471 21.9709 67.7609 -0.118 -0.270 -0.956 75 85 86
-16.2528 21.0743 65.9413 -0.243 -0.345 -0.907 75 81 81
-12.5455 20.7034 67.3663 -0.396 -0.557 -0.730 92 89 84
-4.8249 18.9942 65.3864 0.298 0.064 -0.952 64 60 56
18.5657 15.3720 67.6065 0.069 -0.997 0.026 89 82 76
23.0742 14.9033 69.2461 -0.077 -0.734 -0.675 93 103 82
25.8128 14.6874 70.6057 0.002 -0.208 -0.978 86 97 81
25.3082 14.2050 67.5972 0.050 -0.303 -0.952 93 95 82
40.0868 13.1758 75.6517 0.022 -0.403 -0.915 101 120 114
40.2561 13.1494 75.6667 0.005 -0.393 -0.920 103 122 116
40.4670 13.1312 75.7634 0.101 -0.401 -0.910 110 129 122
-44.5771 28.5932 78.8842 0.752 -0.450 -0.482 33 51 52
-42.2078 28.0845 78.3652 0.415 -0.606 -0.679 134 164 156
-42.4878 28.4154 79.8423 0.493 0.066 -0.868 128 156 152
-39.9917 27.9090 79.4497 -0.893 0.019 -0.450 48 59 82
-31.5193 25.0712 72.2666 -0.116 -0.562 -0.819 140 176 192
-30.9416 25.0893 72.8832 -0.482 -0.237 -0.843 151 187 203
-30.9480 25.1902 73.4052 -0.392 -0.213 -0.895 151 186 205
-22.3117 22.8391 68.9149 0.053 -0.470 -0.881 64 73 68
-21.8579 22.7519 68.8693 -0.389 -0.159 -0.908 65 71 67
-16.2243 21.2047 65.8695 -0.255 -0.334 -0.908 70 74 73
-12.2916 20.6426 66.4841 -0.638 0.041 -0.769 86 81 75
-11.8361 20.5155 66.2311 -0.659 -0.436 -0.613 102 99 94
-11.6869 20.4778 66.1684 -0.763 -0.300 -0.573 102 99 94
-4.8016 19.1373 65.3808 0.305 -0.010 -0.952 56 48 46
-4.6575 19.0072 64.8307 0.380 -0.271 -0.885 48 40 38
-1.9744 17.7366 60.6113 -0.796 -0.079 -0.600 192 255 98
0.8542 18.0829 64.9783 -0.498 -0.079 -0.863 94 74 71
11.2781 16.5060 66.1523 -0.479 -0.816 -0.324 95 86 78
17.6417 15.6288 67.3156 0.064 -0.676 -0.734 93 86 76
19.1250 15.5798 68.3999 -0.786 -0.579 -0.216 68 61 53
25.3881 14.2894 67.3118 -0.116 -0.425 -0.898 83 83 71
