ply
format ascii 1.0
element vertex 870
property float x
property float y
property float z
property float nx
property float ny
property float nz
property uchar diffuse_red
property uchar diffuse_green
property uchar diffuse_blue
end_header
-23.9923 28.1505 67.4065 -0.333 -0.559 -0.759 82 86 59
-23.7802 28.1316 67.4759 -0.302 -0.488 -0.819 81 86 56
-23.6255 28.1096 67.4545 -0.283 -0.502 -0.817 74 78 51
-12.0091 26.3052 64.4628 -0.620 0.358 -0.698 84 67 60
-11.8909 26.2811 64.3819 -0.699 0.374 -0.609 85 68 61
-11.8601 26.2566 64.1990 -0.167 0.463 -0.871 83 66 59
8.0778 23.8594 65.2664 -0.768 0.350 -0.536 91 84 76
8.0718 23.8370 65.0611 -0.762 0.357 -0.540 96 89 81
8.2780 23.7862 64.8414 -0.507 0.204 -0.837 83 76 68
9.9666 23.6016 65.0954 0.151 -0.550 -0.821 70 63 55
11.1842 23.4741 65.3278 -0.018 -0.831 -0.557 66 59 49
12.0645 23.4011 65.6654 0.238 -0.714 -0.658 65 58 48
13.1186 23.2542 65.5435 -0.681 -0.662 -0.313 68 61 51
13.2023 23.2291 65.4143 -0.681 -0.662 -0.313 48 41 33
13.2859 23.2039 65.2854 -0.681 -0.662 -0.313 57 50 42
13.5046 23.1742 65.2665 -0.476 -0.749 -0.460 63 56 50
13.6346 23.1475 65.1755 -0.476 -0.749 -0.460 66 61 55
14.0889 23.1095 65.3466 -0.038 -0.206 -0.978 74 70 61
-62.9912 37.2572 102.9334 -0.756 -0.023 -0.655 108 114 119
-62.8320 37.2493 103.0388 -0.211 0.201 -0.957 150 158 169
-62.3026 37.3493 104.4929 -0.356 -0.590 -0.724 182 209 207
-61.3666 37.1917 104.1418 -0.891 -0.453 -0.018 45 64 68
-60.7141 36.8282 101.6824 -0.925 -0.141 -0.354 48 69 76
-60.5696 36.7873 101.4832 -0.946 0.076 -0.314 49 70 76
-60.3229 36.6374 100.4442 -0.972 -0.042 -0.229 63 83 90
-58.9185 36.6922 102.4623 -0.627 0.084 -0.775 81 100 100
-57.0216 35.8444 97.1355 -0.726 -0.303 -0.617 45 57 57
-53.7260 34.4166 88.2765 -0.881 -0.063 -0.469 73 85 83
-50.0061 33.8361 87.2833 0.220 -0.269 -0.938 91 97 95
-49.8720 33.8088 87.1918 -0.261 0.330 -0.907 93 97 96
-49.7549 33.7738 87.0139 -0.312 0.417 -0.854 85 87 86
-47.9340 32.9935 82.1945 -0.530 -0.333 -0.780 55 60 53
-45.9091 32.5114 80.2025 -0.640 -0.389 -0.663 109 126 102
-45.7973 32.4815 80.0639 -0.655 -0.382 -0.652 104 125 93
-45.6860 32.4516 79.9246 -0.787 -0.401 -0.469 99 120 90
-43.5008 32.2134 80.2395 -0.785 -0.307 -0.538 63 80 50
-43.1729 31.8926 77.7966 -0.307 -0.010 -0.952 69 76 67
-42.9100 31.8464 77.6814 -0.346 -0.085 -0.934 64 71 63
-38.5541 30.8531 73.7793 -0.330 -0.318 -0.889 59 57 70
-38.0359 30.7626 73.5565 -0.462 -0.325 -0.825 168 191 194
-32.0407 29.6085 70.0463 -0.387 -0.206 -0.899 163 178 181
-31.9176 29.5853 69.9785 -0.411 -0.184 -0.893 98 113 116
-31.7912 29.5624 69.9172 -0.449 -0.210 -0.869 167 182 185
-31.6642 29.5396 69.8570 -0.449 -0.210 -0.869 101 116 119
-30.6916 29.4940 70.5246 -0.293 -0.320 -0.901 114 129 132
-30.5226 29.4748 70.5422 -0.508 -0.149 -0.848 83 101 105
-30.2474 29.4302 70.4542 -0.522 -0.152 -0.839 83 101 105
-28.7234 29.1845 69.9781 -0.293 -0.310 -0.905 119 137 139
-28.6035 29.1605 69.8996 -0.429 -0.299 -0.853 123 141 143
-28.4795 29.1368 69.8289 -0.396 -0.309 -0.865 127 142 145
-26.1143 28.6259 67.9590 -0.724 -0.196 -0.661 159 164 160
-24.6027 28.3478 67.1865 -0.628 -0.355 -0.692 91 95 69
-24.1814 28.3109 67.3256 -0.540 -0.639 -0.548 79 83 56
-23.9926 28.2911 67.3593 -0.208 -0.551 -0.808 77 81 54
-23.7956 28.2716 67.4051 -0.313 -0.507 -0.803 74 79 49
-23.3788 28.2035 67.2673 -0.294 -0.058 -0.954 57 60 40
-11.9554 26.4514 64.4829 -0.626 0.373 -0.685 106 89 82
-11.8369 26.4273 64.4022 -0.697 0.391 -0.601 91 74 67
9.8205 23.7702 64.9280 0.081 -0.556 -0.827 67 60 54
9.9369 23.7442 64.8289 0.170 -0.432 -0.886 64 57 49
10.7142 23.6764 65.0881 -0.037 -0.728 -0.684 78 69 60
10.8327 23.6503 64.9898 0.133 -0.625 -0.769 84 75 66
11.7073 23.5788 65.3241 0.263 -0.683 -0.682 93 84 76
12.2401 23.5399 65.5684 0.263 -0.683 -0.682 87 79 69
12.6557 23.4817 65.5151 -0.056 -0.901 -0.431 78 70 59
13.0450 23.4242 65.4392 -0.641 -0.655 -0.400 76 69 59
12.9765 23.4038 65.1859 -0.800 -0.294 -0.523 55 48 40
13.0268 23.3796 65.0304 -0.646 -0.033 -0.762 59 52 44
14.3663 23.1565 64.5497 -0.139 -0.709 -0.692 80 78 66
-62.2912 37.5106 104.3732 -0.373 -0.584 -0.721 182 207 207
-61.9738 37.4722 104.3825 -0.871 -0.291 -0.397 173 203 201
-61.8237 37.4322 104.1992 -0.893 -0.374 -0.251 181 207 208
-60.8739 37.3011 104.0902 -0.955 -0.025 -0.296 45 63 65
-60.5478 36.9673 101.5664 -0.868 0.286 -0.407 50 69 74
-59.0610 36.8863 102.4650 -0.655 -0.175 -0.735 71 92 93
-57.5961 35.9307 95.8098 -0.237 -0.598 -0.766 54 62 65
-57.4462 35.9086 95.7806 -0.237 -0.598 -0.766 50 58 60
-57.0190 35.9954 96.9868 -0.722 -0.338 -0.604 48 60 60
-49.8454 33.9679 87.2302 -0.291 0.157 -0.944 90 96 94
-49.7178 33.9375 87.1051 -0.314 0.418 -0.853 84 86 85
-49.9112 33.6715 84.6072 -0.864 -0.481 -0.149 70 72 71
-49.7469 33.5753 83.9554 -0.539 -0.750 -0.383 76 78 77
-47.7976 33.1123 82.0619 -0.563 -0.361 -0.744 60 65 58
-47.6685 33.0869 81.9816 -0.579 -0.349 -0.737 56 61 55
-47.5294 33.0652 81.9443 -0.566 -0.339 -0.752 56 61 56
-47.3819 33.0466 81.9421 -0.430 -0.326 -0.842 56 61 57
-47.2693 33.0152 81.7925 -0.050 -0.065 -0.997 55 59 58
-46.5826 32.7651 80.3762 -0.258 -0.246 -0.934 60 70 61
-45.8056 32.6194 79.9561 -0.590 -0.450 -0.670 85 109 71
-44.2451 32.5802 81.2933 -0.676 -0.433 -0.596 67 95 45
-44.7279 32.3760 79.0170 -0.363 -0.497 -0.788 64 94 44
-42.9032 31.9880 77.6351 -0.374 -0.125 -0.919 116 121 115
-42.3828 32.0624 78.8344 -0.381 -0.339 -0.860 113 120 113
-42.2474 32.0395 78.7819 -0.390 -0.339 -0.856 97 104 97
-41.5746 31.8139 77.5623 -0.443 -0.469 -0.764 66 70 69
-41.4188 31.7961 77.5760 -0.142 -0.064 -0.988 76 80 80
-41.2994 31.7699 77.4783 -0.127 -0.173 -0.977 83 88 86
-41.1340 31.7541 77.5197 -0.233 0.011 -0.972 96 98 94
-40.6091 31.4547 75.5054 -0.737 -0.175 -0.652 88 89 86
-39.1333 31.0701 73.7786 -0.735 0.220 -0.641 82 83 79
-38.9929 31.0497 73.7532 -0.311 -0.235 -0.921 81 75 80
-38.6288 31.0236 73.9197 -0.734 -0.314 -0.601 69 62 74
-38.5511 30.9917 73.7281 -0.349 -0.169 -0.922 59 57 69
-38.2880 30.9471 73.6273 -0.336 -0.247 -0.909 45 57 62
-38.1592 30.9244 73.5697 -0.409 -0.227 -0.884 122 140 144
-38.0273 30.9022 73.5199 -0.414 -0.219 -0.884 179 198 203
-36.4156 30.5540 72.2519 -0.374 -0.345 -0.861 165 188 197
-33.4016 30.3171 73.4471 -0.568 -0.811 -0.142 185 205 216
-31.7544 29.7043 69.9395 -0.635 -0.120 -0.763 145 159 161
-30.2362 29.5714 70.4247 -0.612 0.055 -0.789 104 120 124
-30.0135 29.5217 70.2357 -0.641 0.059 -0.765 116 133 136
-29.9080 29.4963 70.1306 -0.616 0.046 -0.786 121 138 141
-29.7693 29.4742 70.0886 -0.655 -0.015 -0.756 129 146 149
-28.7233 29.3251 69.9282 -0.509 -0.272 -0.817 135 152 153
-28.6203 29.2996 69.8191 -0.465 -0.304 -0.832 129 146 147
-26.1273 28.7647 67.8896 -0.721 -0.237 -0.651 164 166 161
-25.6450 28.6392 67.3270 -0.726 -0.201 -0.658 80 82 69
-24.0006 28.4311 67.3002 -0.249 -0.516 -0.820 74 77 51
-23.8168 28.4111 67.3253 -0.313 -0.507 -0.803 69 73 45
-23.6583 28.3896 67.3102 -0.318 -0.509 -0.800 62 65 39
-11.8966 26.5980 64.5089 -0.626 0.373 -0.685 99 82 75
-8.0088 26.1466 64.7952 -0.826 -0.500 -0.259 84 69 62
-7.4444 26.0235 64.3419 0.266 -0.213 -0.940 86 69 62
1.1393 24.9982 64.7267 -0.188 -0.345 -0.919 91 81 71
7.7847 24.1926 64.9241 -0.156 -0.977 -0.148 93 86 78
7.9931 24.1645 64.9059 -0.773 0.117 -0.624 88 81 73
7.9113 24.1434 64.6363 -0.803 -0.359 -0.476 82 75 67
7.9947 24.1184 64.5105 -0.756 -0.355 -0.549 73 66 58
8.1479 24.0688 64.2481 0.053 -0.511 -0.858 67 62 56
8.5545 24.0357 64.3995 0.177 -0.356 -0.918 66 61 55
9.6633 23.9384 64.7514 0.280 -0.384 -0.880 64 57 51
9.9928 23.9067 64.8326 0.284 -0.328 -0.901 66 57 50
10.6851 23.8422 65.0201 0.099 -0.544 -0.833 73 64 57
10.8715 23.8142 64.9787 0.063 -0.599 -0.798 69 60 53
11.1501 23.7835 65.0140 0.148 -0.563 -0.813 78 69 62
11.5309 23.7500 65.1337 0.109 -0.606 -0.788 90 81 73
13.2052 23.5868 65.5264 -0.032 -0.841 -0.541 81 72 63
12.8963 23.5731 65.0766 -0.609 -0.094 -0.787 75 68 58
13.0217 23.5466 64.9826 -0.609 -0.094 -0.787 74 67 59
13.2474 23.5170 64.9701 0.212 0.152 -0.965 72 65 57
13.4630 23.4876 64.9491 0.226 0.151 -0.962 73 64 59
-62.5919 37.7210 104.3444 -0.616 -0.160 -0.771 204 219 224
-62.4378 37.6912 104.2536 -0.694 -0.228 -0.683 189 214 216
-62.2804 37.6700 104.2385 -0.373 -0.584 -0.721 180 206 205
-60.8032 37.2547 102.2666 -0.941 -0.012 -0.338 50 68 72
-60.6827 37.1669 101.6478 -0.962 0.107 -0.250 52 70 74
-60.2861 36.9821 100.4960 -0.977 -0.010 -0.213 79 97 102
-57.8750 36.1426 95.9052 -0.749 -0.257 -0.611 55 64 69
-57.7422 36.1016 95.6967 -0.247 -0.604 -0.758 71 80 85
-57.4485 36.0515 95.5806 -0.260 -0.676 -0.690 51 61 62
-57.0367 35.9465 95.1223 -0.795 -0.211 -0.569 59 69 70
-49.8187 34.1273 87.2686 -0.254 0.014 -0.967 78 84 82
-47.3749 33.1908 81.8889 -0.414 -0.730 -0.543 54 61 59
-47.2857 33.1506 81.6417 0.066 -0.360 -0.931 53 60 55
-46.4152 33.2483 83.3859 -0.611 0.191 -0.769 52 59 55
-44.4743 32.7846 81.4906 -0.958 -0.158 -0.241 67 95 44
-44.9828 32.5650 79.0920 -0.646 -0.501 -0.576 68 95 42
-43.5057 32.2577 78.0359 -0.588 -0.199 -0.784 58 72 49
-43.3852 32.2316 77.9412 -0.632 -0.161 -0.758 53 65 48
-42.9216 32.1230 77.5068 -0.504 -0.044 -0.862 115 122 115
-42.3793 32.2054 78.7766 -0.381 -0.339 -0.860 95 102 95
-42.2536 32.1800 78.6929 -0.444 -0.421 -0.791 82 89 82
-41.5529 31.9600 77.5625 -0.526 -0.430 -0.733 83 85 82
-41.3891 31.9442 77.6004 -0.210 -0.022 -0.978 81 83 80
-41.2545 31.9214 77.5485 -0.151 -0.062 -0.987 80 84 79
-40.9506 31.8837 77.5482 0.034 0.118 -0.992 100 100 95
-40.6175 31.7991 77.1800 -0.785 0.196 -0.588 97 97 91
-38.0520 31.4625 77.0198 -0.879 0.199 -0.432 91 93 90
-39.1061 31.2127 73.7917 -0.729 0.218 -0.649 89 91 89
-38.6263 31.2090 74.2645 -0.432 -0.025 -0.902 73 72 77
-38.5463 31.1304 73.6814 -0.347 -0.180 -0.921 59 61 67
-38.4164 31.1079 73.6271 -0.334 -0.217 -0.917 55 58 64
-38.2808 31.0864 73.5872 -0.359 -0.220 -0.907 49 56 60
-38.1517 31.0637 73.5304 -0.409 -0.227 -0.884 87 96 99
-38.0194 31.0416 73.4816 -0.414 -0.219 -0.884 178 189 192
-37.8214 30.9857 73.2155 -0.799 -0.001 -0.601 165 181 187
-36.4346 30.6885 72.1508 -0.332 -0.254 -0.908 160 189 190
-36.2829 30.6696 72.1493 -0.193 -0.164 -0.968 161 189 191
-34.4279 30.6929 74.2981 -0.415 -0.891 -0.183 178 191 193
-33.8015 30.5286 73.5617 -0.447 -0.877 -0.177 196 208 213
-31.7441 29.8434 69.9089 -0.635 -0.120 -0.763 124 131 132
-30.5331 29.7536 70.4195 -0.328 0.039 -0.944 106 113 116
-30.3731 29.7337 70.4191 -0.252 -0.052 -0.966 118 125 128
-30.2289 29.7122 70.3878 -0.527 -0.128 -0.840 136 143 146
-29.0799 29.5028 69.8185 -0.385 -0.343 -0.857 139 149 149
-28.8167 29.4570 69.7067 -0.380 -0.327 -0.865 143 152 152
-27.7411 29.2756 69.2972 -0.355 -0.189 -0.915 121 129 131
-27.1771 29.1531 68.8504 -0.696 -0.228 -0.681 79 84 82
-27.0468 29.1300 68.7919 -0.060 -0.152 -0.987 86 90 89
-26.1195 28.9048 67.8552 -0.722 -0.256 -0.643 170 172 167
-26.0259 28.8793 67.7371 -0.709 -0.252 -0.659 156 159 152
-24.1861 28.5601 66.9621 -0.360 -0.160 -0.919 69 67 49
-24.0446 28.5072 66.6613 -0.624 -0.403 -0.670 61 59 40
-21.9235 28.2616 66.8070 -0.556 0.005 -0.831 178 179 173
-17.9953 27.6474 65.7228 -0.142 0.069 -0.987 69 60 51
-11.8182 26.7450 64.5579 -0.653 0.368 -0.662 88 71 64
-8.1412 26.2953 64.6062 -0.801 -0.498 -0.332 85 67 63
-8.0563 26.2705 64.4851 -0.775 -0.527 -0.347 82 64 60
-8.1253 26.2200 63.9834 -0.899 0.198 -0.390 74 57 50
-7.5037 26.1726 64.2349 0.310 -0.221 -0.925 85 68 61
-7.4790 26.1477 64.0498 0.269 0.115 -0.956 85 68 61
4.8634 24.6242 64.0941 -0.837 0.298 -0.460 92 83 72
4.9576 24.5991 63.9799 -0.665 -0.584 -0.465 85 79 67
4.9638 24.5757 63.7879 -0.678 -0.621 -0.392 88 82 70
9.7068 24.1010 64.7449 0.167 -0.652 -0.740 59 52 44
10.1173 24.0677 64.8942 0.170 -0.635 -0.754 65 56 49
10.2871 24.0403 64.8398 -0.485 -0.788 -0.379 74 65 58
10.6998 24.0067 64.9888 0.118 -0.577 -0.808 75 66 57
10.7627 23.9819 64.8442 0.063 -0.599 -0.798 75 66 57
11.0021 23.9526 64.8471 0.146 -0.569 -0.809 84 75 66
11.3670 23.9199 64.9538 0.073 -0.631 -0.772 91 82 74
11.6433 23.8895 64.9861 -0.130 -0.808 -0.574 91 82 72
11.8779 23.8601 64.9832 -0.097 -0.809 -0.580 81 73 62
12.9492 23.7616 65.2729 0.140 -0.815 -0.562 81 72 63
12.7239 23.7446 64.8922 -0.589 -0.529 -0.611 79 70 61
12.7720 23.7202 64.7358 0.018 -0.062 -0.998 78 69 62
13.2432 23.6839 64.9230 0.323 -0.179 -0.929 79 70 63
13.5783 23.6513 64.9986 0.370 -0.167 -0.914 80 71 64
14.0262 23.5009 64.1927 -0.043 -0.759 -0.650 74 72 59
-63.8531 38.6535 109.3744 -0.596 0.557 -0.579 109 105 93
-62.5769 37.8912 104.3083 -0.605 -0.165 -0.779 202 217 222
-62.4242 37.8576 104.1843 -0.694 -0.228 -0.683 180 208 208
-62.2697 37.8290 104.1040 -0.373 -0.584 -0.721 183 211 212
-60.9014 37.5297 103.0085 -0.358 -0.595 -0.720 34 53 57
-60.3523 37.2993 101.6450 -0.974 0.160 -0.159 53 72 78
-59.7542 36.9046 98.9575 -0.796 0.010 -0.605 96 122 121
-57.8544 36.3107 95.9432 -0.796 -0.147 -0.587 59 68 73
-57.0399 36.0886 94.9231 -0.748 -0.260 -0.611 58 68 69
-55.8355 36.0803 96.0937 -0.483 0.497 -0.721 59 67 70
-52.9481 34.8932 89.1311 -0.641 -0.249 -0.726 66 76 75
-51.7783 35.0539 91.6817 -0.548 -0.759 -0.350 73 79 79
-50.0528 33.9776 84.4497 -0.837 -0.530 -0.136 62 67 63
-49.9742 33.9265 84.1030 -0.882 -0.446 -0.153 57 62 58
-47.9065 33.4282 82.0617 -0.777 -0.229 -0.586 66 77 63
-47.8023 33.3929 81.8738 -0.656 -0.337 -0.675 64 74 61
-47.3915 33.3260 81.7363 -0.418 -0.733 -0.537 47 59 53
-46.3968 33.3998 83.3786 -0.606 0.215 -0.766 63 74 66
-46.4336 33.0278 80.2269 -0.537 -0.211 -0.817 72 85 69
-46.1713 32.9803 80.0998 -0.543 -0.194 -0.817 50 65 43
-46.0380 32.9573 80.0447 -0.472 -0.255 -0.844 61 81 53
-45.9100 32.9325 79.9690 -0.424 -0.235 -0.875 65 91 54
-45.7973 32.9027 79.8353 -0.472 -0.309 -0.826 61 89 48
-45.6615 32.8805 79.7898 -0.532 -0.145 -0.834 59 88 47
-43.3816 32.3723 77.8838 -0.576 -0.198 -0.793 92 102 91
-43.1373 32.3211 77.7068 -0.652 -0.203 -0.731 121 127 124
-38.2884 31.6593 77.1622 0.103 -0.295 -0.950 100 102 99
-38.0921 31.6480 77.2700 0.080 -0.295 -0.952 94 96 93
-37.9786 31.6202 77.1542 -0.868 -0.044 -0.495 94 96 93
-38.6160 31.3496 74.2319 -0.422 -0.053 -0.905 72 73 77
-38.5270 31.2718 73.6727 -0.306 0.045 -0.951 59 62 67
-38.4000 31.2488 73.6106 -0.347 -0.198 -0.917 53 56 61
-38.3057 31.1734 73.0765 -0.576 0.226 -0.786 67 72 76
-38.1812 31.1501 73.0102 -0.687 0.203 -0.698 157 163 166
-37.8826 31.1125 73.0030 -0.633 0.166 -0.756 169 182 188
-36.4330 31.0919 74.3236 -0.831 -0.113 -0.545 162 179 183
-34.6768 30.7977 73.6701 -0.748 -0.336 -0.573 197 208 210
-31.3557 30.0261 70.6321 -0.451 0.050 -0.891 96 102 102
-30.9636 29.9577 70.4631 -0.479 0.013 -0.878 127 133 133
-28.5503 29.5517 69.5507 -0.433 -0.398 -0.809 109 118 117
-27.1568 29.2949 68.8369 -0.667 -0.257 -0.700 77 81 80
-27.0319 29.2715 68.7692 -0.060 -0.152 -0.987 91 95 94
-26.8660 29.2514 68.7720 -0.073 -0.161 -0.984 129 133 132
-24.1969 28.6992 66.8987 -0.445 -0.233 -0.865 69 66 51
-24.1134 28.6733 66.7682 -0.765 -0.192 -0.615 67 61 47
-23.8030 28.6618 66.9918 -0.439 -0.051 -0.897 66 61 47
-23.4419 28.5910 66.7711 -0.178 -0.246 -0.953 72 75 64
-22.6144 28.4557 66.4906 -0.434 -0.140 -0.890 182 185 174
-20.4817 28.1476 66.1086 -0.258 0.151 -0.954 96 97 91
-17.3960 27.6708 65.2956 -0.304 -0.308 -0.901 79 69 59
-17.2443 27.6480 65.2613 -0.282 -0.293 -0.914 79 69 59
-16.9136 27.6033 65.2277 -0.528 -0.500 -0.686 81 68 59
-12.3581 26.9342 64.3194 -0.531 -0.776 -0.340 88 71 63
-8.2639 26.4434 64.4282 -0.907 0.212 -0.364 85 68 61
-8.2084 26.4183 64.2753 -0.907 0.212 -0.364 75 57 53
-8.1531 26.3933 64.1228 -0.907 0.212 -0.364 103 86 79
-8.0906 26.3683 63.9788 -0.899 0.198 -0.390 105 88 81
-7.4379 26.3220 64.2634 0.322 -0.231 -0.918 85 68 61
3.2566 24.9974 64.1916 -0.593 -0.799 -0.099 82 72 63
3.5035 24.9701 64.2173 -0.237 -0.846 -0.479 83 73 63
3.4823 24.9466 63.9982 0.471 0.077 -0.879 85 75 65
7.6094 24.4265 63.8964 0.046 -0.877 -0.478 59 54 48
8.0071 24.3950 64.0416 0.078 -0.865 -0.496 59 54 48
8.5073 24.3610 64.2730 0.178 -0.752 -0.634 59 54 48
10.1102 24.2085 64.6476 0.094 -0.146 -0.985 79 70 63
10.7451 24.1470 64.7860 -0.018 -0.137 -0.990 86 77 68
10.9574 24.1185 64.7664 -0.021 -0.145 -0.989 95 86 77
11.3683 24.0618 64.7148 -0.064 -0.323 -0.944 87 79 69
11.5988 24.0327 64.7092 -0.064 -0.323 -0.944 81 73 62
11.9051 24.0018 64.7657 -0.265 -0.373 -0.889 80 72 61
12.8040 23.8855 64.7183 -0.010 -0.386 -0.922 64 55 48
13.2684 23.8500 64.8998 0.323 -0.179 -0.929 65 56 49
13.6112 23.8176 64.9815 0.370 -0.167 -0.914 85 76 69
14.3062 23.7522 65.1497 -0.700 -0.130 -0.703 92 85 75
-62.2562 37.9954 104.0364 -0.611 -0.093 -0.786 188 217 217
-60.9433 37.5856 101.9785 -0.571 -0.596 -0.564 34 53 57
-60.6301 37.5456 101.9643 -0.915 0.230 -0.333 40 61 66
-60.4022 37.3512 100.5887 -0.744 0.538 -0.396 52 72 78
-57.0392 36.2342 94.7613 -0.596 -0.374 -0.710 58 68 69
-56.8953 36.2070 94.6818 -0.813 -0.194 -0.549 49 59 60
-56.7667 36.1642 94.4585 -0.777 -0.163 -0.608 51 61 63
-56.6284 36.1317 94.3300 -0.743 -0.145 -0.653 56 66 68
-56.4648 36.1245 94.4354 -0.489 0.272 -0.828 56 66 68
-55.7945 36.2680 96.2965 -0.477 0.492 -0.728 65 75 77
-53.9863 35.2957 90.0941 -0.758 -0.121 -0.641 85 95 94
-53.8576 35.2620 89.9463 -0.756 -0.144 -0.638 92 102 101
-52.9305 34.9336 88.1703 -0.539 0.204 -0.817 67 77 76
-52.4226 35.0303 89.4815 -0.783 0.263 -0.563 72 81 80
-47.8964 33.5734 82.0214 -0.734 -0.133 -0.666 52 68 49
-47.7764 33.5442 81.9020 -0.567 -0.032 -0.823 46 62 45
-46.4562 33.5977 83.6757 -0.327 -0.191 -0.925 62 78 68
-46.3468 33.5630 83.5001 -0.427 0.220 -0.877 66 83 70
-46.1507 33.1275 80.1025 -0.543 -0.317 -0.778 40 61 30
-46.0247 33.1020 80.0191 -0.486 -0.426 -0.763 55 81 45
-44.3037 32.7349 78.7254 -0.546 -0.110 -0.831 94 113 84
-42.1769 32.4254 78.3161 -0.625 -0.569 -0.535 54 59 55
-42.2884 32.2810 77.0118 -0.451 -0.219 -0.865 72 74 71
-42.1586 32.2576 76.9501 -0.451 -0.219 -0.865 74 75 70
-40.9021 32.2338 78.0213 0.183 0.384 -0.905 86 84 79
-40.6081 31.8706 75.3195 -0.573 -0.073 -0.816 70 69 65
-40.4635 31.8511 75.3043 -0.573 0.021 -0.819 70 69 67
-38.3543 31.7891 76.9210 0.121 -0.298 -0.947 106 108 105
-38.1365 31.7826 77.0878 -0.691 0.065 -0.720 93 95 92
-38.4528 31.4718 74.2028 -0.212 -0.135 -0.968 65 69 72
-38.5148 31.4119 73.6456 -0.414 -0.215 -0.884 59 63 66
-38.2495 31.3210 73.1624 -0.739 -0.271 -0.616 59 64 67
-38.1364 31.2955 73.0664 -0.749 -0.131 -0.650 118 124 127
-37.3599 31.1610 72.7397 -0.188 0.001 -0.982 164 177 183
-35.8986 31.0964 73.6807 -0.302 -0.164 -0.939 179 207 205
-35.7603 31.0745 73.6401 -0.302 -0.164 -0.939 181 209 207
-35.3175 31.0134 73.5819 -0.107 0.062 -0.992 202 217 217
-35.1317 30.9989 73.6505 -0.476 -0.357 -0.803 206 220 220
-35.0068 30.9748 73.5769 -0.620 -0.348 -0.703 205 219 219
-32.8925 30.5233 71.9834 -0.520 -0.160 -0.839 96 106 107
-32.6541 30.4741 71.8183 -0.521 -0.132 -0.843 112 122 123
-31.2685 30.1375 70.4379 -0.455 -0.261 -0.851 123 127 126
-30.0945 29.9695 70.2355 -0.542 -0.300 -0.785 147 151 152
-29.8645 29.9203 70.0612 -0.873 -0.204 -0.443 125 129 130
-27.1579 29.4350 68.7864 -0.667 -0.257 -0.700 111 115 114
-26.9771 29.4164 68.8153 0.052 0.071 -0.996 120 124 123
-26.8176 29.3959 68.8068 0.010 0.084 -0.996 142 146 145
-24.6577 28.9345 67.1775 -0.736 -0.290 -0.611 83 81 69
-24.2103 28.8378 66.8315 -0.444 -0.227 -0.867 80 76 64
-24.1221 28.8122 66.7083 -0.765 -0.193 -0.615 80 74 62
-23.7843 28.8031 66.9745 -0.439 -0.051 -0.897 80 73 63
-23.4201 28.7324 66.7585 -0.173 -0.365 -0.915 79 81 72
-17.3217 27.7879 65.1154 -0.425 -0.392 -0.816 89 79 69
-17.3181 27.7598 64.8871 -0.164 -0.624 -0.764 89 79 69
-11.3178 26.9669 64.3976 0.032 -0.244 -0.969 81 66 59
-11.1293 26.9439 64.3974 0.032 -0.262 -0.965 86 71 64
-11.1590 26.9169 64.1451 -0.101 -0.359 -0.928 95 78 71
-8.2163 26.5926 64.4377 -0.857 0.348 -0.380 86 69 61
-8.0558 26.5169 63.9741 -0.899 0.198 -0.390 112 95 88
-7.8157 26.4935 64.0232 -0.267 -0.569 -0.778 84 67 60
-7.3087 26.4466 64.1482 0.268 0.082 -0.960 81 64 57
3.1562 25.1562 64.0569 -0.619 -0.779 -0.102 72 63 54
3.4115 25.1291 64.0905 -0.238 -0.846 -0.477 85 75 65
7.5852 24.6591 64.4225 -0.190 -0.822 -0.537 66 59 51
9.2358 24.4614 64.4564 0.267 0.055 -0.962 62 55 49
9.5452 24.4314 64.5216 0.294 -0.045 -0.955 67 60 54
9.9365 24.3998 64.6550 0.290 -0.036 -0.956 77 70 62
10.1358 24.3719 64.6258 0.094 -0.146 -0.985 79 70 63
10.8022 24.3103 64.7903 -0.009 -0.305 -0.952 81 72 65
11.1018 24.2801 64.8431 -0.211 -0.209 -0.955 90 81 74
11.5031 24.2237 64.7829 -0.166 -0.382 -0.909 81 73 63
11.7204 24.1951 64.7661 -0.097 -0.381 -0.920 77 69 58
11.8860 24.1677 64.7065 -0.589 -0.156 -0.793 80 72 61
12.8432 24.0507 64.7066 -0.002 -0.437 -0.900 65 56 49
13.3030 24.0160 64.8841 0.347 -0.180 -0.921 65 56 49
13.5673 23.9859 64.9024 0.332 -0.216 -0.918 83 74 67
13.9877 23.9518 65.0456 -0.386 -0.606 -0.696 83 74 67
14.2589 23.9214 65.0678 -0.486 0.148 -0.861 82 75 65
14.3986 23.8942 64.9843 -0.486 0.148 -0.861 77 73 61
14.4357 23.8226 64.4309 -0.623 -0.014 -0.782 72 70 57
-62.2402 38.1683 104.0252 -0.560 0.142 -0.817 186 215 213
-62.0878 38.1343 103.8991 -0.424 0.027 -0.905 63 88 88
-60.9319 37.7469 101.8870 -0.766 -0.397 -0.506 35 52 56
-60.4903 37.6344 101.4075 -0.985 0.004 -0.170 40 59 64
-56.4410 36.2937 94.4935 -0.238 -0.394 -0.888 62 72 74
-55.9294 36.6291 97.7309 0.229 0.513 -0.827 67 77 79
-55.7164 36.4918 96.8232 -0.621 0.594 -0.512 65 75 77
-53.7129 35.3845 89.7867 -0.710 0.019 -0.704 81 90 89
-52.1687 34.9966 88.1546 -0.976 0.047 -0.212 82 91 90
-50.1234 34.2263 83.9046 -0.877 -0.373 -0.301 63 70 62
-49.9273 34.1429 83.4194 -0.862 -0.397 -0.315 70 77 69
-48.2915 34.2040 85.5350 -0.724 -0.082 -0.685 65 80 61
-48.1459 34.1827 85.5048 -0.555 -0.044 -0.831 65 80 61
-47.9636 34.1773 85.6416 -0.415 -0.351 -0.839 62 78 59
-47.8515 34.1411 85.4574 -0.502 -0.175 -0.847 55 72 53
-47.8773 33.7221 82.0199 -0.779 -0.141 -0.611 33 52 32
-46.5802 33.7719 83.7083 -0.384 -0.439 -0.813 77 98 84
-46.4329 33.7516 83.6882 -0.198 -0.375 -0.906 65 86 69
-46.3243 33.7164 83.5095 -0.424 0.109 -0.899 55 77 56
-45.8818 33.2224 79.9237 -0.454 -0.435 -0.778 59 91 49
-45.7627 33.1945 79.8146 -0.468 -0.483 -0.740 57 92 48
-44.2885 32.8795 78.7067 -0.542 -0.126 -0.831 101 120 92
-44.1836 32.8481 78.5545 -0.724 -0.128 -0.678 84 99 80
-42.7846 32.5197 77.2638 -0.734 -0.264 -0.626 51 55 54
-42.2871 32.4206 76.9489 -0.479 -0.170 -0.861 80 81 76
-42.1449 32.4005 76.9261 -0.440 -0.229 -0.868 80 81 76
-42.0258 32.3744 76.8314 -0.355 -0.226 -0.907 81 80 76
-38.7087 31.6568 74.2674 -0.409 -0.066 -0.910 84 88 89
-38.5697 31.6358 74.2343 -0.422 -0.061 -0.905 70 74 75
-38.4957 31.5534 73.6364 -0.492 -0.221 -0.842 59 63 66
-36.4628 31.3677 74.1343 -0.469 -0.030 -0.883 166 178 184
-36.3351 31.3440 74.0677 -0.523 -0.029 -0.852 171 190 192
-36.2423 31.3141 73.9163 -0.483 0.197 -0.853 182 203 204
-35.8799 31.2396 73.6681 -0.271 -0.197 -0.942 198 220 221
-35.3154 31.1542 73.5302 -0.049 0.104 -0.993 181 196 196
-35.1337 31.1393 73.5892 -0.476 -0.357 -0.803 178 190 190
-32.7786 30.6380 71.8359 -0.423 -0.082 -0.903 133 143 144
-32.6630 30.6130 71.7463 -0.411 -0.094 -0.907 140 150 151
-32.5456 30.5882 71.6604 -0.385 -0.097 -0.918 146 156 157
-31.6927 30.3799 70.8077 -0.644 -0.280 -0.711 144 152 155
-31.5615 30.3572 70.7523 -0.644 -0.270 -0.716 148 152 152
-31.2500 30.2789 70.4232 -0.511 -0.416 -0.753 125 129 128
-27.2033 29.5709 68.6590 -0.748 -0.214 -0.628 137 141 140
-26.9993 29.5546 68.7284 -0.013 0.056 -0.998 143 147 146
-26.9641 29.5231 68.5062 -0.739 -0.023 -0.673 154 158 157
-25.4645 29.2425 67.7044 -0.215 -0.260 -0.941 89 92 80
-24.1228 28.9835 66.9224 0.050 -0.194 -0.980 94 87 77
-23.8247 28.9403 66.8654 -0.546 0.098 -0.832 92 85 75
-23.3267 28.9106 67.1161 -0.594 0.118 -0.796 91 90 80
-23.2490 28.8840 66.9758 -0.738 -0.055 -0.673 87 89 81
-18.1522 28.1866 66.3370 0.277 -0.109 -0.955 75 56 50
-17.3553 27.9290 65.0273 -0.539 0.032 -0.842 83 73 63
-10.8623 27.0421 64.2264 -0.916 0.060 -0.397 98 81 74
-8.0014 26.6657 63.9907 -0.873 0.250 -0.419 84 67 60
-7.7608 26.6426 64.0402 0.036 -0.325 -0.945 76 59 52
-7.4575 26.6200 64.1568 0.278 -0.224 -0.934 78 61 54
-7.4200 26.5945 63.9856 0.018 -0.321 -0.947 78 61 54
-2.6195 25.9838 63.7600 -0.077 0.461 -0.884 84 70 61
2.9107 25.3158 63.7896 -0.420 -0.801 -0.427 66 58 47
3.2574 25.2881 63.9072 -0.130 -0.569 -0.812 83 75 64
7.0005 24.8777 64.2671 -0.013 -0.804 -0.595 74 67 59
7.2445 24.8499 64.2817 -0.039 -0.814 -0.579 75 68 58
10.4185 24.5305 64.8198 -0.255 -0.031 -0.966 72 63 56
10.8846 24.4734 64.8156 -0.235 -0.230 -0.944 75 66 57
12.4384 24.2495 64.5290 0.345 -0.165 -0.924 73 64 55
12.8627 24.2164 64.6789 0.352 -0.140 -0.925 71 62 55
13.3154 24.1825 64.8506 0.355 -0.238 -0.904 71 62 55
13.4961 24.1545 64.8012 0.191 -0.416 -0.889 83 74 67
14.0391 24.1182 65.0432 -0.149 -0.707 -0.691 84 75 66
14.2599 24.0892 65.0248 -0.185 -0.758 -0.626 82 75 65
14.2810 24.0647 64.8465 -0.466 -0.459 -0.757 77 73 62
14.1795 23.9957 64.1844 -0.552 0.050 -0.832 69 67 54
-62.3757 38.3782 104.1632 -0.618 0.157 -0.770 207 233 230
-62.0714 38.3083 103.8966 -0.424 0.027 -0.905 26 46 47
-56.7292 36.4927 94.4857 -0.254 -0.382 -0.889 61 71 73
-56.5805 36.4706 94.4526 -0.254 -0.382 -0.889 69 79 81
-56.4280 36.4523 94.4529 -0.299 -0.399 -0.867 69 78 83
-55.8709 36.3260 93.9786 -0.809 0.005 -0.588 58 68 70
-55.8008 36.2300 93.2745 -0.969 0.158 -0.189 57 67 69
-55.2572 35.9485 91.5397 -0.474 -0.296 -0.829 70 80 82
-55.1345 35.9068 91.3234 -0.618 -0.136 -0.774 80 90 92
-54.9978 35.8774 91.2196 -0.618 -0.136 -0.774 81 91 93
-54.8563 35.8521 91.1541 -0.659 -0.133 -0.741 81 91 93
-52.1508 35.1522 88.1522 -0.976 0.045 -0.214 80 89 88
-50.2675 34.3863 83.8234 -0.467 -0.111 -0.877 69 76 68
-50.1344 34.3618 83.7556 -0.467 -0.111 -0.877 69 77 66
-50.0012 34.3373 83.6877 -0.467 -0.111 -0.877 69 79 68
-48.9727 34.1246 82.9760 -0.453 -0.207 -0.867 65 80 61
-48.2654 34.3615 85.5649 -0.645 -0.075 -0.761 65 80 61
-48.1322 34.3345 85.4772 -0.658 -0.135 -0.741 65 80 61
-47.9857 34.3135 85.4507 -0.702 -0.094 -0.706 63 78 59
-47.7693 33.8288 81.7656 -0.748 -0.265 -0.608 34 53 34
-47.3901 33.7495 81.4956 -0.562 -0.197 -0.803 64 87 67
-46.7574 33.9250 83.5191 -0.434 -0.504 -0.747 66 88 67
-46.5659 33.9224 83.6841 -0.199 -0.448 -0.872 60 82 61
-46.0915 33.8737 83.7529 0.269 -0.705 -0.657 51 74 48
-45.8827 33.3621 79.8439 -0.451 -0.162 -0.877 59 91 49
-44.2837 33.0208 78.6515 -0.522 -0.249 -0.816 87 106 82
-43.0197 32.7124 77.3987 -0.749 -0.203 -0.630 61 63 63
-41.9599 32.5311 76.9694 -0.276 -0.561 -0.780 84 83 79
-41.7993 32.5158 77.0020 -0.113 -0.563 -0.819 86 85 81
-38.7034 31.7963 74.2215 -0.371 -0.185 -0.910 79 84 85
-38.5535 31.7777 74.2172 -0.422 -0.061 -0.905 69 73 74
-38.4886 31.6925 73.5957 -0.492 -0.221 -0.842 57 61 64
-36.4413 31.5119 74.1288 -0.466 -0.025 -0.885 188 201 207
-36.3135 31.4882 74.0622 -0.466 -0.025 -0.885 191 204 207
-31.2278 30.4208 70.4157 -0.421 -0.317 -0.850 87 91 90
-31.1061 30.3970 70.3420 -0.513 -0.318 -0.798 88 92 91
-26.9084 29.6680 68.5538 -0.770 -0.032 -0.638 154 158 157
-26.3729 29.4743 67.5165 -0.418 -0.537 -0.733 140 143 136
-23.5027 29.0711 67.0583 -0.350 -0.098 -0.932 99 95 84
-21.0020 28.6337 65.9682 -0.029 0.067 -0.997 97 96 91
-19.9986 28.4465 65.4361 -0.636 -0.174 -0.752 67 58 53
-19.0868 28.2550 64.7816 -0.308 0.462 -0.832 76 59 52
-17.3196 28.0728 65.0304 -0.544 0.029 -0.839 65 55 45
-10.9282 27.1869 64.1079 -0.190 -0.737 -0.649 99 82 75
-8.0956 26.8921 64.4845 -0.847 0.349 -0.401 86 69 59
-7.7503 26.7912 64.0090 -0.198 0.133 -0.971 74 57 50
-7.3890 26.7436 63.9764 0.059 -0.277 -0.959 78 61 54
-2.9422 26.2371 64.2168 -0.497 -0.773 -0.394 85 71 60
-2.9085 26.2115 64.0444 0.312 -0.592 -0.743 88 74 63
-2.7325 26.1866 64.0147 0.236 -0.433 -0.870 89 75 64
5.0155 25.2082 63.6635 -0.208 0.703 -0.680 95 87 76
9.3223 24.8102 64.6403 0.207 -0.124 -0.970 62 55 49
9.5639 24.7820 64.6478 0.261 -0.232 -0.937 63 56 50
9.8335 24.7533 64.6784 0.195 -0.212 -0.958 63 56 50
10.2130 24.7227 64.8009 0.196 -0.077 -0.977 65 58 52
10.7533 24.6403 64.6626 -0.255 -0.213 -0.943 69 60 51
11.2610 24.4618 63.7197 0.474 -0.173 -0.863 78 69 60
11.9524 24.4244 64.0901 0.458 -0.112 -0.882 78 69 60
12.6045 24.3876 64.4259 0.457 -0.115 -0.882 79 70 63
13.3270 24.3490 64.8163 0.379 -0.210 -0.901 77 68 61
13.7873 24.3154 64.9924 0.347 -0.165 -0.923 83 74 67
14.1124 24.2843 65.0583 -0.766 -0.148 -0.625 83 74 65
14.2905 24.2563 65.0055 -0.838 -0.134 -0.529 83 76 66
14.3752 24.2302 64.8780 -0.838 -0.134 -0.529 76 72 61
-62.0586 38.4725 103.8124 -0.423 0.036 -0.906 51 68 68
-61.3449 38.1990 102.3219 -0.799 -0.057 -0.599 39 49 48
-59.6719 37.6010 99.1693 -0.425 0.355 -0.832 67 78 76
-59.5419 37.5427 98.8312 -0.758 0.189 -0.624 61 72 70
-55.8556 36.4865 93.9587 -0.809 0.005 -0.588 59 69 71
-55.4070 36.1102 91.4003 -0.672 -0.230 -0.704 70 80 81
-55.2623 36.0877 91.3595 -0.670 -0.231 -0.705 70 80 81
-55.1302 36.0542 91.2192 -0.614 -0.093 -0.784 79 89 91
-54.9925 36.0257 91.1244 -0.611 -0.087 -0.787 81 91 93
-54.8492 36.0021 91.0732 -0.636 -0.069 -0.768 82 92 94
-54.7182 35.9681 90.9285 -0.610 -0.075 -0.789 84 94 96
-54.5848 35.9364 90.8034 -0.624 -0.045 -0.780 86 96 98
-54.2170 35.8167 90.2044 -0.382 -0.318 -0.868 81 91 92
-54.0747 35.7929 90.1505 -0.382 -0.318 -0.868 81 91 90
-48.9472 34.2775 83.0060 -0.417 -0.170 -0.893 66 81 62
-47.5395 34.3142 84.6346 -0.720 -0.257 -0.644 49 66 48
-47.4259 34.2793 84.4663 -0.777 -0.242 -0.581 50 67 49
-47.7588 33.9738 81.7273 -0.757 -0.245 -0.606 53 72 52
-47.4785 33.8538 81.0422 -0.705 -0.191 -0.683 63 86 58
-46.7601 34.0681 83.4241 -0.434 -0.504 -0.747 57 80 51
-46.5804 34.0613 83.5404 -0.176 -0.428 -0.886 55 79 48
-46.3517 33.6173 80.2372 -0.575 0.220 -0.788 62 85 57
-46.2278 33.5908 80.1448 -0.601 0.222 -0.768 57 77 50
-46.1066 33.5633 80.0420 -0.601 0.222 -0.768 35 58 29
-45.9762 33.5393 79.9751 -0.108 0.163 -0.981 55 81 48
-44.2871 33.1594 78.5676 -0.512 -0.284 -0.811 58 77 60
-43.6145 32.9845 77.8203 -0.491 -0.254 -0.834 80 91 83
-42.8992 32.8254 77.2387 -0.748 -0.162 -0.644 62 67 63
-42.6797 32.7675 76.9874 -0.638 -0.153 -0.755 77 81 80
-39.7651 32.0590 74.1388 -0.886 -0.125 -0.446 92 92 90
-38.6933 31.9368 74.1885 -0.366 -0.176 -0.914 77 81 82
-38.5321 31.9207 74.2139 -0.336 -0.037 -0.941 68 72 73
-38.4844 31.8310 73.5477 -0.491 -0.213 -0.845 56 60 63
-36.4204 31.6560 74.1220 -0.267 -0.206 -0.941 170 182 188
-32.8862 30.9442 71.8358 -0.598 0.079 -0.798 154 164 165
-32.7622 30.9203 71.7636 -0.418 -0.055 -0.907 152 162 163
-32.5329 30.8697 71.5807 -0.578 0.066 -0.813 146 156 157
-31.5506 30.6372 70.6704 -0.699 -0.124 -0.704 49 53 53
-31.4088 30.6159 70.6363 -0.703 -0.091 -0.705 52 56 55
-24.8158 29.4749 67.8535 -0.481 -0.076 -0.873 62 66 52
-23.2969 29.1288 66.5517 -0.557 -0.416 -0.719 96 99 90
-22.8138 29.0665 66.5173 -0.414 -0.310 -0.856 174 177 168
-22.1839 28.9819 66.4446 -0.160 -0.186 -0.969 175 176 168
-20.4390 28.7465 66.2363 -0.338 0.024 -0.941 101 100 95
-20.1731 28.6384 65.6318 -0.572 -0.329 -0.751 72 63 58
-18.9780 28.4011 64.8853 -0.350 0.440 -0.827 78 61 54
-16.6687 28.2449 65.8415 -0.386 -0.360 -0.849 65 55 45
-8.1333 27.0403 64.4002 -0.977 -0.208 -0.049 86 69 59
-8.2060 27.0121 64.1070 -0.512 -0.315 -0.800 85 68 60
-8.1165 26.9869 63.9922 -0.499 -0.326 -0.803 85 68 61
-8.0093 26.9620 63.8970 -0.425 -0.400 -0.812 86 69 62
-7.5654 26.8895 63.7440 -0.445 -0.441 -0.780 78 61 54
-3.1584 26.3883 63.9568 -0.865 -0.501 0.028 85 71 60
-2.8531 26.3384 63.8517 0.342 -0.524 -0.780 97 83 72
-1.7066 26.2410 64.1687 -0.498 -0.690 -0.526 81 67 56
5.1352 25.3407 63.5304 0.014 -0.507 -0.862 91 81 71
5.3395 25.3142 63.5145 -0.578 -0.366 -0.729 100 90 80
6.0985 25.2330 63.5921 0.226 0.218 -0.949 53 44 35
7.2720 25.1467 64.0226 0.402 0.023 -0.915 74 67 57
9.4550 24.9717 64.7095 0.196 -0.571 -0.797 63 56 50
11.7413 24.6659 64.4573 -0.706 0.689 -0.167 71 65 53
-58.7028 37.4452 97.5189 -0.736 -0.069 -0.674 53 64 68
-55.8402 36.6471 93.9389 -0.809 0.005 -0.588 61 71 73
-54.9942 36.1678 90.9758 -0.307 -0.056 -0.950 80 90 92
-54.8451 36.1493 90.9695 -0.396 -0.056 -0.916 79 89 91
-54.7090 36.1197 90.8648 -0.400 -0.023 -0.916 83 93 95
-54.5668 36.0952 90.8056 -0.590 -0.110 -0.800 85 95 97
-53.5584 35.8022 89.4518 -0.838 0.035 -0.544 65 74 73
-53.3118 35.7278 89.0996 -0.958 0.125 -0.256 78 88 89
-52.3174 35.9289 91.5995 -0.788 -0.615 -0.030 87 97 98
-49.3408 34.4942 83.1435 -0.256 0.039 -0.966 81 96 78
-49.2172 34.4652 83.0317 -0.462 -0.207 -0.863 73 88 69
-46.6375 34.1824 83.2213 -0.738 -0.217 -0.639 59 84 46
-46.3300 33.7654 80.2446 -0.526 0.288 -0.800 58 81 52
-46.2020 33.7404 80.1678 -0.601 0.222 -0.768 53 76 48
-46.0807 33.7128 80.0650 -0.601 0.222 -0.768 42 65 36
-45.9797 33.6778 79.8852 -0.274 -0.179 -0.945 55 81 47
-45.8449 33.6554 79.8356 -0.231 -0.179 -0.956 56 87 47
-45.5644 33.6146 79.7768 -0.344 -0.187 -0.920 55 88 43
-45.3841 33.6084 79.8966 -0.689 -0.348 -0.635 58 90 47
-44.2817 33.3006 78.5147 -0.512 -0.284 -0.811 83 99 88
-42.9894 32.9993 77.3607 -0.698 -0.002 -0.716 38 43 39
-42.8720 32.9723 77.2586 -0.705 -0.046 -0.707 57 62 58
-40.3296 32.3823 75.0087 -0.721 -0.374 -0.583 105 103 104
-38.6899 32.0250 73.7397 -0.735 0.035 -0.677 69 73 74
-38.5920 31.9956 73.6011 -0.705 0.074 -0.705 62 66 69
-38.4519 31.9753 73.5732 -0.452 -0.192 -0.871 56 60 63
-36.4108 31.7981 74.0874 -0.272 -0.212 -0.938 91 103 109
-32.9854 31.1118 71.9071 -0.621 -0.085 -0.779 98 108 109
-32.8456 31.0902 71.8682 -0.469 -0.080 -0.880 98 108 109
-32.7335 31.0644 71.7708 -0.456 -0.110 -0.883 86 96 97
-31.3975 30.7567 70.6070 -0.703 -0.091 -0.705 62 66 65
-31.2843 30.7316 70.5158 -0.423 0.045 -0.905 59 63 62
-31.2094 30.7014 70.3490 -0.454 -0.058 -0.889 57 61 60
-31.0858 30.6777 70.2791 -0.550 -0.118 -0.827 67 71 70
-28.2010 30.0674 68.1898 -0.057 0.183 -0.981 139 145 145
-23.6670 29.3721 66.9718 -0.342 0.233 -0.910 96 90 78
-23.4877 29.3530 66.9889 -0.346 -0.041 -0.937 93 90 78
-22.8162 29.2065 66.4678 -0.414 -0.310 -0.856 174 177 168
-20.8532 28.9248 66.0923 -0.664 -0.008 -0.748 98 97 92
-18.0832 28.4988 65.3387 -0.392 -0.442 -0.807 80 63 56
-17.9120 28.4775 65.3314 -0.609 -0.274 -0.744 80 65 58
-17.7993 28.4532 65.2457 -0.617 -0.281 -0.735 77 67 57
-17.6856 28.4289 65.1616 -0.628 -0.298 -0.719 79 70 59
-16.5458 28.3950 65.9585 -0.282 -0.204 -0.938 69 59 49
-12.1050 27.5839 63.7467 0.131 -0.746 -0.653 91 76 69
-11.2154 27.4987 63.9092 -0.378 0.165 -0.911 94 77 70
-7.8307 27.3065 65.5576 -0.538 -0.820 -0.196 93 79 68
-8.1612 27.1886 64.3267 -0.977 -0.208 -0.049 88 71 63
-8.2911 27.1586 63.9712 -0.138 -0.155 -0.978 86 69 61
-8.1396 27.1346 63.9244 -0.163 -0.171 -0.972 86 69 62
-7.9676 27.1110 63.8997 -0.163 -0.171 -0.972 87 70 63
-7.8048 27.0871 63.8647 -0.211 -0.169 -0.963 86 69 62
-7.6425 27.0632 63.8291 -0.202 -0.162 -0.966 79 62 55
-7.3940 27.0409 63.8859 -0.122 -0.137 -0.983 79 62 55
-7.2101 27.0173 63.8726 -0.460 0.036 -0.887 79 62 55
0.6307 26.0417 63.5413 -0.596 0.046 -0.802 83 70 61
3.4697 25.7335 63.7735 0.370 -0.455 -0.810 80 77 62
5.0300 25.5497 63.7883 -0.045 -0.142 -0.989 90 81 72
5.4771 25.4715 63.5931 -0.192 -0.520 -0.832 88 75 66
7.5553 25.2797 64.0277 0.192 -0.179 -0.965 75 68 58
8.2607 25.2229 64.2401 0.167 0.435 -0.885 76 69 61
8.6168 25.1942 64.3476 0.290 -0.566 -0.772 76 69 63
11.5625 24.9084 64.8544 0.416 0.122 -0.901 70 64 52
11.8748 24.8289 64.5235 -0.755 0.621 -0.212 70 64 50
12.5674 24.7439 64.5037 0.443 -0.121 -0.889 74 66 55
13.4983 24.6796 64.8674 0.359 -0.177 -0.917 87 78 69
14.2060 24.6432 65.2421 -0.850 0.453 -0.267 93 84 77
14.4558 24.5144 64.4663 -0.866 0.041 -0.499 60 58 46
-60.9254 38.6635 103.5984 -0.704 0.607 -0.368 39 48 47
-57.0028 36.9935 94.2786 -0.301 -0.456 -0.837 68 78 79
-56.3864 36.9305 94.3547 -0.269 -0.085 -0.959 63 74 78
-55.4230 36.6989 93.4455 -0.981 0.193 0.015 78 88 89
-54.9806 36.3229 90.9449 -0.195 -0.234 -0.952 70 80 82
-52.1742 35.6858 88.5852 -0.926 -0.126 -0.355 86 95 94
-51.9330 35.6108 88.2263 -0.392 0.472 -0.790 79 88 87
-49.3259 34.6422 83.1244 -0.261 0.031 -0.965 75 89 71
-49.1918 34.6183 83.0622 -0.318 0.041 -0.947 67 82 63
-46.7718 34.3512 83.2084 -0.760 -0.222 -0.611 58 83 43
-46.0476 33.8653 80.1158 -0.461 0.359 -0.811 56 80 48
-45.9730 33.8200 79.8342 -0.249 -0.178 -0.952 55 81 47
-45.8011 33.8116 79.9260 -0.157 -0.110 -0.982 56 86 48
-45.6866 33.7816 79.7988 -0.070 -0.326 -0.943 55 88 46
-45.5532 33.7586 79.7433 -0.344 -0.187 -0.920 56 88 46
-45.4236 33.7343 79.6736 -0.390 -0.153 -0.908 55 87 45
-42.9847 33.1397 77.3077 -0.545 -0.174 -0.820 45 49 47
-42.8560 33.1160 77.2422 -0.555 -0.193 -0.809 60 64 63
-39.6558 32.2016 73.1006 -0.118 0.225 -0.967 88 90 87
-36.5417 31.9613 74.0884 -0.272 -0.212 -0.938 89 99 105
-36.4013 31.9401 74.0525 -0.272 -0.212 -0.938 93 103 109
-35.3745 31.7511 73.5305 -0.377 -0.287 -0.880 129 132 138
-33.2868 31.3351 72.2227 -0.595 0.114 -0.796 77 87 88
-31.3855 30.8976 70.5792 -0.701 -0.102 -0.706 68 73 72
-31.2726 30.8724 70.4874 -0.444 -0.055 -0.894 61 65 64
-31.2012 30.8415 70.3138 -0.481 -0.094 -0.872 54 59 57
-31.0872 30.8165 70.2251 -0.583 -0.129 -0.802 74 78 77
-29.3439 30.2614 67.5287 -0.613 -0.414 -0.673 121 127 127
-27.2116 30.2396 69.3080 -0.614 -0.472 -0.633 143 149 149
-27.1592 30.2080 69.1118 -0.260 0.404 -0.877 145 150 148
-28.2050 30.0595 67.0092 -0.365 -0.577 -0.731 145 149 147
-27.9785 30.0476 67.1243 -0.432 -0.608 -0.667 145 150 148
-27.6163 30.0498 67.4717 -0.679 -0.477 -0.557 147 151 149
-23.9563 29.4883 66.4765 -0.580 -0.396 -0.711 94 89 78
-23.4676 29.4949 66.9738 -0.467 -0.122 -0.876 86 84 72
-21.9004 29.2184 66.2690 -0.381 -0.338 -0.861 99 100 92
-13.9936 28.0308 64.3158 -0.238 0.023 -0.971 86 71 66
-13.8413 28.0079 64.2779 -0.238 0.023 -0.971 86 71 68
-13.6889 27.9850 64.2400 -0.238 0.023 -0.971 86 71 68
-13.5403 27.9619 64.1974 -0.243 0.017 -0.970 86 71 66
-11.2546 27.6431 63.8216 -0.441 0.022 -0.897 100 83 77
-7.3213 27.1910 63.9215 -0.634 -0.451 -0.628 84 67 60
-7.1554 27.1672 63.8888 -0.710 -0.453 -0.539 84 67 60
-3.3817 26.6634 63.4432 0.343 -0.489 -0.802 100 86 75
4.9037 25.7341 63.8309 -0.753 0.315 -0.578 87 82 68
4.9841 25.6828 63.5082 0.043 -0.532 -0.846 92 82 72
5.1253 25.6569 63.4368 0.007 -0.545 -0.838 93 80 71
9.7504 25.2449 64.4784 -0.188 -0.947 -0.261 87 80 72
12.0580 25.0171 64.8262 -0.805 0.582 -0.116 68 62 48
12.1038 24.9912 64.6677 -0.808 0.577 -0.121 68 62 48
13.5606 24.8457 64.8740 0.310 -0.207 -0.928 86 77 68
14.2354 24.8109 65.2217 -0.819 0.431 -0.379 94 85 78
14.1610 24.7866 64.9659 -0.843 0.341 -0.416 79 70 61
14.4706 24.7568 65.0182 -0.818 0.477 -0.322 89 82 72
14.6381 24.7290 64.9565 -0.813 0.480 -0.330 73 69 58
14.6287 24.7039 64.7541 -0.815 -0.088 -0.572 85 83 71
-62.5347 39.4039 106.4547 -0.698 -0.610 -0.374 115 117 105
-62.3791 39.3676 106.3173 -0.671 -0.626 -0.398 116 128 122
-62.2259 39.3245 106.1255 -0.663 -0.634 -0.397 66 81 78
-60.8878 38.8837 103.9619 -0.730 0.590 -0.345 35 44 43
-60.7388 38.8412 103.7712 -0.741 0.560 -0.369 33 43 42
-56.9857 37.1560 94.2772 -0.618 -0.041 -0.785 69 79 80
-54.0236 36.2649 90.1331 -0.657 -0.244 -0.713 73 83 84
-53.8822 36.2403 90.0717 -0.637 -0.267 -0.723 73 82 81
-53.7573 36.2026 89.8967 -0.776 -0.151 -0.613 71 80 79
-53.6301 36.1671 89.7393 -0.761 -0.160 -0.629 71 80 79
-52.1665 35.8354 88.5202 -0.672 0.202 -0.712 87 96 95
-52.0488 35.7957 88.3229 -0.716 0.280 -0.639 77 86 85
-51.9265 35.7594 88.1551 -0.663 0.377 -0.647 78 87 86
-51.5395 35.4415 86.0768 -0.861 0.044 -0.507 81 85 86
-51.4263 35.4026 85.8815 -0.861 0.044 -0.507 78 82 83
-51.3111 35.3652 85.6997 -0.843 -0.005 -0.538 80 81 84
-51.1965 35.3279 85.5173 -0.837 0.011 -0.547 81 82 85
-51.0651 35.3007 85.4279 -0.324 0.184 -0.928 78 82 80
-50.9324 35.2744 85.3463 -0.345 0.112 -0.932 79 81 78
-50.0215 34.9841 83.9475 -0.679 0.099 -0.727 78 86 77
-49.4727 34.8000 83.0345 -0.285 -0.650 -0.704 72 85 68
-47.5821 34.2279 80.3636 -0.960 -0.265 -0.092 58 83 36
-46.9246 34.4294 82.4901 -0.882 -0.304 -0.360 58 84 40
-45.6852 33.9219 79.7283 -0.083 -0.329 -0.941 59 84 54
-45.5483 33.9003 79.6860 -0.330 -0.188 -0.925 59 84 52
-44.7208 33.7021 78.9160 -0.771 -0.142 -0.620 69 85 79
-42.8461 33.2579 77.2061 -0.612 -0.077 -0.787 65 70 65
-42.6174 33.2019 76.9841 -0.859 -0.030 -0.511 72 77 72
-40.3734 32.6469 74.7603 -0.356 -0.614 -0.704 85 85 83
-39.3316 32.3087 73.1133 -0.118 -0.102 -0.988 83 83 81
-39.1116 32.2558 72.9067 -0.045 0.008 -0.999 81 81 81
-36.3919 32.0821 74.0176 -0.272 -0.212 -0.938 124 130 134
-36.2645 32.0583 73.9499 -0.292 -0.216 -0.932 120 128 131
-36.1288 32.0361 73.9022 -0.363 -0.237 -0.901 121 127 131
-36.0000 32.0125 73.8381 -0.614 -0.117 -0.780 125 131 135
-35.8708 31.9891 73.7747 -0.624 -0.131 -0.771 127 133 137
-31.7126 31.0310 70.1908 -0.289 0.211 -0.934 77 86 85
-31.4378 30.9469 69.7952 -0.531 0.072 -0.845 75 84 83
-31.4354 30.9065 69.4893 -0.223 -0.281 -0.933 98 106 105
-29.3825 30.3930 67.4110 -0.511 -0.309 -0.803 136 145 144
-24.8821 29.8900 67.6049 -0.553 -0.274 -0.787 90 97 79
-21.7461 29.3376 66.1994 -0.236 -0.330 -0.914 83 83 73
-13.7078 28.1575 64.3968 -0.847 -0.087 -0.524 88 71 65
-13.5474 28.1057 64.1459 -0.847 -0.087 -0.524 87 70 63
-13.4348 28.0523 63.8394 -0.390 -0.010 -0.921 88 74 65
-8.6940 27.5839 64.5117 -0.414 -0.898 -0.147 93 79 68
-7.4335 27.3371 63.7584 -0.395 -0.215 -0.893 91 74 67
-7.2027 27.3149 63.7955 -0.509 -0.086 -0.857 91 74 67
-7.0438 27.2362 63.3374 -0.758 -0.179 -0.627 86 71 64
-3.4741 26.8133 63.3086 0.309 -0.535 -0.786 90 76 65
0.9548 26.3527 63.7616 0.043 -0.791 -0.610 76 63 55
4.3641 25.9966 64.0989 0.420 -0.527 -0.739 85 79 63
4.4887 25.9705 64.0119 -0.940 0.277 -0.197 85 79 63
5.1382 25.8405 63.6020 -0.340 -0.315 -0.886 97 87 77
8.4988 25.5450 64.3575 -0.133 -0.717 -0.684 83 76 68
8.7236 25.5180 64.3523 -0.068 -0.768 -0.636 84 77 69
8.8137 25.4916 64.2324 -0.127 -0.811 -0.571 84 77 71
9.1775 25.4379 64.1483 -0.128 -0.856 -0.501 100 93 87
9.3452 25.4111 64.0940 -0.428 -0.859 -0.282 98 91 85
12.0351 25.1064 64.1784 -0.028 -0.275 -0.961 96 90 76
12.5685 25.0751 64.4177 0.333 -0.387 -0.860 84 76 65
12.9807 25.0450 64.5570 0.340 -0.406 -0.848 79 70 61
13.4290 25.0142 64.7241 0.332 -0.249 -0.910 85 76 67
13.8925 24.9831 64.9020 -0.643 -0.312 -0.700 96 86 77
14.0031 24.9562 64.7955 -0.670 -0.317 -0.671 74 65 56
14.2882 24.9270 64.8285 -0.610 -0.306 -0.731 77 70 60
14.4501 24.8994 64.7629 -0.976 0.047 -0.211 74 71 59
14.4776 24.8736 64.5903 -0.707 -0.432 -0.560 93 91 79
14.1658 24.8524 64.1496 -0.985 -0.159 -0.066 83 83 71
-60.8421 39.1235 104.4689 -0.970 0.119 -0.211 38 47 46
-60.7040 39.0552 104.0762 -0.953 0.151 -0.264 42 52 51
-56.6705 37.2767 94.2224 -0.224 -0.078 -0.972 69 80 82
-53.7382 36.3615 89.9045 -0.662 -0.299 -0.688 77 86 85
-53.6016 36.3332 89.8108 -0.646 -0.330 -0.688 78 87 86
-53.4942 36.2822 89.5210 -0.855 0.033 -0.517 77 87 86
-52.7363 36.1981 89.5536 -0.769 0.062 -0.636 73 83 84
-51.8968 35.9234 88.2218 -0.662 0.385 -0.643 79 88 87
-51.4104 35.5542 85.8676 -0.861 0.044 -0.507 79 83 82
-51.3098 35.5076 85.6048 -0.623 0.136 -0.771 75 79 77
-51.1816 35.4784 85.4976 -0.837 0.011 -0.547 77 81 80
-51.0407 35.4570 85.4602 -0.347 0.127 -0.929 80 85 80
-50.9119 35.4283 85.3572 -0.345 0.112 -0.932 79 84 76
-49.9895 35.1424 84.0140 -0.671 0.101 -0.735 75 87 71
-48.9120 34.8576 82.8153 -0.515 -0.494 -0.701 43 61 37
-48.7859 34.8299 82.7170 -0.643 -0.370 -0.671 36 54 30
-45.9125 34.1225 79.9128 -0.576 0.320 -0.752 61 81 54
-45.2342 34.3113 81.9301 -0.904 -0.215 -0.371 52 71 48
-45.6711 34.0669 79.7056 -0.248 -0.222 -0.943 51 70 48
-45.5039 34.0569 79.7773 -0.688 -0.238 -0.686 77 95 73
-45.3841 34.0287 79.6704 -0.696 -0.290 -0.656 101 118 95
-44.6935 33.8513 78.9405 -0.681 0.169 -0.712 108 117 111
-44.2737 33.7210 78.3279 -0.450 -0.252 -0.857 79 89 81
-44.1512 33.6949 78.2382 -0.515 -0.294 -0.805 81 89 82
-42.6402 33.3336 76.8441 -0.718 -0.178 -0.673 82 87 81
-41.9521 33.0479 75.2967 -0.463 0.193 -0.865 87 89 84
-40.9414 33.1542 76.9849 -0.897 0.175 -0.406 107 107 99
-40.7602 33.0850 76.6230 -0.743 0.237 -0.626 119 116 107
-40.6359 33.0599 76.5427 -0.669 0.237 -0.705 96 93 84
-40.5239 33.0314 76.4269 -0.669 0.237 -0.705 95 95 85
-40.4152 33.0022 76.3022 -0.645 -0.065 -0.761 94 94 84
-38.1756 32.4503 74.1123 -0.676 0.069 -0.734 67 67 69
-36.5228 32.2452 74.0187 -0.272 -0.212 -0.938 128 133 137
-36.3824 32.2240 73.9827 -0.272 -0.212 -0.938 123 128 132
-36.1253 32.1768 73.8531 -0.352 -0.281 -0.893 136 144 146
-35.1735 31.9736 73.1583 -0.537 -0.357 -0.764 64 72 74
-33.8852 31.7397 72.5280 -0.271 -0.402 -0.875 90 96 96
-32.4841 31.3922 71.1410 -0.589 -0.193 -0.785 124 133 134
-31.7273 31.2515 70.7459 -0.091 -0.217 -0.972 104 114 115
-29.3151 30.5372 67.4843 -0.637 -0.371 -0.675 138 147 146
-29.1041 30.4498 67.0112 -0.308 -0.523 -0.795 139 148 147
-24.0125 29.7958 66.5566 -0.355 0.198 -0.913 89 101 81
-23.6653 29.7579 66.5760 -0.626 -0.286 -0.725 107 115 100
-21.9206 29.4976 66.1483 -0.416 -0.410 -0.812 96 96 88
-20.9071 29.3767 66.1273 -0.601 -0.332 -0.727 69 68 64
-20.7701 29.3539 66.0763 -0.705 -0.149 -0.694 75 74 69
-16.2952 28.6869 64.9821 -0.627 -0.462 -0.627 95 88 70
-14.5103 28.3840 64.2682 0.082 -0.526 -0.847 96 79 71
-13.8588 28.3246 64.3935 -0.740 -0.033 -0.672 88 71 63
-13.4106 28.1970 63.8256 -0.426 -0.032 -0.904 85 71 58
-7.1418 27.4650 63.8182 -0.486 -0.122 -0.866 95 78 71
-4.1668 27.0337 63.1819 -0.056 -0.901 -0.430 86 72 61
-3.7619 27.0135 63.3857 -0.811 -0.581 -0.076 81 67 56
-3.1727 26.9690 63.5675 0.218 -0.362 -0.906 78 64 53
-2.8372 26.9471 63.6977 -0.766 -0.469 -0.441 87 73 62
0.2494 26.5816 63.6556 -0.336 -0.009 -0.942 76 63 55
7.1037 25.7891 63.7062 0.382 -0.567 -0.730 70 63 53
7.5574 25.7620 63.9008 0.177 -0.258 -0.950 70 63 53
8.0432 25.7347 64.1213 0.062 -0.402 -0.914 69 62 54
8.4108 25.7074 64.2392 -0.098 -0.739 -0.667 78 71 63
8.5113 25.6810 64.1284 -0.062 -0.768 -0.637 79 72 66
8.7035 25.6543 64.0957 -0.180 -0.784 -0.594 79 72 66
8.8960 25.6016 63.8677 -0.119 -0.855 -0.505 100 93 87
8.9329 25.5755 63.7042 -0.391 -0.879 -0.273 100 93 85
12.2570 25.3732 65.0994 0.211 -0.867 -0.451 77 71 58
12.0997 25.2705 64.1878 -0.055 -0.250 -0.967 82 76 62
12.5896 25.2404 64.3913 0.276 -0.582 -0.765 85 77 66
13.3815 25.1813 64.6422 0.334 -0.395 -0.856 72 63 54
13.9175 25.1502 64.8783 -0.233 -0.847 -0.478 74 64 55
14.0822 25.1226 64.8151 -0.236 -0.834 -0.499 73 64 55
13.9724 25.0210 63.9531 -0.999 0.032 0.023 79 77 65
14.8564 24.9594 64.2661 0.512 0.148 -0.846 65 63 51
-60.8138 39.3251 104.6640 -0.985 0.028 -0.171 47 56 55
-60.5199 39.2262 104.1812 -0.661 0.378 -0.649 64 74 73
-53.7440 36.5004 89.7405 -0.577 -0.387 -0.720 83 93 92
-53.6140 36.4670 89.6042 -0.585 -0.428 -0.689 83 93 92
-53.4796 36.4372 89.4983 -0.604 -0.405 -0.686 83 93 92
-52.7192 36.3555 89.5459 -0.610 -0.244 -0.754 69 79 78
-52.1825 36.1125 88.2005 -0.972 -0.042 -0.233 79 85 83
-51.9931 36.1221 88.4349 -0.721 0.281 -0.633 75 84 81
-51.8427 36.1044 88.4325 -0.432 0.575 -0.694 74 83 80
-51.2762 35.6700 85.6893 -0.840 -0.004 -0.543 57 62 56
-51.1627 35.6314 85.5000 -0.845 0.001 -0.535 69 74 68
-51.0160 35.6136 85.4939 -0.497 -0.084 -0.864 89 95 85
-50.7492 35.5615 85.3358 -0.444 -0.434 -0.784 85 89 76
-49.9760 35.2907 83.9877 -0.658 0.064 -0.750 69 85 60
-47.8510 34.6319 80.9172 -0.398 0.040 -0.916 57 84 44
-47.7260 34.6052 80.8264 -0.411 0.012 -0.912 57 87 45
-45.5721 34.6342 82.8977 -0.941 -0.200 -0.272 63 82 52
-45.6175 34.2274 79.8322 -0.688 -0.238 -0.686 89 102 89
-44.8107 34.0193 78.9793 -0.589 -0.068 -0.806 127 133 126
-44.6999 33.9884 78.8445 -0.686 0.085 -0.723 119 124 117
-44.2916 33.8537 78.1939 -0.511 0.195 -0.837 75 82 75
-44.1672 33.8282 78.1119 -0.511 0.195 -0.837 73 78 72
-43.9331 33.7724 77.8978 -0.590 0.024 -0.807 63 65 60
-43.8038 33.7487 77.8333 -0.604 0.026 -0.797 98 99 94
-42.7097 33.5141 77.0302 -0.819 -0.131 -0.559 101 104 97
-41.9190 33.1943 75.3327 -0.431 0.167 -0.887 93 96 89
-40.7315 33.2329 76.6428 -0.719 0.097 -0.689 112 112 102
-40.3898 33.1488 76.3117 -0.684 0.190 -0.704 94 94 84
-39.9325 33.0962 76.3141 -0.668 0.167 -0.725 86 86 84
-40.3901 32.9173 74.5889 -0.722 -0.038 -0.690 86 86 84
-38.3545 32.6536 74.3806 -0.883 0.031 -0.468 81 79 80
-38.1602 32.5924 74.0930 -0.245 -0.075 -0.967 68 66 67
-36.1251 32.3168 73.7960 -0.568 -0.284 -0.772 101 111 112
-35.9882 32.2950 73.7514 -0.632 -0.247 -0.734 82 92 93
-35.8712 32.2691 73.6593 -0.632 -0.247 -0.734 66 76 77
